ply
format ascii 1.0
element vertex 1413
property float x
property float y
property float z
property int scalar_Label
end_header
-145.736723 27.579154 13.289562 7
-142.842233 27.885777 12.732985 7
-139.925103 28.164504 12.161757 7
-137.000579 28.466371 11.592448 7
-134.068996 28.792273 11.025344 7
-131.088827 29.024459 10.420751 7
-128.120550 29.339682 9.837791 7
-125.115614 29.603356 9.230850 7
-122.089113 29.861109 8.615057 7
-118.992535 29.993913 7.948809 7
-116.140206 30.780320 7.503367 8
-113.956681 33.173459 7.619862 8
-111.766723 35.487704 7.712180 8
-109.651066 37.910915 7.846925 8
-107.250602 39.651169 7.739183 8
-104.467911 40.554961 7.327332 8
-101.345517 40.775427 6.660249 8
-98.157524 40.919282 5.955964 8
-94.920076 41.026113 5.228267 8
-91.652845 41.138587 4.492546 8
-88.325845 41.202280 3.727943 8
-84.967445 41.274819 2.955672 8
-81.582156 41.365927 2.179209 8
-78.154639 41.449822 1.388383 8
-74.646667 41.464110 0.558370 8
-71.045173 41.394099 -0.317680 8
-67.415443 41.354283 -1.195496 8
-59.002088 33.769592 -5.111497 9
-58.112042 38.315068 -4.189938 9
-55.375972 39.926550 -4.448119 9
-52.622855 41.520220 -4.717545 9
-49.887646 43.149444 -4.976480 9
-47.129216 44.754489 -5.249753 9
-44.133404 46.038924 -5.662994 9
-40.723507 46.782645 -6.313822 9
-36.729047 46.792984 -7.291584 9
-32.537218 46.625566 -8.364358 9
-28.219049 46.385520 -9.488871 9
-23.837145 46.159181 -10.628556 9
-19.306696 45.844518 -11.829466 9
-11.418119 41.578467 -14.832237 9
-9.872719 45.070565 -14.367873 9
-9.796193 50.212422 -13.138555 4
-22.630086 69.880874 -5.156519 1
-22.696787 74.656808 -3.985462 1
-22.423454 78.955285 -3.017866 1
-21.059172 82.001882 -2.629594 1
-19.013628 84.298860 -2.596307 1
-16.400651 86.007814 -2.850400 1
-16.751316 90.709504 -1.638436 3
-16.781099 94.993921 -0.610291 3
-12.508443 95.046143 -1.690002 3
-13.266072 99.934502 -0.337418 2
-12.190440 103.018227 0.115297 2
-8.735395 103.908583 -0.563950 2
-4.824853 104.447501 -1.445832 2
-4.550474 108.220482 -0.632013 2
-0.935256 109.083808 -1.366584 2
3.758511 109.103899 -2.580320 2
27.974748 93.243066 -12.568214 3
48.597467 123.701888 -11.035189 3
50.280991 126.581053 -10.837201 3
51.903958 129.493889 -10.618360 3
53.597809 132.359211 -10.431858 3
55.216366 135.267143 -10.218569 3
56.892994 138.138393 -10.031776 3
58.742476 140.911358 -9.915870 3
-149.705269 -27.991465 3.826647 7
-146.210282 -28.135123 3.051651 7
-142.718600 -28.179038 2.299700 7
-139.208630 -28.212618 1.543945 7
-150.440147 24.841558 17.122806 7
-147.555721 25.156568 16.582700 7
-144.703356 25.619562 16.084090 7
-141.808403 25.976781 15.547974 7
-138.904252 26.345003 15.010483 7
-135.990800 26.724956 14.471760 7
-133.042336 27.042754 13.907931 7
-130.122186 27.484890 13.378864 7
-127.162708 27.857132 12.821806 7
-124.160174 28.157904 12.235536 7
-121.123740 28.419097 11.629905 7
-118.081980 28.717596 11.030122 7
-115.711426 30.694797 10.989463 8
-113.391141 32.747477 10.976354 8
-111.275863 35.225631 11.111131 8
-109.104916 37.513313 11.184674 8
-105.332696 36.262402 10.031342 8
-103.794727 39.878925 10.567652 8
-100.662780 40.085361 9.910117 8
-97.468585 40.222845 9.219550 8
-94.209944 40.294253 8.496124 8
-91.031774 40.584331 7.841995 8
-87.751135 40.737317 7.129031 8
-84.409954 40.841608 6.388222 8
-81.054315 40.985016 5.651366 8
-77.635264 41.081793 4.886436 8
-74.173791 41.173123 4.108179 8
-70.663013 41.250245 3.312854 8
-67.058772 41.244646 2.473692 8
-58.984842 34.204672 -1.097387 9
-58.036457 38.631455 -0.258542 9
-55.293969 40.212970 -0.522896 9
-52.575450 41.838797 -0.773351 9
-49.840096 43.447890 -1.034074 9
-47.130601 45.103391 -1.279964 9
-44.135086 46.368420 -1.688625 9
-40.718500 47.084339 -2.329728 9
-36.831031 47.220544 -3.222382 9
-32.727585 47.149143 -4.217925 9
-28.575068 47.099818 -5.222347 9
-24.214830 46.874909 -6.320243 9
-19.883591 46.779520 -7.383142 9
-15.450036 46.650732 -8.480921 9
-11.110312 46.725436 -9.510879 9
-14.089136 55.352962 -6.775924 4
-22.975586 70.418653 -1.110935 1
-23.028211 75.154185 0.002937 1
-22.593536 79.253704 0.848264 1
-21.223690 82.275845 1.213609 1
-19.133105 84.508145 1.217918 1
-16.357198 86.034162 0.889165 1
-16.599992 90.614345 2.002335 3
-16.538632 94.798690 2.947541 3
-12.419656 94.991466 1.975480 3
-11.764153 98.534195 2.622779 2
-11.331012 102.228837 3.357576 2
-8.698473 103.869162 3.077124 2
-5.099784 104.673976 2.364671 2
-5.164390 108.725752 3.297687 2
-0.940401 109.047391 2.315682 2
4.782094 108.195963 0.692482 2
27.928572 93.211001 -8.474489 3
31.443260 94.677227 -9.028416 3
33.253638 97.528402 -8.846560 3
34.938232 100.467242 -8.615920 3
36.656854 103.368378 -8.404705 3
38.292746 106.320578 -8.163696 3
39.970040 109.231401 -7.944770 3
41.634806 112.141880 -7.725183 3
43.292749 115.048477 -7.507156 3
44.976007 117.930090 -7.303490 3
46.607080 120.840060 -7.082748 3
48.257105 123.730940 -6.873442 3
49.927550 126.603495 -6.675775 3
51.573780 129.487076 -6.471941 3
53.221857 132.365710 -6.272076 3
54.903492 135.221516 -6.088182 3
56.512644 138.117946 -5.879324 3
58.381133 140.865436 -5.771650 3
61.246490 143.068252 -6.040067 3
66.172377 144.193381 -7.073029 3
73.404712 144.191696 -8.944631 3
-149.446391 -26.698460 8.187576 7
-145.919530 -27.045828 7.370819 7
-142.408680 -27.228761 6.594329 7
-138.837125 -27.548448 5.770636 7
-149.204127 22.058054 19.696596 7
-146.377809 22.658144 19.243375 7
-143.481560 23.047011 18.723643 7
-140.625393 23.601244 18.249692 7
-137.735811 24.078653 17.748712 7
-134.843109 24.579532 17.250810 7
-131.920599 25.026300 16.731987 7
-128.986312 25.476655 16.209686 7
-126.023717 25.887274 15.670149 7
-123.034075 26.267047 15.115726 7
-120.011185 26.604791 14.542440 7
-116.999589 27.017015 13.987258 7
-113.680037 26.727110 13.198796 8
-112.743903 32.126842 14.259775 8
-110.608208 34.555511 14.362039 8
-108.426950 36.819642 14.414067 8
-105.869301 38.214768 14.178855 8
-102.922651 38.781843 13.663199 8
-99.797534 39.018743 13.029493 8
-96.666877 39.299383 12.402938 8
-93.492355 39.547494 11.757297 8
-90.262411 39.745376 11.085870 8
-87.004016 39.949050 10.407627 8
-83.676963 40.086972 9.697002 8
-80.305592 40.209209 8.970993 8
-76.973714 40.464786 8.282783 8
-73.566779 40.652221 7.560123 8
-70.074800 40.761716 6.798477 8
-66.543865 40.875583 6.027156 8
-59.012478 34.706638 2.905230 9
-57.775629 38.656451 3.530480 9
-55.039720 40.234265 3.269602 9
-52.369465 41.918274 3.046029 9
-49.652639 43.539666 2.795574 9
-46.903575 45.123979 2.527335 9
-43.930034 46.406882 2.137027 9
-40.566218 47.182382 1.539697 9
-36.726396 47.369214 0.697133 9
-32.707635 47.394664 -0.225282 9
-28.572600 47.351666 -1.192068 9
-24.333911 47.263149 -2.195165 9
-20.064528 47.224608 -3.196141 9
-15.659049 47.109174 -4.248141 9
-15.065956 51.583722 -3.381486 4
-15.225009 56.835330 -2.166777 4
-23.296636 70.927063 2.878440 1
-23.377520 75.669962 3.957036 1
-22.453999 79.214239 4.530161 1
-21.317307 82.473297 4.987665 1
-19.171585 84.632059 4.960581 1
-16.443354 86.192681 4.661188 1
-12.664968 86.722592 3.882918 1
-15.514163 93.834316 6.130213 3
-12.454012 95.055242 5.671376 3
-10.844966 97.684292 5.866270 3
-9.991285 100.994979 6.389282 2
-8.551435 103.729925 6.644120 2
2.634239 97.783771 2.664404 3
-4.113427 107.781772 6.464922 2
-1.032677 109.085604 6.008217 2
3.626570 109.109294 4.891506 2
27.829870 93.222470 -4.389396 3
31.201935 94.789082 -4.865138 3
32.998692 97.635299 -4.685641 3
34.680248 100.560912 -4.463194 3
36.347099 103.485695 -4.239416 3
38.026028 106.390254 -4.024967 3
39.650069 109.324557 -3.792849 3
41.321274 112.214923 -3.583655 3
43.030025 115.071128 -3.392949 3
44.660031 117.974536 -3.175012 3
46.335456 120.840296 -2.978216 3
47.939586 123.746939 -2.757342 3
49.630983 126.591730 -2.572975 3
51.246414 129.480421 -2.362739 3
52.879646 132.353807 -2.162134 3
54.560694 135.195646 -1.981953 3
56.162958 138.081961 -1.775081 3
57.975279 140.846950 -1.647411 3
60.859754 143.023433 -1.909249 3
65.684338 144.185858 -2.863744 3
72.883997 144.180499 -4.650554 3
80.285977 144.213861 -6.481693 3
-148.442474 -28.550415 11.632044 7
-145.921168 -24.812313 11.959134 7
-142.372303 -25.250854 11.131197 7
-150.338766 16.948577 22.286384 7
-147.858983 18.910401 22.216644 7
-144.988436 19.455095 21.745442 7
-142.150363 20.132484 21.309368 7
-139.281914 20.730516 20.847659 7
-136.384095 21.262238 20.363453 7
-133.495833 21.852147 19.892836 7
-130.589355 22.416536 19.411201 7
-127.642848 22.898741 18.901255 7
-124.677271 23.364997 18.382241 7
-121.748557 23.965793 17.899639 7
-118.755878 24.433903 17.372347 7
-116.083109 25.734687 17.097439 8
-114.078421 28.639637 17.321102 8
-112.009236 31.300292 17.475033 8
-109.897208 33.785965 17.579329 8
-107.631659 35.865021 17.558775 8
-104.954789 37.011900 17.241245 8
-101.918375 37.408049 16.678205 8
-98.833728 37.751309 16.091581 8
-95.688784 38.023366 15.474696 8
-92.517529 38.297858 14.851194 8
-89.333247 38.601983 14.229952 8
-86.089574 38.849344 13.581789 8
-82.820591 39.107957 12.929119 8
-79.490528 39.315617 12.250405 8
-76.169923 39.600351 11.589237 8
-72.759204 39.790241 10.885972 8
-69.290513 39.947108 10.161224 8
-65.797383 40.129754 9.435246 8
-58.722239 34.700365 6.688807 9
-57.343843 38.413756 7.199366 9
-54.624541 40.008958 6.948759 9
-51.972763 41.712139 6.735104 9
-49.246535 43.311390 6.480681 9
-46.559493 44.975988 6.247619 9
-43.575761 46.235562 5.858807 9
-40.176763 46.955092 5.258470 9
-36.331045 47.127813 4.438110 9
-32.357822 47.206874 3.567339 9
-28.277530 47.226869 2.658193 9
-24.217613 47.354022 1.775173 9
-19.946562 47.300353 0.804028 9
-15.682471 47.342205 -0.146598 9
-15.396187 52.158897 0.826159 4
-15.336338 57.130887 1.881768 4
-20.279348 67.654485 5.259320 1
-19.131356 71.085960 5.734806 1
-14.810373 71.015350 4.739030 1
-12.185921 72.840498 4.532448 1
-16.625538 82.056389 7.509493 1
-16.389483 86.207306 8.339807 1
-12.604465 86.718841 7.584040 1
-13.810391 92.202243 9.024013 3
-12.319298 94.955891 9.265972 3
-9.190009 96.139665 8.798354 3
-8.764065 99.865261 9.487347 2
-7.850220 103.088157 9.956538 2
-4.563927 104.162575 9.425204 2
0.286524 103.921303 8.254906 2
5.066216 103.841254 7.133265 2
21.478917 94.132005 1.301568 3
27.758894 93.211761 -0.346437 3
30.936338 94.921123 -0.727492 3
32.708755 97.770515 -0.546320 3
34.394633 100.676767 -0.334868 3
36.040287 103.601843 -0.111813 3
37.724871 106.486458 0.092113 3
39.393182 109.373356 0.298644 3
41.057479 112.254094 0.503177 3
42.700334 115.141517 0.712443 3
44.344276 118.020330 0.918024 3
45.958120 120.912178 1.131681 3
47.617058 123.767847 1.325679 3
49.271800 126.621420 1.518579 3
50.891529 129.492678 1.721674 3
52.564609 132.327335 1.903089 3
54.190631 135.187955 2.099227 3
55.811393 138.049148 2.295071 3
57.672322 140.772428 2.404573 3
60.437416 143.000612 2.198456 3
65.163430 144.198671 1.318533 3
72.288998 144.211228 -0.370515 3
79.740118 144.196857 -2.143992 3
87.472266 144.188688 -3.984784 3
95.506414 144.185392 -5.898250 3
-150.043050 -19.579181 17.945051 7
-146.423256 -20.629097 16.990163 7
-142.770053 -21.650960 16.033253 7
-149.577081 15.878157 25.442954 7
-146.725260 16.537741 25.005686 7
-143.880201 17.236611 24.577044 7
-140.929501 17.603403 24.054787 7
-137.977729 18.005977 23.538805 7
-135.000794 18.369035 23.008095 7
-132.035525 18.807806 22.494773 7
-129.032441 19.175059 21.957292 7
-126.124574 19.849801 21.503734 7
-123.177891 20.444368 21.023953 7
-120.229565 21.065106 20.548240 7
-116.581699 19.936397 19.554821 7
-115.348968 24.906921 20.356198 8
-113.184388 27.428740 20.443195 8
-111.173707 30.238689 20.622135 8
-109.050829 32.708819 20.704515 8
-105.340831 31.600016 19.696631 8
-103.835569 35.370295 20.180922 8
-100.824411 35.849397 19.652849 8
-97.711362 36.161879 19.067069 8
-94.581678 36.492360 18.480455 8
-91.431152 36.833312 17.890521 8
-88.218352 37.107128 17.272166 8
-85.019713 37.462587 16.672840 8
-81.754920 37.750297 16.044117 8
-78.450798 38.024529 15.403071 8
-75.108278 38.289910 14.750855 8
-71.788372 38.652425 14.122650 8
-68.387472 38.936280 13.459547 8
-58.983771 29.568563 9.495085 9
-57.869668 33.801781 10.143883 9
-56.764429 37.940894 10.773639 9
-54.101469 39.618618 10.554816 9
-51.445949 41.311568 10.339537 9
-48.817053 43.047730 10.137750 9
-46.021600 44.551207 9.850496 9
-43.009970 45.768747 9.456022 9
-39.574545 46.436940 8.854851 9
-35.716777 46.593435 8.055106 9
-31.822358 46.775489 7.251502 9
-27.850106 46.931535 6.424424 9
-23.759308 47.014857 5.555360 9
-19.672372 47.182886 4.703372 9
-15.356209 47.153124 3.759480 9
-15.002324 51.878928 4.656731 4
-14.727100 56.593064 5.567420 4
-19.416868 66.823033 8.694280 1
-19.089491 71.168026 9.515179 1
-14.797872 71.116596 8.565895 1
-10.798956 71.463721 7.761153 1
-10.391375 75.632232 8.524635 1
-12.528105 82.325944 10.361550 1
-14.257772 88.433298 11.988089 3
-13.560158 91.999175 12.561172 3
-11.040472 93.754215 12.362950 3
-8.680636 95.676801 12.232880 3
-5.232319 96.603068 11.658939 3
-3.422386 99.066739 11.757822 2
-1.721134 101.618534 11.897424 2
0.624291 103.597920 11.777336 2
5.404436 103.511579 10.698750 2
21.470809 94.083294 5.228399 3
27.621865 93.255666 3.693303 3
30.736826 95.000813 3.350038 3
32.441058 97.889054 3.549340 3
34.094411 100.804772 3.764209 3
35.795158 103.672466 3.957590 3
37.468562 106.550623 4.157887 3
39.101401 109.448530 4.369915 3
40.738900 112.333285 4.576993 3
42.424443 115.175985 4.763649 3
44.062742 118.044344 4.964722 3
45.683663 120.917346 5.169338 3
47.302144 123.785413 5.372245 3
48.921560 126.647160 5.572413 3
50.571244 129.485230 5.759810 3
52.208181 132.327831 5.949697 3
53.854817 135.161885 6.134435 3
55.506355 137.991330 6.315884 3
57.291905 140.743849 6.450675 3
60.035036 142.969011 6.264285 3
64.692575 144.186940 5.446243 3
71.761772 144.208938 3.846997 3
79.196469 144.181521 2.153875 3
86.828191 144.201723 0.423909 3
94.803566 144.203395 -1.389127 3
103.082057 144.217071 -3.270185 3
111.783468 144.196409 -5.255572 3
-150.334009 -16.141142 22.637241 7
-147.915579 -12.598452 22.875697 7
-150.002325 7.829597 27.430963 7
-147.885938 11.420536 27.737487 7
-145.061979 12.323712 27.357800 7
-142.219556 13.163937 26.960855 7
-139.360713 13.956394 26.550135 7
-136.483442 14.701523 26.125324 7
-133.606756 15.463944 25.703299 7
-130.701796 16.158640 25.261084 7
-127.791548 16.859609 24.818244 7
-124.811956 17.390577 24.326295 7
-121.765507 17.775422 23.790555 7
-118.715965 18.195389 23.260444 7
-116.035635 19.593008 23.001193 8
-114.237207 23.150079 23.354640 8
-110.821345 22.703736 22.573359 8
-110.244047 28.960227 23.716127 8
-108.045341 31.273366 23.735488 8
-105.509077 32.785718 23.524387 8
-102.597908 33.479466 23.071653 8
-99.553399 33.924442 22.540968 8
-96.445037 34.283018 21.979096 8
-93.333792 34.685007 21.424526 8
-90.189787 35.071092 20.859245 8
-87.041849 35.499082 20.300730 8
-83.796994 35.795608 19.695197 8
-80.537549 36.120867 19.091587 8
-77.257932 36.465060 18.486784 8
-73.949918 36.814735 17.876396 8
-70.578730 37.112849 17.241858 8
-67.184540 37.431279 16.605785 8
-58.951834 29.993954 13.423515 9
-58.652075 35.486345 14.456217 9
-56.062603 37.278054 14.277446 9
-53.442278 39.021430 14.081795 9
-50.777052 40.699799 13.863035 9
-48.133193 42.414343 13.655022 9
-45.397502 44.003397 13.402143 9
-42.305587 45.108869 12.978369 9
-38.826764 45.720395 12.375256 9
-34.981878 45.897997 11.609027 9
-31.079744 46.073311 10.829517 9
-27.133331 46.265676 10.043241 9
-23.130742 46.461851 9.245076 9
-18.973798 46.543946 8.391186 9
-14.896998 46.803400 7.588153 9
-10.778937 47.089551 6.780810 9
-9.641174 50.889863 7.289969 4
-13.111076 59.836783 9.778641 4
-17.662705 69.714447 12.676814 1
-14.693831 71.117610 12.327064 1
-10.330693 71.065558 11.397203 1
-7.992580 73.214490 11.324896 1
-5.715319 75.427944 11.277186 1
-8.219201 82.435204 13.176511 1
-7.447436 86.035075 13.716366 1
-7.227798 90.112133 14.465393 3
-5.505152 92.696885 14.604095 3
-3.420794 94.932792 14.597280 3
-0.293876 96.223511 14.184382 3
4.330856 96.221679 13.201147 3
8.272390 96.906671 12.495702 3
15.651712 94.723245 10.501331 3
21.470072 94.028776 9.127084 3
27.499227 93.288285 7.698094 3
30.480439 95.126809 7.417139 3
32.201818 97.985969 7.601398 3
33.886004 100.862901 7.796117 3
35.493758 103.786483 8.015255 3
37.159758 106.654604 8.210337 3
38.799703 109.532009 8.411871 3
40.454648 112.389381 8.605430 3
42.099740 115.245586 8.799968 3
43.702919 118.122874 9.006633 3
45.382563 120.941631 9.184760 3
47.018157 123.784401 9.376037 3
48.619535 126.643879 9.576958 3
50.241631 129.485269 9.769062 3
51.851523 132.330274 9.963576 3
53.487906 135.156159 10.147836 3
55.145160 137.968026 10.324025 3
56.914105 140.715836 10.463043 3
59.665531 142.921323 10.286171 3
64.217367 144.179938 9.540055 3
71.262316 144.194522 8.018697 3
78.572670 144.210296 6.439193 3
86.235678 144.191777 4.775907 3
94.143630 144.203541 3.064280 3
102.430089 144.189035 1.264667 3
111.013589 144.198573 -0.595874 3
119.999707 144.193235 -2.547618 3
127.950703 144.822954 -4.156728 0
133.393995 146.684438 -4.991752 0
-149.996637 -2.371055 29.082460 7
-148.291160 3.206508 29.816475 7
-145.595304 4.833183 29.600555 7
-142.858562 6.262789 29.338439 7
-140.077694 7.507091 29.031744 7
-137.289993 8.708260 28.714961 7
-134.460584 9.762780 28.361465 7
-131.611594 10.754010 27.991530 7
-128.764212 11.752045 27.622707 7
-125.866078 12.608857 27.216433 7
-122.953101 13.438231 26.801497 7
-120.051602 14.314870 26.397337 7
-117.096880 15.068192 25.958655 7
-115.084751 18.224993 26.163798 8
-113.073777 21.274080 26.348127 8
-111.187762 24.519887 26.594135 8
-109.169857 27.350184 26.734398 8
-106.840167 29.391418 26.662182 8
-104.115008 30.521390 26.337654 8
-101.144345 31.132682 25.865261 8
-98.084230 31.592232 25.345765 8
-94.993221 32.032499 24.815977 8
-91.878176 32.470420 24.280473 8
-88.786176 32.999419 23.766363 8
-85.618161 33.427267 23.217419 8
-82.403504 33.817291 22.651507 8
-79.156422 34.199761 22.077200 8
-75.905893 34.628332 21.510449 8
-72.611817 35.032717 20.929917 8
-69.286998 35.438136 20.342936 8
-65.900620 35.795762 19.734090 8
-58.956244 30.474002 17.337721 9
-57.759230 34.521162 17.864344 9
-53.467847 33.694580 16.848697 9
-52.586410 38.127010 17.510351 9
-49.948214 39.851455 17.307352 9
-47.297429 41.561069 17.098500 9
-44.552358 43.142179 16.845928 9
-41.390590 44.156861 16.402200 9
-37.812012 44.641361 15.774131 9
-34.015332 44.894452 15.058025 9
-30.132575 45.104630 14.315974 9
-26.228746 45.360031 13.577663 9
-22.228495 45.566336 12.810137 9
-18.191489 45.802276 12.040234 9
-9.725035 40.795189 9.389875 9
-10.145623 46.529815 10.552538 9
-11.598981 53.314807 12.120634 4
-11.060966 57.667305 12.828872 4
-15.666689 67.631239 15.630083 1
-14.536046 71.059604 16.043969 1
-10.208210 71.035099 15.162624 1
-5.870866 71.087063 14.293151 1
-2.999214 72.722605 14.016805 1
-0.677927 74.933768 13.959284 1
-2.989674 81.699052 15.693281 1
-1.405208 84.535272 15.901165 1
0.811377 86.752243 15.864420 1
56.978955 39.050882 -4.459708 9
5.932020 90.570990 15.534759 3
7.715691 93.194898 15.660428 3
12.492660 93.200055 14.688124 3
16.121284 94.279975 14.149368 3
21.506333 93.943640 12.988508 3
27.378117 93.320128 11.674429 3
30.283493 95.205693 11.431365 3
31.939305 98.101918 11.630543 3
33.571013 101.003981 11.835183 3
35.238187 103.866818 12.024756 3
36.893289 106.728289 12.215999 3
38.529813 109.593537 12.411199 3
40.177761 112.441403 12.600301 3
41.810679 115.291707 12.792389 3
43.432851 118.141781 12.986094 3
45.079997 120.968279 13.169786 3
46.694029 123.810954 13.362712 3
48.308773 126.647689 13.553855 3
49.944226 129.466874 13.736974 3
51.546374 132.303074 13.929524 3
53.185483 135.113839 14.109263 3
54.801761 137.936237 14.295291 3
56.561796 140.675288 14.435919 3
59.243488 142.904869 14.292958 3
63.750177 144.170873 13.597271 3
70.739040 144.195167 12.162615 3
78.044897 144.192137 10.657116 3
85.637861 144.187318 9.091568 3
93.494777 144.201275 7.474469 3
101.730333 144.187096 5.773575 3
110.233521 144.209007 4.023460 3
119.166825 144.200954 2.178526 3
127.518774 144.626059 0.531828 0
134.555333 145.779476 -0.711419 0
144.754408 145.729707 -2.827200 0
-135.768877 -5.356278 29.512441 7
-133.912388 -0.720009 29.989950 7
-131.427221 1.707419 29.948878 7
-128.793512 3.594109 29.781757 7
-126.064050 5.147218 29.536020 7
-123.307907 6.594953 29.266019 7
-120.497083 7.871309 28.954490 7
-117.640927 9.017916 28.610722 7
-115.598437 12.272201 28.802585 8
-113.653839 15.654550 29.036168 8
-111.857359 19.277130 29.341324 8
-109.965820 22.541715 29.563623 8
-107.865611 25.213989 29.639038 8
-105.386241 26.956716 29.474072 8
-102.510268 27.804421 29.071567 8
-99.515728 28.421326 28.604541 8
-96.456971 28.939762 28.107262 8
-93.328298 29.357231 27.578179 8
-90.235773 29.893345 27.077224 8
-87.129673 30.445207 26.576309 8
-83.957006 30.913406 26.047340 8
-80.800045 31.457501 25.534867 8
-77.563847 31.902995 24.989206 8
-74.309266 32.365723 24.442916 8
-71.037650 32.848812 23.896815 8
-67.705324 33.279373 23.329374 8
-58.932938 24.811131 20.112414 9
-57.592677 28.748481 20.559304 9
-56.743249 33.363111 21.222524 9
-54.184913 35.221941 21.060426 9
-51.589464 37.020610 20.880178 9
-49.032663 38.875694 20.717357 9
-46.369218 40.574776 20.505733 9
-43.570412 42.087995 20.234389 9
-40.297443 42.958829 19.755836 9
-36.643780 43.355105 19.118267 9
-32.878611 43.665548 18.443519 9
-29.038652 43.945560 17.748635 9
-25.136258 44.215239 17.039606 9
-21.153285 44.455123 16.309425 9
-17.123702 44.711228 15.572918 9
-13.045668 44.983100 14.829642 9
-8.893557 45.242440 14.069553 9
-8.778968 50.230393 14.939481 4
-7.420308 53.703319 15.296541 4
-6.355409 57.451664 15.759757 4
-11.627248 68.015894 18.673062 1
-10.086542 71.004965 18.907697 1
-2.529662 67.689171 16.845543 1
-0.694687 70.439244 16.979890 1
3.233468 71.073025 16.328822 1
7.791351 71.153378 15.456207 1
37.576546 47.030648 5.352249 9
43.618816 46.364249 4.057014 9
56.294428 39.691810 0.398194 9
64.869032 37.110588 -1.732241 5
70.922220 36.986155 -2.933531 5
18.051010 88.326628 16.522527 3
19.821830 91.077572 16.667914 3
22.326255 93.202940 16.558640 3
27.199063 93.399953 15.643876 3
30.022732 95.336443 15.438353 3
31.693224 98.205630 15.623649 3
33.329054 101.089548 15.818147 3
34.965367 103.961043 16.010159 3
36.608111 106.816762 16.197927 3
38.216807 109.687339 16.394803 3
39.869007 112.517143 16.575754 3
41.514276 115.344112 16.757374 3
43.112619 118.196044 16.952414 3
44.736007 121.023847 17.138095 3
46.356241 123.847840 17.323536 3
47.982227 126.663040 17.506111 3
49.594536 129.482614 17.691956 3
51.220185 132.290303 17.872905 3
52.835057 135.101804 18.056458 3
54.433655 137.920632 18.244312 3
56.170235 140.658962 18.390734 3
58.864941 142.866234 18.255467 3
63.286513 144.162086 17.620754 3
70.228685 144.191336 16.268409 3
77.468798 144.201526 14.854236 3
85.020648 144.195394 13.376010 3
92.876749 144.186716 11.837626 3
100.984117 144.210654 10.255666 3
109.491641 144.204931 8.589960 3
118.369679 144.195970 6.850973 3
127.159932 144.399491 5.166560 0
133.686516 145.754075 4.128646 0
143.400188 145.879454 2.249230 0
153.865228 145.884954 0.201299 0
164.277168 146.115651 -1.796653 0
-116.070981 -12.583810 28.345165 8
-116.111170 -2.939503 29.982086 8
-115.110740 3.439988 30.871696 8
-113.648260 8.327064 31.422350 8
-111.986279 12.504980 31.815800 8
-110.091167 15.949932 32.041690 8
-107.933999 18.652772 32.093032 8
-105.391846 20.389399 31.908828 8
-102.454349 21.213196 31.496156 8
-99.577211 22.193232 31.121411 8
-97.187486 24.229938 31.017089 8
-94.527252 25.669601 30.761151 8
-91.476217 26.313270 30.297359 8
-88.390540 26.924872 29.821806 8
-85.277753 27.523029 29.339060 8
-82.137587 28.109988 28.849451 8
-78.958084 28.666340 28.347453 8
-75.750887 29.216993 27.839468 8
-72.535825 29.799064 27.335498 8
-69.225899 30.262867 26.793894 8
-65.936569 30.812148 26.270798 8
-59.012604 25.439317 24.063914 9
-58.053736 29.958174 24.650099 9
-55.601001 32.008323 24.538463 9
-53.028467 33.861026 24.371115 9
-50.471016 35.732739 24.209987 9
-47.945262 37.647704 24.062296 9
-45.278156 39.354527 23.853048 9
-42.309205 40.640448 23.516148 9
-38.923910 41.374328 23.007950 9
-35.289043 41.817668 22.403991 9
-31.496058 42.111677 21.745324 9
-27.681135 42.444837 21.089382 9
-23.832360 42.802104 20.431390 9
-19.871838 43.087316 19.740479 9
-15.854342 43.374357 19.039426 9
-11.791809 43.680103 18.333327 9
-7.654828 43.971623 17.611105 9
-3.438411 44.246803 16.871474 9
0.857333 44.509600 16.115131 9
0.893336 49.564406 16.967928 4
5.623624 49.419480 16.061620 4
14.182772 45.300054 13.765896 9
18.812092 45.531170 12.942752 9
23.488123 45.801118 12.117708 9
28.280850 46.040925 11.265996 9
33.212753 46.233763 10.380570 9
38.273731 46.395736 9.466058 9
44.437732 45.613199 8.185568 9
57.173635 38.885816 4.669518 9
64.938192 37.040283 2.910508 5
70.745264 37.120690 1.844104 5
76.788806 37.107741 0.718023 5
82.819391 37.224810 -0.383256 5
89.247559 37.125502 -1.595134 5
95.913594 36.958878 -2.862484 5
102.540886 36.956919 -4.094306 5
121.781439 27.148862 -9.343334 6
129.559085 26.718212 -10.861586 6
137.691634 26.178277 -12.464174 6
146.264946 25.479371 -14.175518 6
66.847887 141.962519 20.491045 3
69.685348 144.207333 20.350510 3
76.956821 144.180098 18.999045 3
84.434824 144.190222 17.615928 3
92.203169 144.202397 16.179589 3
100.323944 144.195826 14.674972 3
108.769752 144.194671 13.111310 3
117.522971 144.217143 11.495006 3
126.773346 144.187910 9.778009 3
132.751060 145.761447 8.942395 0
142.451055 145.862886 7.165089 0
152.572514 145.978782 5.312510 0
163.678899 145.896670 3.243879 0
175.312328 145.826432 1.080031 0
185.251229 146.622263 -0.621064 0
-111.987270 -12.953248 31.438277 8
-112.618503 -1.998827 33.286345 8
-111.633624 4.241246 34.092385 8
-110.171255 9.005420 34.577773 8
-108.255407 12.472656 34.775213 8
-105.949842 14.898313 34.736809 8
-103.133063 16.086167 34.409216 8
-100.154379 16.916378 33.995828 8
-97.163137 17.743860 33.580217 8
-94.162265 18.576707 33.164205 8
-91.096307 19.301197 32.719626 8
-88.009241 20.015925 32.270157 8
-84.929954 20.780357 31.830509 8
-81.779715 21.441016 31.361964 8
-79.010469 22.857058 31.083333 8
-76.649865 25.028332 30.999623 8
-73.578886 25.895438 30.579858 8
-70.390680 26.588433 30.111610 8
-67.089926 27.128755 29.599145 8
-59.010777 19.705917 26.952163 9
-57.332425 23.177593 27.201930 9
-56.587801 28.071010 27.848001 9
-54.201852 30.252856 27.765014 9
-51.693889 32.228933 27.627643 9
-49.230055 34.262768 27.507993 9
-46.735220 36.241039 27.374390 9
-43.926024 37.759850 27.111140 9
-40.928284 39.026183 26.774036 9
-37.379871 39.556633 26.220477 9
-33.647020 39.893589 25.603262 9
-29.924993 40.309938 25.001253 9
-26.124815 40.687713 24.379552 9
-22.250035 41.036159 23.740288 9
-18.342662 41.411912 23.100107 9
-14.402702 41.815902 22.459168 9
-10.360598 42.165718 21.791768 9
-6.217932 42.469067 21.099443 9
-2.008974 42.770879 20.395570 9
2.215823 43.131007 19.698824 9
6.591358 43.399755 18.960982 9
11.018991 43.692375 18.218263 9
15.503460 44.005535 17.469297 9
20.084816 44.299460 16.700530 9
24.786647 44.554410 15.904584 9
29.454263 44.930942 15.134992 9
34.288765 45.227932 14.323424 9
39.340541 45.404991 13.454393 9
46.239623 43.934471 11.990580 9
63.384394 33.146964 7.196226 5
65.639610 36.396542 7.324226 5
71.351071 36.559382 6.338302 5
77.216198 36.697379 5.321758 5
83.119541 36.915264 4.312109 5
89.352399 36.969175 3.218092 5
95.668979 37.075508 2.118485 5
102.188635 37.140414 0.976900 5
120.204169 28.271975 -3.653761 6
127.550381 28.132542 -4.973303 6
135.219302 27.894722 -6.365155 6
143.222925 27.562297 -7.830783 6
81.851447 141.347427 21.699376 3
83.835957 144.194186 21.825315 3
91.566735 144.202444 20.475637 3
99.659159 144.186072 19.059253 3
108.010668 144.205011 17.604088 3
116.783057 144.192694 16.070838 3
125.888308 144.201931 14.483710 3
131.846894 145.759019 13.704522 0
141.503099 145.849798 12.036186 0
150.965970 146.206967 10.446751 0
162.474291 145.924298 8.394461 0
173.886449 145.904697 6.403678 0
185.982906 145.847591 4.288150 0
198.768237 145.772451 2.050402 0
-108.640176 -11.318326 34.983887 8
-109.040700 -1.299489 36.532525 8
-107.665854 3.808389 37.039804 8
-105.620343 7.080622 37.157096 8
-102.998044 8.885977 36.955600 8
-100.135591 10.113059 36.626667 8
-97.234678 11.258492 36.279664 8
-94.302962 12.346638 35.919561 8
-91.350332 13.404280 35.552083 8
-88.356837 14.393946 35.168139 8
-85.326401 15.330065 34.770568 8
-82.244420 16.189344 34.353331 8
-79.162610 17.078275 33.941394 8
-76.029699 17.900228 33.511347 8
-72.879551 18.723603 33.079342 8
-69.648672 19.436299 32.617515 8
-66.434304 20.217798 32.169720 8
-59.035621 13.876138 29.925663 9
-57.858264 18.299949 30.380580 9
-57.412141 23.802321 31.125591 9
-55.086023 26.130921 31.068012 9
-52.695610 28.333451 30.981206 9
-50.254539 30.439488 30.871979 9
-47.767046 32.462207 30.743041 9
-45.313394 34.525558 30.626964 9
-40.209100 32.765764 29.476658 9
-39.146183 36.849348 29.907581 9
-35.448371 37.207268 29.321693 9
-31.781406 37.670345 28.757886 9
-28.120446 38.201635 28.206305 9
-24.323113 38.614581 27.614202 9
-20.478660 39.032095 27.015571 9
-16.573613 39.439566 26.405895 9
-12.603659 39.834827 25.784123 9
-8.563445 40.214762 25.148880 9
-4.454185 40.584339 24.501147 9
-0.285381 40.957807 23.844740 9
3.936076 41.345487 23.182430 9
8.211167 41.748305 22.514209 9
12.582071 42.122575 21.826231 9
17.016523 42.507211 21.129965 9
21.676979 42.735471 20.372254 9
26.291712 43.097157 19.643742 9
30.983952 43.464472 18.903913 9
35.876204 43.720179 18.113995 9
46.198884 38.840001 15.614764 9
49.235359 41.129313 15.454216 9
63.494853 33.052361 11.798354 5
67.001859 35.153398 11.531348 5
72.590844 35.434361 10.632739 5
78.256912 35.752465 9.727980 5
84.065122 36.054367 8.797881 5
90.123149 36.255400 7.811225 5
96.262292 36.504807 6.819587 5
102.681278 36.644855 5.765103 5
119.873875 28.413597 1.600858 6
127.006135 28.417682 0.408020 6
134.198699 28.515118 -0.779099 6
141.974139 28.319061 -2.108340 6
97.993546 140.697594 23.011979 3
99.901236 143.739783 23.188717 3
107.290710 144.199909 22.049826 3
116.015293 144.184166 20.615977 3
125.099001 144.176520 19.125560 3
130.953933 145.755339 18.422309 0
140.522022 145.854643 16.871970 0
150.039737 146.159177 15.364298 0
161.188887 145.989105 13.513654 0
169.863985 147.003383 12.261575 0
184.502770 145.913011 9.692875 0
197.155631 145.846203 7.616930 0
210.485499 145.782587 5.432266 0
224.325254 145.800503 3.179082 0
-96.745324 -4.839413 37.681513 8
-95.083724 -0.521187 37.986029 8
-92.721645 2.084511 37.935180 8
-90.145394 4.163147 37.776050 8
-87.423676 5.900254 37.546026 8
-84.583994 7.378769 37.261269 8
-81.706316 8.779606 36.960490 8
-78.772766 10.074527 36.636720 8
-75.769090 11.245061 36.284965 8
-72.736532 12.378555 35.924374 8
-69.650984 13.434975 35.545289 8
-66.514783 14.425297 35.149638 8
-59.069879 7.916447 32.980533 9
-57.734628 12.207600 33.352303 9
-57.820405 18.759026 34.280933 9
-55.523364 21.206720 34.235411 9
-53.332925 23.793832 34.228585 9
-50.938859 26.026659 34.139128 9
-48.587228 28.304906 34.064395 9
-46.195567 30.502796 33.972896 9
-43.581228 32.358024 33.797183 9
-40.487387 33.523662 33.445509 9
-36.998928 34.162831 32.955035 9
-33.376409 34.668628 32.424654 9
-29.656358 35.100609 31.868877 9
-25.911029 35.561082 31.314199 9
-22.138598 36.048309 30.760092 9
-18.293075 36.504635 30.190787 9
-14.418814 36.989515 29.622083 9
-10.483536 37.464336 29.043186 9
-6.553661 38.011625 28.476819 9
-2.461790 38.433411 27.867227 9
1.686887 38.860541 27.250411 9
5.937068 39.245076 26.612211 9
10.176426 39.716395 25.989585 9
14.551026 40.114130 25.335672 9
18.991988 40.518624 24.673294 9
23.556597 40.872890 23.984946 9
28.150845 41.278960 23.300670 9
32.876135 41.635573 22.589405 9
37.606481 42.072575 21.890403 9
43.172691 41.789184 20.953147 9
53.787420 36.855980 18.526370 9
63.489320 33.065037 16.414731 5
68.890554 33.432694 15.603564 5
74.353666 33.844116 14.790425 5
79.946750 34.241547 13.955978 5
85.704519 34.600421 13.091105 5
91.623226 34.930598 12.197906 5
97.710804 35.231918 11.275142 5
103.875321 35.584948 10.349411 5
120.422383 27.862824 6.579063 6
127.333999 28.029770 5.510549 6
134.442258 28.179644 4.410088 6
141.787180 28.289857 3.268046 6
115.453456 139.992885 24.437501 3
117.554144 143.114315 24.603436 3
124.172862 144.215823 23.760597 3
130.060133 145.755526 23.100210 0
139.567678 145.851891 21.659405 0
147.371499 146.837793 20.621210 0
160.208995 145.935387 18.516240 0
171.324228 145.963542 16.823411 0
180.366425 146.995602 15.608039 0
192.683180 146.983316 13.728720 0
208.676845 145.889807 11.118380 0
222.612316 145.828573 8.988147 0
234.680406 146.665549 7.287672 0
-72.678410 -1.150793 37.976192 8
-70.382702 1.624976 37.952037 8
-67.784688 3.780784 37.799942 8
-65.016685 5.601323 37.578323 8
-57.434684 -1.173223 35.459219 9
-58.104943 6.820213 36.601637 9
-58.671631 14.358854 37.669936 9
-55.942991 16.147439 37.457086 9
-54.528117 20.075773 37.737442 9
-51.526673 21.378055 37.420247 9
-49.099232 23.596210 37.316953 9
-46.841950 26.056126 37.274302 9
-44.234012 27.963902 37.104493 9
-41.398961 29.535614 36.855703 9
-38.210989 30.612586 36.486919 9
-34.639235 31.183226 35.991689 9
-30.923670 31.610616 35.456215 9
-27.247431 32.152635 34.943762 9
-23.541763 32.713804 34.430791 9
-19.740734 33.209860 33.895696 9
-15.917340 33.739630 33.363190 9
-12.044700 34.270064 32.824656 9
-8.088141 34.761268 32.269338 9
-4.084674 35.262261 31.709639 9
-0.003223 35.738619 31.136106 9
4.116489 36.240018 30.561658 9
8.332280 36.702579 29.968706 9
12.575388 37.207226 29.378912 9
16.876397 37.721229 28.783135 9
21.308455 38.169270 28.159864 9
25.797227 38.635498 27.532069 9
30.409515 39.053765 26.880474 9
35.068072 39.507319 26.228380 9
39.931579 39.841684 25.530315 9
46.875183 38.262836 24.252810 9
63.633247 27.588512 20.225422 5
66.093792 30.663050 20.277478 5
71.424727 31.126418 19.533498 5
76.784649 31.659465 18.796759 5
82.347046 32.110900 18.019993 5
88.031457 32.558427 17.226253 5
93.810855 33.029296 16.423486 5
99.778456 33.450076 15.587427 5
106.014132 33.764091 14.698179 5
121.885060 26.590822 11.311852 6
128.647627 26.879887 10.344550 6
135.529552 27.205268 9.366791 6
142.659205 27.475303 8.346509 6
125.487685 139.085139 27.249562 0
127.589221 142.301352 27.437670 0
129.790583 145.485045 27.608432 0
136.863413 146.600731 26.770279 0
148.885368 145.784441 24.933012 0
159.157219 145.914636 23.492071 0
170.185454 145.944109 21.930113 0
181.815869 145.955602 20.281946 0
193.688361 146.101090 18.622311 0
204.257060 146.943262 17.257670 0
220.737933 145.919285 14.768303 0
235.065315 145.947851 12.749907 0
-63.340373 -3.834519 40.084967 9
-64.058102 4.493857 41.187500 9
-60.935522 5.684987 40.834099 9
-60.156662 10.975814 41.341973 9
-58.890582 15.278280 41.656925 9
-56.797654 18.090565 41.665415 9
-54.325213 20.237162 41.536467 9
-51.955430 22.529422 41.443013 9
-50.456144 26.155986 41.648003 9
-47.275381 27.137980 41.274043 9
-45.071656 29.613716 41.234325 9
-41.271811 29.726697 40.663041 9
-37.303130 29.668986 40.046915 9
-33.281737 29.616532 39.425296 9
-29.246593 29.625230 38.811030 9
-25.105638 29.570040 38.174764 9
-20.901133 29.513297 37.530646 9
-17.029372 29.970536 37.002442 9
-13.207525 30.555309 36.499597 9
-9.318282 31.116697 35.985730 9
-5.330801 31.620899 35.452035 9
-1.337844 32.184510 34.927003 9
2.717720 32.739713 34.393647 9
6.821303 33.306310 33.856666 9
11.030207 33.821774 33.299716 9
15.316133 34.323003 32.731691 9
19.599109 34.900156 32.175864 9
24.069864 35.349338 31.578294 9
28.540134 35.876746 30.992945 9
33.135382 36.352927 30.384952 9
37.775943 36.863658 29.776994 9
43.197693 36.688197 28.969318 9
54.623618 30.844722 26.561221 9
64.307961 26.974848 24.663104 5
69.430048 27.584175 24.007507 5
74.622737 28.217861 23.347342 5
79.908442 28.858332 22.677156 5
85.368062 29.438513 21.976638 5
91.090135 29.890239 21.224254 5
96.724169 30.519077 20.510299 5
102.587832 31.058059 19.754389 5
113.411110 27.707189 17.782070 5
124.163041 24.674683 15.865019 6
130.801778 25.079260 14.989786 6
137.588720 25.493747 14.097808 6
144.529018 25.919383 13.188622 6
145.704225 138.094332 28.901673 0
147.991690 141.429177 29.093315 0
150.341538 144.753186 29.277495 0
156.127075 146.700463 28.806307 0
169.422580 145.780632 26.921072 0
180.784727 145.864515 25.442806 0
192.843173 145.906793 23.869536 0
205.562577 145.941553 22.211228 0
219.060348 145.947603 20.449527 0
233.378255 145.934314 18.580622 0
-59.540490 -10.219300 42.789086 9
-59.948215 -2.337897 43.708235 9
-59.084293 3.005938 44.158790 9
-57.748510 7.367733 44.432491 9
-56.141483 11.151697 44.604018 9
-54.379050 14.587280 44.716061 9
-52.449505 17.677610 44.767155 9
-50.365396 20.464624 44.763785 9
-47.970005 22.723710 44.657561 9
-45.233116 24.442424 44.442577 9
-42.096867 25.568958 44.104458 9
-38.641079 26.257872 43.672338 9
-35.183092 26.991936 43.247272 9
-31.683062 27.714515 42.817052 9
-28.070360 28.331296 42.360704 9
-24.489460 29.045127 41.922348 9
-20.815105 29.687152 41.464592 9
-16.657765 29.760390 40.874309 9
-12.341787 29.711792 40.249574 9
-7.965831 29.673864 39.619868 9
-3.545048 29.667366 38.989815 9
0.982198 29.619911 38.342293 9
5.604729 29.550028 37.681107 9
10.041032 29.785094 37.084402 9
14.210992 30.400667 36.572383 9
18.443275 31.015139 36.054011 9
22.820811 31.541605 35.507461 9
27.214232 32.125167 34.968039 9
31.671874 32.715196 34.423053 9
36.208913 33.298809 33.868919 9
41.013624 33.691107 33.257534 9
50.039339 30.028409 31.580071 9
63.636014 22.212620 28.777007 5
68.385123 23.151465 28.247725 5
73.626076 23.710071 27.608029 5
78.715891 24.497146 27.019667 5
83.914962 25.271621 26.417899 5
89.366839 25.912741 25.768569 5
94.891118 26.586443 25.116524 5
100.579980 27.217685 24.440179 5
106.623564 27.656938 23.695601 5
121.053147 21.448855 21.006393 6
127.336319 22.050385 20.256793 6
133.901469 22.545621 19.459747 6
140.506533 23.129740 18.671990 6
147.423889 23.600441 17.832110 6
167.955733 136.962694 30.708178 0
170.408706 140.451145 30.915756 0
172.943895 143.925504 31.114289 0
177.637288 146.590990 30.937385 0
191.828503 145.779379 29.110424 0
204.424135 145.823942 27.604204 0
217.784638 145.840543 26.005235 0
231.675454 145.932175 24.357128 0
-53.396755 -13.570124 45.600808 9
-54.578703 -4.369305 46.686764 9
-54.025620 1.493355 47.189231 9
-52.876488 6.164570 47.488534 9
-51.362134 10.102995 47.664065 9
-49.521097 13.417462 47.732274 9
-47.320345 16.094927 47.687035 9
-44.670490 18.036795 47.505504 9
-41.601313 19.335071 47.201285 9
-38.225581 20.198919 46.811784 9
-34.847864 21.101167 46.428625 9
-31.395699 21.937737 46.030906 9
-27.891690 22.746143 45.625710 9
-24.351340 23.551292 45.217820 9
-20.749103 24.321032 44.800366 9
-17.100018 25.079325 44.377977 9
-13.410726 25.837518 43.952800 9
-9.656560 26.566543 43.518418 9
-5.856659 27.294054 43.080424 9
-1.977419 27.981525 42.630185 9
1.961579 28.656958 42.173397 9
5.967097 29.315541 41.708679 9
10.221984 29.751113 41.189274 9
14.966301 29.709345 40.555570 9
19.758846 29.707111 39.922698 9
24.679352 29.659295 39.270850 9
29.676445 29.626415 38.613544 9
34.767643 29.592950 37.946846 9
39.998720 29.515894 37.260081 9
47.971611 26.799584 35.924923 9
64.703088 15.699603 32.517537 5
66.620106 19.380955 32.691571 5
71.518443 20.218929 32.163675 5
76.508913 21.050938 31.626627 5
81.624717 21.850650 31.073262 5
86.909398 22.584760 30.494307 5
92.845131 22.840183 29.781216 5
98.896246 23.106975 29.058398 5
105.084480 23.370914 28.321577 5
120.905129 15.829861 25.471238 6
126.758761 16.747233 24.860307 6
131.842165 18.371508 24.432133 6
138.238060 19.052244 23.733556 6
144.800587 19.719298 23.016675 6
195.201875 139.339035 32.931244 0
197.951675 142.982135 33.148434 0
201.616767 146.317442 33.224925 0
216.485412 145.746494 31.519390 0
229.976594 145.934597 30.077337 0
-47.990309 -8.359875 49.408102 9
-48.133441 -1.306163 50.064164 9
-46.920525 3.275165 50.310677 9
-45.007421 6.602951 50.349254 9
-42.475168 8.884701 50.209961 9
-39.410897 10.321758 49.923207 9
-36.308604 11.718418 49.630625 9
-33.097027 12.972584 49.313086 9
-29.841194 14.189268 48.989179 9
-26.478665 15.283232 48.642552 9
-23.091299 16.378062 48.295810 9
-19.586084 17.348032 47.924717 9
-16.104250 18.392068 47.566911 9
-12.506663 19.324585 47.186371 9
-8.850526 20.227896 46.798538 9
-5.168101 21.146548 46.411959 9
-1.382029 21.985852 46.007454 9
2.453485 22.818456 45.599155 9
6.359505 23.621895 45.182202 9
10.329109 24.408249 44.758724 9
14.360595 25.182834 44.329518 9
18.443397 25.960643 43.897473 9
22.624991 26.691694 43.451664 9
26.892895 27.394746 42.995610 9
31.197657 28.126497 42.541279 9
35.599545 28.825435 42.075003 9
40.116115 29.478374 41.593338 9
45.226890 29.611497 40.988728 9
69.062461 11.479990 36.210031 5
73.566474 12.739407 35.804181 5
78.264911 13.878860 35.366077 5
83.085133 14.975393 34.912653 5
87.989611 16.068686 34.452686 5
93.126883 17.030078 33.954859 5
98.346064 18.002280 33.452448 5
103.722816 18.923619 32.929974 5
124.620494 6.913292 29.188095 6
129.712922 8.497850 28.779823 6
135.115745 9.904732 28.320250 6
140.763262 11.199973 27.824374 6
146.623043 12.419318 27.300010 6
222.823155 138.058204 35.172929 0
225.785810 141.905213 35.419560 0
228.954657 145.710452 35.644312 0
-25.189727 -4.715258 50.768535 9
-23.938594 -0.221322 50.983476 9
-21.617419 2.613672 50.925265 9
-18.847088 4.775338 50.756406 9
-15.924681 6.719901 50.553378 9
-12.792464 8.382414 50.303345 9
-9.520026 9.874288 50.024640 9
-6.169802 11.289183 49.733181 9
-2.698465 12.577417 49.419297 9
0.827714 13.831855 49.099333 9
4.503752 14.938630 48.751636 9
8.214511 16.048069 48.403626 9
12.038776 17.068270 48.037596 9
15.910668 18.083423 47.669101 9
19.840071 19.084726 47.296216 9
23.917426 19.973710 46.899263 9
27.970962 20.948347 46.516784 9
32.204934 21.785615 46.104230 9
36.485469 22.637710 45.691468 9
40.846165 23.471561 45.271572 9
45.809987 23.758045 44.734375 9
83.743019 -2.856632 37.879820 5
86.058284 0.767223 37.976845 5
89.456910 3.347060 37.854901 5
93.454591 5.391349 37.617941 5
97.788437 7.171077 37.321948 5
102.405338 8.751072 36.979299 5
9.641682 -3.024360 50.902908 9
11.473289 0.662106 50.985525 9
14.165846 3.230508 50.884096 9
17.222501 5.348756 50.709063 9
20.539699 7.167069 50.484356 9
24.036433 8.798609 50.228371 9
27.712260 10.256249 49.942253 9
31.487811 11.640858 49.643237 9
35.408310 12.908848 49.322736 9
39.407845 14.140170 48.994774 9
43.671414 15.143314 48.623002 9
48.581049 3.898340 -49.774362 9
46.072274 -2.332651 -50.535876 9
43.170496 -4.395632 -50.774121 9
40.052872 -4.567058 -50.776674 9
36.918709 -4.653137 -50.772221 9
33.767976 -4.674076 -50.763321 9
30.615854 -4.739734 -50.763917 9
27.446514 -4.753234 -50.761733 9
24.265443 -4.756814 -50.762145 9
21.071403 -4.748735 -50.764950 9
17.861398 -4.718910 -50.768892 9
14.625917 -4.628297 -50.769045 9
11.392389 -4.612325 -50.782610 9
8.126460 -4.515284 -50.789876 9
4.838424 -4.392856 -50.797942 9
1.532071 -4.265925 -50.809490 9
-1.797923 -4.117333 -50.822392 9
-5.149008 -3.961538 -50.838519 9
-8.523872 -3.792388 -50.857142 9
-11.944910 -3.537292 -50.869161 9
-15.386554 -3.292050 -50.886726 9
-18.880831 -2.956038 -50.897233 9
-22.386913 -2.666629 -50.918035 9
-25.949901 -2.287146 -50.932034 9
-29.546666 -1.895405 -50.949088 9
-33.184813 -1.473683 -50.967062 9
-36.875578 -0.996523 -50.982874 9
-40.658184 -0.367454 -50.984636 9
55.228441 0.916135 -46.522117 9
52.743740 -6.536741 -47.510748 9
50.093068 -11.005702 -48.093080 9
47.316322 -13.626866 -48.424764 9
44.432499 -15.003072 -48.588412 9
41.433695 -15.355157 -48.614175 9
38.390118 -15.395820 -48.600303 9
35.342576 -15.459050 -48.592916 9
32.282066 -15.488415 -48.584224 9
29.206895 -15.483276 -48.574145 9
26.124362 -15.492861 -48.569499 9
23.031996 -15.505054 -48.568629 9
19.922354 -15.485458 -48.566793 9
16.806743 -15.495056 -48.572445 9
13.670703 -15.467312 -48.576405 9
10.526624 -15.463412 -48.587158 9
7.354594 -15.400564 -48.593283 9
4.181099 -15.393757 -48.610703 9
0.985175 -15.358941 -48.627831 9
-2.230629 -15.311145 -48.646777 9
-5.473996 -15.227071 -48.664367 9
-8.746173 -15.108741 -48.680925 9
-12.021052 -15.048104 -48.709161 9
-15.316941 -14.983450 -48.740608 9
-18.654966 -14.852437 -48.766743 9
-22.002788 -14.760115 -48.802059 9
-25.381179 -14.645193 -48.838184 9
-28.791424 -14.508391 -48.875280 9
-32.233457 -14.354103 -48.914012 9
-35.684247 -14.246924 -48.963267 9
-39.179118 -14.094505 -49.010486 9
-42.711898 -13.918241 -49.058674 9
-46.909861 -12.200177 -48.901756 9
61.562047 1.294726 -42.851289 9
58.930641 -6.176251 -43.915640 9
56.216640 -10.951607 -44.583582 9
53.507221 -14.825650 -45.121434 9
50.802193 -18.057418 -45.567400 9
48.030232 -20.182182 -45.851759 9
45.188858 -21.449423 -46.011378 9
42.259290 -21.911594 -46.053818 9
39.265415 -21.908542 -46.029703 9
36.271430 -21.958346 -46.016472 9
33.269320 -22.005145 -46.005779 9
30.252600 -22.014949 -45.992542 9
27.224748 -22.016226 -45.981032 9
24.192077 -22.046370 -45.976864 9
21.142558 -22.044295 -45.970899 9
18.076379 -22.018338 -45.964402 9
15.006521 -22.033118 -45.967074 9
11.929874 -22.072565 -45.976525 9
8.817309 -22.015764 -45.974657 9
5.707146 -22.028926 -45.986398 9
2.573861 -22.009095 -45.996347 9
-0.578051 -21.978936 -46.007926 9
-3.752250 -21.929064 -46.019762 9
-6.938257 -21.899631 -46.037892 9
-10.134218 -21.896950 -46.063289 9
-13.371949 -21.819555 -46.080820 9
-16.614419 -21.790815 -46.108959 9
-19.893667 -21.713034 -46.133155 9
-23.199638 -21.621984 -46.158797 9
-26.517812 -21.561690 -46.192489 9
-29.861749 -21.494859 -46.228715 9
-33.231326 -21.424575 -46.267983 9
-36.635820 -21.329574 -46.307186 9
-40.057856 -21.257324 -46.353427 9
-43.551108 -21.078229 -46.387562 9
-47.624335 -19.604213 -46.234106 9
-53.780543 -13.490330 -45.400327 9
62.044559 -5.965435 -40.295805 9
59.401324 -12.433618 -41.282954 9
56.617932 -15.741452 -41.767927 9
54.036409 -20.583477 -42.502780 9
51.318238 -23.219079 -42.887129 9
48.562972 -25.116102 -43.156028 9
45.749242 -26.281115 -43.310220 9
42.866257 -26.799548 -43.363187 9
39.921723 -26.864167 -43.345769 9
36.963106 -26.880121 -43.323132 9
34.000530 -26.922447 -43.307367 9
31.025175 -26.938476 -43.289992 9
28.040874 -26.956799 -43.275623 9
25.051954 -27.002676 -43.268347 9
22.044496 -27.005893 -43.256843 9
19.020162 -26.983207 -43.243825 9
15.996049 -27.017933 -43.242759 9
12.947102 -26.997258 -43.235444 9
9.898809 -27.035914 -43.240425 9
6.828058 -27.037727 -43.242187 9
3.730764 -26.993945 -43.239338 9
0.642648 -27.042835 -43.254226 9
-2.487510 -26.996100 -43.256469 9
