ply
format ascii 1.0
element vertex 1358
property float x
property float y
property float z
property int scalar_Label
end_header
-89.577374 17.278060 33.834244 8
-87.876628 13.459858 35.514764 8
-86.637694 9.602759 36.756504 8
-85.864557 5.686835 37.555858 8
-85.523264 1.699225 37.945625 8
-85.630229 -2.381617 37.910358 8
-86.239562 -6.586546 37.398562 8
-87.377079 -10.942826 36.385933 8
-89.231639 -15.519710 34.692155 8
-92.134114 -20.434113 32.001258 8
-100.007664 -26.811132 24.560706 8
-85.924968 141.602356 44.464002 3
-92.337573 139.188933 38.363012 3
-109.260654 139.192474 22.425139 3
-118.173028 27.002661 13.296918 7
-103.079309 24.300235 27.502322 8
-98.425114 20.685055 31.915323 8
-96.163477 16.855818 34.087973 8
-94.479678 12.992065 35.723142 8
-93.310457 9.080680 36.880396 8
-92.588206 5.112616 37.623377 8
-92.293383 1.073147 37.970676 8
-92.473249 -3.065174 37.878328 8
-93.197499 -7.337312 37.281452 8
-94.528934 -11.780485 36.121748 8
-96.620770 -16.457605 34.256424 8
-99.856413 -21.499593 31.327555 8
-90.963578 142.015473 46.150846 3
-95.951058 139.199363 41.476545 3
-113.019851 139.191362 25.748686 3
-125.028878 26.706631 13.882021 7
-118.205299 23.030975 20.191742 7
-105.396501 20.268035 31.996291 8
-102.995363 16.410590 34.256070 8
-101.311721 12.501717 35.862761 8
-100.140586 8.546058 37.004660 8
-99.447198 4.528961 37.713924 8
-99.234453 0.430403 37.988225 8
-99.513248 -3.771495 37.817967 8
-100.385699 -8.118971 37.110088 8
-101.894144 -12.646098 35.826431 8
-104.271126 -17.435455 33.754905 8
-96.086408 142.439373 47.840004 3
-99.517043 139.195425 44.649108 3
-116.803423 139.194002 29.065914 3
-150.785710 29.302285 -2.406142 7
-132.050647 26.402127 14.457128 7
-125.202867 22.680154 20.655280 7
-120.688854 18.843965 24.764139 7
-119.220346 14.706407 26.146308 7
-117.201054 10.681559 28.028349 7
-108.247467 7.819096 36.132521 8
-107.080284 3.825136 37.260347 8
-106.934795 -0.338364 37.478592 8
-107.606529 -4.671071 36.971256 8
-117.894199 -11.083156 27.861227 7
-120.893901 -16.125361 25.287456 7
-124.420040 -21.384484 22.251635 7
-101.223882 142.855113 49.596528 3
-103.104610 139.194650 47.818492 3
-120.588711 139.194669 32.399273 3
-127.153572 136.305902 26.527886 0
-139.118743 26.100958 15.134616 7
-132.315590 22.325780 21.162567 7
-127.842320 18.436968 25.151516 7
-126.481026 14.240201 26.416595 7
-124.526306 10.158358 28.208595 7
-123.270569 6.007748 29.394147 7
-122.738657 1.756587 29.951966 7
-122.929446 -2.623482 29.883625 7
-123.915783 -7.175525 29.126023 7
-125.924316 -11.978958 27.481624 7
-129.376019 -17.168647 24.583291 7
-134.268516 -22.801276 20.434930 7
-106.481472 143.290130 51.330354 3
-106.711176 139.196064 50.989251 3
-124.404702 139.199996 35.725177 0
-132.707175 136.680513 28.486840 0
-150.805142 25.371905 11.991413 7
-139.640512 21.957731 21.634499 7
-135.469322 17.983659 25.282728 7
-133.957320 13.757248 26.656727 7
-132.002266 9.626485 28.417664 7
-130.851544 5.411094 29.496098 7
-130.405384 1.096846 29.978104 7
-130.748594 -3.359301 29.791672 7
-131.916769 -7.995194 28.907133 7
-134.205240 -12.904832 27.072724 7
-137.516510 -18.110544 24.373246 7
-144.587115 -24.293915 18.470602 7
-111.767400 143.719888 53.124257 3
-111.659537 139.522732 53.058715 3
-118.112252 136.860309 47.519140 0
-136.681825 136.698425 31.851628 0
-147.105379 21.584240 22.141320 7
-144.063286 17.427373 24.768503 7
-141.602528 13.264384 26.915438 7
-139.713663 9.074278 28.590301 7
-138.595151 4.804080 29.627160 7
-138.261208 0.421795 30.014718 7
-138.739368 -4.107799 29.730658 7
-140.185302 -8.846254 28.645593 7
-142.802783 -13.873063 26.590252 7
-145.152279 -18.918386 24.769757 7
-115.322091 143.696641 56.414336 0
-115.186968 139.495746 56.359171 0
-121.088262 136.693155 51.382791 0
-140.588396 136.698377 35.297274 0
-149.497099 12.751709 27.133465 7
-147.634735 8.506256 28.758011 7
-146.593030 4.173138 29.718443 7
-146.392494 -0.282211 29.998661 7
-147.048857 -4.894637 29.586633 7
-148.698428 -9.722992 28.371849 7
-120.762225 144.144994 58.220146 0
-120.595859 139.916095 58.176761 0
-120.946841 135.820089 57.729843 0
-144.482713 136.692694 38.776325 0
-126.288965 144.601625 60.047106 0
-126.102936 140.347193 60.005433 0
-126.109012 136.151758 59.823893 0
-148.423794 136.693843 42.243022 0
-131.866011 145.057023 61.926652 0
-131.670596 140.779608 61.878281 0
-131.527372 136.529728 61.800656 0
-152.385810 136.695966 45.720529 0
-137.539137 145.522067 63.826565 0
-137.358598 141.226836 63.753217 0
-137.183432 136.948189 63.686915 0
-156.354436 136.695841 49.221514 0
-143.364294 146.009612 65.710409 0
-143.084829 141.669300 65.695325 0
-142.910907 137.369473 65.615218 0
-160.339291 136.695286 52.740179 0
-149.825687 146.634033 67.241959 0
-148.947816 142.129166 67.635811 0
-148.725784 137.796636 67.577034 0
-164.351817 136.696412 56.270061 0
-154.867780 142.587686 69.635998 0
-154.690480 138.242456 69.532675 0
-168.412559 136.703065 59.799108 0
-187.496535 135.869109 46.340053 0
-160.928202 143.063096 71.641420 0
-160.700015 138.683969 71.559781 0
-172.427308 136.696116 63.394292 0
-193.729630 136.241146 48.738280 0
-167.082764 143.544371 73.688672 0
-166.845428 139.139939 73.599559 0
-176.323639 136.661515 67.101981 0
-200.262864 136.656605 51.039520 0
-173.332232 144.031153 75.780936 0
-173.095428 139.603153 75.677884 0
-180.449409 136.667594 70.692879 0
-204.784778 136.689942 54.749799 0
-179.680754 144.523815 77.919259 0
-179.409815 140.064862 77.824142 0
-179.860485 135.760497 77.289775 0
-209.158665 136.690849 58.599648 0
-186.197790 145.036591 80.064906 0
-185.889451 140.545115 79.978672 0
-185.836502 136.118556 79.751111 0
-213.542339 136.688429 62.485843 0
-192.825951 145.556412 82.259078 0
-192.498028 141.035748 82.169982 0
-192.184954 136.534350 82.087971 0
-217.952250 136.685466 66.399699 0
-199.624651 146.095060 84.471406 0
-199.208335 141.530704 84.418953 0
-198.914121 137.007336 84.311913 0
-222.301674 136.666469 70.393761 0
-206.031426 142.031644 86.723042 0
-205.706180 137.476674 86.619941 0
-226.716808 136.653662 74.394223 0
-213.070966 142.558068 89.029111 0
-212.705322 137.968498 88.934191 0
-231.347550 136.672451 78.321648 0
-223.767068 143.767928 89.493868 0
-223.375337 139.109143 89.395779 0
-234.878641 136.497141 82.896008 0
-150.010537 -1.917728 -29.384515 7
-150.000353 5.695276 -26.800702 7
-149.307611 11.854891 -24.914869 7
-150.768024 21.461539 -21.240525 7
-146.344529 20.979486 -22.704342 7
-149.993924 -9.078364 -26.962417 7
-147.647111 -5.471002 -26.434596 7
-144.369388 -3.594072 -26.744735 7
-141.227214 -1.479710 -26.944917 7
-150.758281 22.043953 -16.535013 7
-148.954152 25.860836 -15.808863 7
-144.146545 24.744845 -17.558733 7
-139.343647 23.773236 -19.266316 7
-134.040480 22.162024 -21.332383 7
-128.338719 20.111040 -23.662926 7
-111.342307 1.596803 -34.614160 8
-113.003635 10.879278 -31.148143 8
-101.043307 0.650394 -37.968327 8
-108.848795 18.231187 -30.039158 8
-105.773641 20.471246 -30.249365 8
-102.582650 22.561329 -30.548318 8
-150.677166 -15.115865 -23.880241 7
-146.842749 -14.148236 -24.619579 7
-144.003717 -11.332461 -24.503802 7
-140.377085 -9.950828 -25.066396 7
-136.766239 -8.514251 -25.613210 7
-133.221708 -6.939370 -26.103876 7
-149.888995 27.959164 -10.446230 7
-145.510622 27.476133 -11.829932 7
-141.022093 26.926861 -13.270932 7
-136.405789 26.292059 -14.780395 7
-131.643795 25.553960 -16.369112 7
-126.515627 24.398585 -18.197993 7
-121.186689 23.095122 -20.136165 7
-113.042196 17.975398 -24.073347 8
-110.943264 21.499745 -23.597295 8
-108.697495 24.772156 -23.247338 8
-105.604419 26.884213 -23.506799 8
-100.522710 26.435250 -25.139019 8
-93.762732 23.980745 -27.883266 8
-87.484153 22.324857 -30.248317 8
-60.512445 8.905220 -42.360346 9
-60.064028 14.738661 -40.749197 9
-57.596511 18.195050 -40.464794 9
-55.070939 21.560703 -40.231463 9
-52.561124 24.920592 -40.001478 9
-49.967559 28.171314 -39.835786 9
-46.121703 30.120581 -40.444000 9
-148.403981 -18.610782 -20.722007 7
-144.406203 -17.877053 -21.563023 7
-140.491786 -16.935608 -22.323518 7
-136.512197 -16.060757 -23.127539 7
-132.570607 -15.067682 -23.890769 7
-128.640955 -14.006019 -24.635476 7
-150.300291 29.184010 -5.591654 7
-146.073660 28.905722 -6.835414 7
-141.780146 28.619370 -8.104992 7
-137.398420 28.295889 -9.415172 7
-132.920306 27.928677 -10.770330 7
-128.218984 27.337590 -12.260052 7
-123.437885 26.746792 -13.777162 7
-118.380582 25.883720 -15.458457 7
-112.492523 24.006513 -17.681667 8
-110.090654 26.998183 -17.475439 8
-107.428734 29.615925 -17.459329 8
-103.635770 30.759806 -18.207106 8
-98.134471 29.793960 -20.071674 8
-92.295636 28.548605 -22.120914 8
-86.022768 26.928863 -24.410695 8
-79.076303 24.678799 -27.085455 8
-71.734867 22.166683 -29.957135 8
-61.984867 17.123786 -34.272741 9
-62.534581 23.876748 -32.161677 9
-60.446100 27.586056 -31.710439 9
-57.558491 30.401687 -31.757849 9
-54.470446 33.005580 -31.931107 9
-51.477770 35.715320 -32.051585 9
-47.944571 37.886569 -32.492369 9
-42.295889 38.002639 -34.155087 9
-29.431803 31.271800 -39.925787 9
-150.575370 -21.974130 -16.308165 7
-146.450951 -21.488774 -17.233311 7
-142.411633 -20.777933 -18.074565 7
-138.264897 -20.202196 -18.989013 7
-134.190287 -19.433351 -19.832665 7
-130.104752 -18.625033 -20.672749 7
-125.995094 -17.799599 -21.519389 7
-150.239909 29.625730 -1.163202 7
-146.123630 29.502931 -2.299349 7
-141.929212 29.346996 -3.470656 7
-137.749860 29.306064 -4.608981 7
-133.406795 29.107479 -5.841967 7
-128.957189 28.848462 -7.126023 7
-124.408199 28.546434 -8.454268 7
-119.716892 28.147211 -9.854187 7
-113.544620 25.820636 -12.219880 8
-110.869756 28.390042 -12.221872 8
-108.341203 31.138134 -12.137103 8
-104.917662 32.712108 -12.640724 8
-100.147591 32.616290 -13.999634 8
-94.806374 31.915092 -15.694979 8
-89.309573 31.152746 -17.456243 8
-83.560741 30.223069 -19.340722 8
-77.366158 28.916017 -21.462446 8
-70.909658 27.468693 -23.702954 8
-62.965348 24.529584 -26.789367 9
-61.355971 28.731450 -26.080841 9
-61.738465 35.002790 -24.231586 9
-58.418337 37.253776 -24.565981 9
-55.071672 39.497727 -24.915194 9
-51.746081 41.784610 -25.251722 9
-48.273410 43.948003 -25.670075 9
-32.105698 33.894962 -33.131581 9
-34.737781 42.131205 -30.122124 9
-141.138343 146.201234 29.318250 0
-137.577097 146.444441 28.334691 0
-133.806008 146.569274 27.253903 0
-129.894571 146.646472 26.115337 0
-125.837145 146.677441 24.917580 0
-149.090315 -23.994460 -12.429181 7
-144.915452 -23.570353 -13.364312 7
-140.688707 -23.170497 -14.324212 7
-136.475577 -22.672563 -15.257390 7
-132.291193 -22.054084 -16.153648 7
-128.013664 -21.529880 -17.105335 7
-123.776205 -20.867430 -18.012293 7
-149.779837 29.406888 2.929306 7
-144.038930 26.675525 0.665059 7
-141.737451 29.534757 0.867472 7
-137.647241 29.614165 -0.183367 7
-133.415317 29.563442 -1.312105 7
-129.120372 29.509245 -2.462658 7
-124.708559 29.377679 -3.669986 7
-120.228018 29.244355 -4.900353 7
-114.137342 26.996779 -7.151346 8
-198.179476 146.040309 48.302981 0
-195.728113 146.398053 47.741612 0
-193.109734 146.581650 47.084628 0
-190.356589 146.644303 46.355322 0
-187.549136 146.694753 45.605272 0
-184.656114 146.697986 44.816329 0
-181.696236 146.681173 44.000948 0
-178.661638 146.638618 43.155351 0
-175.529876 146.548667 42.267424 0
-172.334259 146.453658 41.357722 0
-169.012569 146.288520 40.391404 0
-165.579307 146.075570 39.378408 0
-161.915934 145.696342 38.253879 0
-158.542123 145.696699 37.308739 0
-155.118366 145.715569 36.351586 0
-151.594049 145.704752 35.355307 0
-147.998025 145.696682 34.336529 0
-144.337438 145.700871 33.299686 0
-140.619691 145.726445 32.249181 0
-136.759747 145.698096 31.140990 0
-132.832739 145.689035 30.015562 0
-128.849753 145.711086 28.879039 0
-124.716525 145.685454 27.683832 0
-118.724528 144.192542 25.571425 3
-114.393820 144.204413 24.322417 3
-109.948127 144.211701 23.035613 3
-105.353124 144.191780 21.695148 3
-100.670341 144.197735 20.332303 3
-95.832201 144.181529 18.915054 3
-90.920321 144.209090 17.483779 3
-85.801524 144.186495 15.975667 3
-80.586737 144.199948 14.444769 3
-75.170249 144.179418 12.842314 3
-69.637393 144.189964 11.209511 3
-63.726940 144.062913 9.427125 3
-150.730487 -28.474403 -8.436149 7
-147.866093 -25.507075 -8.323148 7
-143.593842 -25.244792 -9.305706 7
-139.316041 -24.913592 -10.274938 7
-134.973776 -24.621251 -11.275088 7
-130.683451 -24.158119 -12.219828 7
-225.775345 146.569843 58.202768 0
-223.515891 146.676063 57.663241 0
-221.187446 146.712655 57.085214 0
-218.746631 146.616505 56.440539 0
-216.294848 146.556593 55.800701 0
-213.808081 146.495579 55.149438 0
-211.239995 146.366015 54.456659 0
-208.553484 146.119877 53.699866 0
-205.747173 145.764612 52.880650 0
-203.088780 145.684243 52.171028 0
-200.458158 145.698716 51.491656 0
-197.766862 145.685289 50.786736 0
-195.044740 145.686835 50.075413 0
-192.273807 145.681255 49.347056 0
-189.488615 145.714517 48.622858 0
-186.621928 145.703314 47.863039 0
-183.718830 145.706927 47.095077 0
-180.763198 145.707513 46.309945 0
-177.759857 145.713042 45.510954 0
-174.725641 145.744578 44.708037 0
-171.612696 145.749591 43.874626 0
-168.459094 145.773527 43.032689 0
-165.204174 145.752878 42.149357 0
-161.911065 145.758873 41.260021 0
-158.573169 145.785723 40.361326 0
-155.131041 145.775092 39.422055 0
-151.643205 145.789535 38.474103 0
-148.063789 145.786117 37.493887 0
-144.422679 145.797028 36.497711 0
-140.614139 145.726524 35.432131 0
-137.337955 146.217148 34.652439 0
-132.939543 145.768189 33.322962 0
-128.893151 145.722587 32.189572 0
-124.783879 145.705983 31.043129 0
-118.819626 144.223945 29.011345 3
-114.448694 144.190409 27.781901 3
-110.013213 144.193961 26.540611 3
-105.490356 144.218416 25.276958 3
-100.794266 144.200664 23.951138 3
-96.003270 144.206497 22.601262 3
-91.046557 144.186810 21.195189 3
-85.986435 144.192750 19.762901 3
-80.785001 144.200843 18.287810 3
-75.406620 144.191422 16.754884 3
-69.874460 144.186529 15.175902 3
-64.192082 144.193761 13.553559 3
-150.789373 -27.467551 -3.330951 7
-146.979912 -26.366873 -3.953657 7
-142.638026 -26.229338 -4.962616 7
-229.742807 141.755967 60.363047 0
-230.168156 146.638055 61.750857 0
-227.640250 146.173327 61.013791 0
-225.061469 145.689789 60.257481 0
-222.761016 145.740480 59.707250 0
-220.377069 145.700594 59.110911 0
-217.996055 145.715724 58.527700 0
-215.575703 145.717931 57.929441 0
-213.102270 145.688762 57.307895 0
-210.648622 145.740755 56.710332 0
-208.125682 145.740296 56.079900 0
-205.556236 145.725047 55.431992 0
-202.955063 145.718425 54.776309 0
-200.331245 145.734161 54.118627 0
-197.648499 145.724079 53.437368 0
-194.947721 145.745365 52.757494 0
-192.194925 145.754336 52.059156 0
-189.386361 145.748999 51.340842 0
-186.532358 145.744993 50.609120 0
-183.637170 145.749454 49.866837 0
-180.720202 145.786939 49.125146 0
-177.705325 145.769401 48.342126 0
-174.644281 145.761114 47.547291 0
-171.549867 145.778051 46.747915 0
-168.374762 145.769480 45.918916 0
-165.143177 145.765187 45.073992 0
-161.871605 145.784645 44.222245 0
-158.528644 145.796792 43.347653 0
-155.052854 145.742974 42.419452 0
-151.545184 145.729185 41.490392 0
-147.974459 145.725797 40.544853 0
-144.387526 145.779318 39.606609 0
-140.621576 145.738581 38.595276 0
-137.932553 146.751136 38.125762 0
-132.941608 145.754441 36.549529 0
-128.954750 145.750153 35.480662 0
-124.854178 145.729346 34.374753 0
-118.839899 144.193288 32.385717 3
-114.516947 144.187851 31.218470 3
-110.099534 144.193829 30.025796 3
-105.579361 144.207952 28.804568 3
-100.906431 144.195382 27.532808 3
-96.133815 144.201944 26.235738 3
-91.206966 144.190711 24.889633 3
-86.166641 144.196788 23.513803 3
-80.953026 144.181695 22.082704 3
-75.638535 144.201787 20.629295 3
-70.134018 144.199828 19.115572 3
-64.461893 144.197504 17.552633 3
2.680391 104.585657 -10.168808 2
-236.885274 142.982490 64.815844 0
-236.638767 146.744929 65.712450 0
-233.878626 145.658218 64.789543 0
-231.686104 145.707227 64.285786 0
-229.426320 145.679454 63.745110 0
-227.145855 145.663073 63.200746 0
-224.877982 145.715629 62.675048 0
-222.537861 145.692592 62.111463 0
-220.196106 145.715671 61.557358 0
-217.820393 145.731929 60.991703 0
-215.409371 145.741334 60.414130 0
-212.958782 145.739501 59.822486 0
-210.473550 145.736187 59.220358 0
-207.952647 145.731710 58.607538 0
-205.407947 145.744849 57.991538 0
-202.822257 145.752251 57.362343 0
-200.209521 145.775151 56.728573 0
-197.511730 145.736747 56.057021 0
-194.818402 145.760106 55.399950 0
-192.073406 145.771285 54.725315 0
-189.252258 145.742201 54.020136 0
-186.411477 145.746944 53.316501 0
-183.543968 145.776965 52.610513 0
-180.595714 145.768991 51.873257 0
-177.577234 145.739644 51.111350 0
-174.567793 145.782352 50.367249 0
-171.448913 145.763377 49.578801 0
-168.273534 145.746384 48.774645 0
-165.050364 145.742955 47.959711 0
-161.776258 145.751460 47.132757 0
-158.391127 145.712155 46.264173 0
-154.999521 145.735466 45.406868 0
-151.485632 145.706422 44.503861 0
-147.914534 145.693638 43.588028 0
-144.312493 145.723823 42.672362 0
-140.595666 145.719736 41.717011 0
-136.750357 145.674024 40.716649 0
-132.967448 145.761940 39.761644 0
-128.973228 145.740405 38.724173 0
-124.873129 145.709232 37.654818 0
-118.903051 144.198828 35.752843 3
-114.622161 144.216023 34.643275 3
-110.209125 144.212933 33.492252 3
-105.681843 144.208743 32.308803 3
-101.049239 144.214437 31.097706 3
-96.258441 144.193826 29.836687 3
-91.345241 144.179313 28.542482 3
-86.310057 144.175412 27.216137 3
-81.157808 144.189706 25.860573 3
-75.829397 144.185166 24.451661 3
-70.373556 144.201108 23.011097 3
-64.718256 144.193983 21.509835 3
-5.843130 109.871152 -1.855135 2
-0.337890 110.943576 -3.079483 2
-238.169961 141.634726 67.171445 0
-238.431770 146.460326 68.404405 0
-235.900944 145.743468 67.653337 0
-233.738883 145.795286 67.171584 0
-231.436623 145.633624 66.604577 0
-229.220468 145.678569 66.105904 0
-226.972627 145.712207 65.595764 0
-224.688895 145.729665 65.071985 0
-222.359269 145.716939 64.528855 0
-220.023621 145.742478 63.992064 0
-217.633642 145.728521 63.431667 0
-215.228560 145.740298 62.872431 0
-212.782990 145.739168 62.299136 0
-210.301464 145.734386 61.715028 0
-207.813653 145.771114 61.137829 0
-205.248417 145.747032 60.526363 0
-202.668918 145.755870 59.917814 0
-200.036338 145.744351 59.290305 0
-197.376608 145.750262 58.658913 0
-194.682907 145.765472 58.020056 0
-191.921655 145.748241 57.355827 0
-189.154863 145.780411 56.700313 0
-186.307792 145.769003 56.013681 0
-183.403107 145.746009 55.308850 0
-180.467192 145.745401 54.600096 0
-177.476183 145.740374 53.875345 0
-174.439517 145.744090 53.139909 0
-171.356873 145.757923 52.393986 0
-168.167586 145.717544 51.607831 0
-164.999292 145.764700 50.845371 0
-161.707795 145.745911 50.035823 0
-158.361945 145.738106 49.213755 0
-156.026902 146.812202 48.887136 0
-151.458845 145.715623 47.510812 0
-147.960931 145.763763 46.658857 0
-144.303224 145.730328 45.746962 0
-140.611684 145.739653 44.834615 0
-136.856446 145.765122 43.908292 0
-132.989392 145.766098 42.946747 0
-129.041219 145.773964 41.964670 0
-124.943896 145.733593 40.932566 0
-120.741406 145.688107 39.871084 0
-114.667764 144.195889 38.013736 3
-110.268122 144.192049 36.908222 3
-105.777094 144.204513 35.781357 3
-101.145931 144.198803 34.613095 3
-96.383388 144.186800 33.408210 3
-91.533329 144.205594 32.185938 3
-86.522689 144.205045 30.916598 3
-81.361281 144.197994 29.605426 3
-76.042651 144.185308 28.250883 3
-70.610965 144.202380 26.871885 3
-65.003068 144.210851 25.443840 3
-58.971592 144.056660 23.869865 3
-0.663208 110.914423 1.745533 2
-238.951149 139.246386 69.169672 0
-239.252743 144.267713 70.404681 0
-238.381492 146.788976 70.797610 0
-235.694949 145.761264 69.962382 0
-233.512787 145.768153 69.478133 0
-231.308240 145.778702 68.988547 0
-229.015306 145.676684 68.451958 0
-226.750295 145.673617 67.943279 0
-224.484345 145.715311 67.443503 0
-222.178831 145.736146 66.928788 0
-219.856835 145.776534 66.413622 0
-217.461128 145.745897 65.864223 0
-215.074189 145.778563 65.330091 0
-212.619545 145.755908 64.766643 0
-210.157933 145.773421 64.209535 0
-207.642628 145.762279 63.632351 0
-205.078912 145.733541 63.038797 0
-202.502483 145.739832 62.449015 0
-199.892694 145.752596 61.851740 0
-197.233069 145.751238 61.238473 0
-194.562309 145.789117 60.630210 0
-191.809769 145.775191 59.989981 0
-189.019078 145.769308 59.341386 0
-186.177749 145.757620 58.678371 0
-184.133598 146.763604 58.428651 0
-181.227409 146.769658 57.751788 0
-178.219903 146.716958 57.036690 0
-174.371397 145.773289 55.923745 0
-172.130286 146.712503 55.607429 0
-168.996411 146.704959 54.868572 0
-165.628346 146.510899 54.031588 0
-162.473371 146.611186 53.308881 0
-159.259363 146.712273 52.570939 0
-155.871063 146.700898 51.765339 0
-152.473096 146.748177 50.968925 0
-147.918924 145.748495 49.665199 0
-144.300113 145.742536 48.801482 0
-140.638328 145.769365 47.933175 0
-137.905149 146.711067 47.485838 0
-132.998279 145.758771 46.102115 0
-129.072991 145.776190 45.163938 0
-124.995150 145.741594 44.176171 0
-120.819083 145.706937 43.163126 0
-114.748443 144.204910 41.373453 3
-110.363858 144.201155 40.313473 3
-105.859012 144.190435 39.221205 3
-101.268668 144.203918 38.111720 3
-96.517995 144.187868 36.955246 3
-91.662306 144.189222 35.775222 3
-86.696778 144.207910 34.570388 3
-81.552177 144.198543 33.314107 3
-76.275493 144.200264 32.026113 3
-70.841656 144.200480 30.697521 3
-65.237890 144.196125 29.324474 3
-59.459811 144.190202 27.906449 3
6.578141 106.089418 3.660558 2
-239.651097 141.163837 72.132336 0
-239.622828 145.456310 73.078901 0
-238.073715 146.610200 73.000431 0
-235.469604 145.739696 72.244492 0
-233.303894 145.770895 71.782095 0
-231.082616 145.744135 71.293853 0
-228.829115 145.706381 70.795199 0
-226.567472 145.701700 70.301084 0
-224.216395 145.591545 69.763214 0
-222.013622 145.778640 69.322213 0
-219.675671 145.785359 68.810929 0
-217.305683 145.788528 68.290822 0
-214.905591 145.792981 67.763359 0
-212.473209 145.796947 67.227651 0
-209.992646 145.778522 66.675375 0
-207.489830 145.778480 66.121156 0
-204.940480 145.762863 65.552180 0
-203.104628 146.792209 65.368349 0
-199.779641 145.801241 64.412423 0
-197.865135 146.785995 64.199258 0
-195.038942 146.592075 63.525606 0
-192.415762 146.719909 62.966032 0
-188.882950 145.756780 61.965391 0
-186.834341 146.711544 61.711364 0
-184.028434 146.773046 61.093147 0
-180.429637 145.954566 60.105568 0
-177.453393 145.946632 59.431755 0
-175.122882 146.729644 59.072697 0
-171.521462 146.131883 58.128544 0
-168.925590 146.712688 57.663712 0
-164.868286 145.775804 56.541186 0
-162.520882 146.725510 56.209324 0
-159.205480 146.711827 55.450322 0
-155.893350 146.768011 54.705739 0
-152.424719 146.735434 53.905312 0
-147.949067 145.802569 52.682143 0
-144.278064 145.736752 51.825837 0
-140.614401 145.752242 50.987150 0
-136.798227 145.702234 50.098296 0
-132.957953 145.707817 49.214318 0
-129.084450 145.760915 48.331369 0
-125.033675 145.739001 47.390414 0
-120.890651 145.721013 46.427614 0
-114.797480 144.188452 44.694969 3
-110.442129 144.196771 43.685730 3
-105.978294 144.206318 42.650158 3
-101.356600 144.182940 41.569615 3
-96.669370 144.202370 40.481267 3
-91.799536 144.179810 39.340193 3
-86.843929 144.192296 38.184871 3
-81.765082 144.215763 37.001518 3
-76.458011 144.181593 35.751363 3
-71.064991 144.194911 34.489297 3
-65.482424 144.189251 33.177308 3
-59.761252 144.204377 31.835438 3
-239.730669 137.304406 73.679315 0
-239.736795 141.809606 74.633149 0
-239.679896 146.010745 75.508757 0
-237.728977 146.357928 75.172167 0
-235.249999 145.726913 74.517402 0
-233.059287 145.705116 74.051035 0
-230.848938 145.693026 73.581817 0
-228.627744 145.707046 73.115044 0
-226.371137 145.704341 72.636498 0
-224.087198 145.701227 72.151304 0
-221.618481 145.438767 71.571678 0
-219.512757 145.821957 71.203840 0
-217.086487 145.728497 70.667107 0
-214.740937 145.811876 70.183811 0
-212.289370 145.779549 69.652887 0
-209.798741 145.739746 69.111246 0
-207.302835 145.743645 68.576789 0
-205.304945 146.504803 68.306221 0
-202.938553 146.772821 67.852977 0
-200.342335 146.768334 67.292779 0
-197.684524 146.734053 66.712294 0
-194.993557 146.710772 66.126106 0
-191.514165 145.733902 65.170995 0
-189.523710 146.716511 64.943042 0
-185.900639 145.711218 63.949228 0
-183.886566 146.737496 63.723469 0
-180.961377 146.706349 63.080632 0
-178.027144 146.724026 62.445017 0
-174.993715 146.687763 61.775800 0
-171.069658 145.725412 60.720943 0
-167.937128 145.722668 60.035181 0
-164.730903 145.704053 59.329130 0
-161.513905 145.738581 58.630683 0
-158.216062 145.753863 57.909637 0
-154.850483 145.766672 57.172271 0
-151.380890 145.744074 56.403860 0
-147.758769 145.644102 55.585142 0
-144.210276 145.687683 54.810896 0
-140.563420 145.710051 54.009650 0
-136.826361 145.722754 53.185520 0
-133.266277 145.966830 52.446427 0
-129.098396 145.747979 51.478024 0
-125.077524 145.741204 50.584048 0
-120.939931 145.716788 49.659561 0
-114.885074 144.203987 48.008022 3
-110.565715 144.229252 47.050988 3
-106.060266 144.193454 46.039149 3
-101.465442 144.178713 45.010503 3
-96.814902 144.213238 43.978170 3
-91.970880 144.196441 42.891207 3
-87.027227 144.203757 41.785624 3
-81.921431 144.194007 40.639167 3
-76.701557 144.206355 39.470357 3
-71.305619 144.202332 38.257591 3
-65.722873 144.181034 36.998225 3
-60.023091 144.194356 35.718171 3
-239.594706 137.515786 76.066400 0
-239.591589 141.977574 76.961593 0
-239.385207 145.858830 77.698252 0
-237.582054 146.489477 77.456113 0
-235.065643 145.778989 76.798697 0
-232.862827 145.726836 76.336861 0
-230.670486 145.740144 75.889744 0
-228.428677 145.709883 75.423217 0
-226.150111 145.662472 74.945164 0
-222.981088 144.158529 73.992322 0
-220.691843 144.220689 73.532857 0
-219.107257 145.465033 73.454036 0
-216.902874 145.723310 73.050087 0
-214.511183 145.728609 72.556459 0
-212.081775 145.724845 72.052660 0
-209.639109 145.750420 71.551383 0
-207.123636 145.718880 71.023083 0
-204.599803 145.726881 70.500326 0
-202.760682 146.735911 70.317982 0
-200.198426 146.771377 69.791526 0
-191.879685 139.192702 66.556691 0
-194.115059 145.741705 68.319030 0
-191.378368 145.727169 67.744529 0
-188.608300 145.725955 67.165084 0
-185.746318 145.667432 66.554490 0
-182.955260 145.752699 65.986505 0
-180.047285 145.754024 65.376850 0
-177.077536 145.742068 64.750997 0
-174.066849 145.743317 64.118516 0
-171.008175 145.751367 63.476650 0
-167.887547 145.752882 62.819825 0
-164.685206 145.729510 62.140259 0
-161.481511 145.768945 61.472069 0
-158.152938 145.743570 60.764174 0
-154.786718 145.747146 60.053326 0
-151.360299 145.758390 59.330578 0
-147.859057 145.765409 58.590492 0
-144.270006 145.758910 57.828484 0
-140.626466 145.773341 57.058310 0
-136.890853 145.776282 56.265660 0
-132.998335 145.713777 55.426251 0
-130.290463 146.761461 55.053621 0
-125.087525 145.714755 53.742996 0
-120.969358 145.696269 52.861945 0
-116.752492 145.678717 51.959298 0
-110.579144 144.173771 50.350892 3
-106.177272 144.208695 49.417392 3
-101.636227 144.222856 48.449375 3
-96.913588 144.189483 47.432580 3
-92.110032 144.190109 46.404219 3
-37.414392 108.169077 27.762498 3
-10.154251 93.196318 19.043100 3
77.269620 37.229894 -10.447173 5
86.944841 36.571923 -12.650961 5
97.240183 35.701610 -15.029988 5
-239.199566 137.181774 78.281128 0
-239.049719 141.333793 79.041042 0
-238.844206 145.215763 79.738232 0
-233.619716 139.215085 77.559330 0
-234.820638 145.713951 79.032768 0
-232.605310 145.633607 78.576486 0
-230.444135 145.698675 78.158275 0
-228.254885 145.755524 77.732588 0
-226.016066 145.769065 77.288476 0
-223.700903 145.698518 76.812859 0
-221.170905 145.322697 76.236150 0
-219.103292 145.755150 75.904643 0
-216.784855 145.820100 75.453051 0
-214.373670 145.786502 74.963911 0
-211.939080 145.766928 74.472400 0
-209.483201 145.765261 73.979671 0
-206.993494 145.763892 73.479872 0
-204.459725 145.749990 72.968520 0
-201.906793 145.760571 72.457597 0
-199.267449 145.704549 71.916391 0
-196.629817 145.705000 71.385830 0
-193.968321 145.726998 70.854175 0
-191.226117 145.698526 70.296403 0
-188.506056 145.753123 69.758377 0
-185.677661 145.727855 69.183115 0
-182.819237 145.723466 68.605356 0
-179.932027 145.742206 68.025767 0
-176.979368 145.742483 67.429116 0
-173.955783 145.721311 66.813727 0
-170.910286 145.736420 66.200336 0
-167.802796 145.744390 65.572680 0
-164.630294 145.744698 64.930037 0
-161.416535 145.764915 64.282375 0
-158.120292 145.764119 63.613664 0
-154.766899 145.771404 62.934476 0
-151.319009 145.752151 62.230743 0
-147.827378 145.759437 61.522683 0
-144.193890 145.701795 60.773260 0
-140.534182 145.692870 60.027186 0
-136.832348 145.718293 59.278531 0
-133.003905 145.703907 58.496262 0
-129.129565 145.725455 57.710912 0
-125.109968 145.699150 56.886623 0
-121.028986 145.701309 56.054677 0
-117.846418 146.520597 55.557465 0
-4.483820 58.876860 16.138019 4
-10.281219 68.656308 19.136921 1
-6.798799 71.013102 18.862213 1
-0.144015 71.006378 17.500216 1
30.615681 53.300255 7.928962 9
37.730023 53.590235 6.526484 9
61.894319 41.922501 -0.579027 9
75.260827 38.394347 -3.969274 5
84.171111 38.207451 -5.830065 5
93.588847 37.860773 -7.825196 5
103.545345 37.353179 -9.961336 5
136.981557 22.093291 -19.634785 6
-238.656917 136.539786 80.409874 0
-238.393770 140.459318 81.063228 0
-238.059745 144.091030 81.651084 0
-237.258172 146.686451 81.962388 0
-234.624167 145.739041 81.283289 0
-232.429984 145.690643 80.850514 0
-230.228528 145.674996 80.422108 0
-228.064290 145.769693 80.020599 0
-225.759132 145.662069 79.555415 0
-223.527858 145.728602 79.135671 0
-221.210027 145.695284 78.681153 0
-218.923391 145.759662 78.250090 0
-216.590654 145.795236 77.804826 0
-214.163884 145.731539 77.323440 0
-211.761545 145.755076 76.862317 0
-209.293975 145.729663 76.379668 0
-206.817544 145.741431 75.901855 0
-204.297958 145.741237 75.413420 0
-201.746996 145.747821 74.920003 0
-199.129429 145.714707 74.406442 0
-196.510838 145.733223 73.901816 0
-193.842040 145.738022 73.384876 0
-191.113087 145.719073 72.851893 0
-188.382909 145.753302 72.328073 0
-185.571203 145.741129 71.780002 0
-182.732342 145.752491 71.230749 0
-179.822580 145.736562 70.662721 0
-176.890744 145.753272 70.096121 0
-173.892957 145.753238 69.513589 0
-170.820145 145.729546 68.912121 0
-167.732572 145.751199 68.315764 0
-164.551887 145.734464 67.694316 0
-161.345958 145.754684 67.074435 0
-158.011880 145.706899 66.417348 0
-154.671934 145.720095 65.769882 0
-151.237367 145.706077 65.099012 0
-147.735539 145.695391 64.415514 0
-144.135818 145.661633 63.708706 0
-141.308952 146.414636 63.292647 0
-137.910268 146.691039 62.680059 0
-134.114157 146.676192 61.937969 0
-129.813825 146.297071 61.032546 0
-11.643023 48.764832 20.616989 9
-5.890169 49.293460 19.589995 9
-0.070162 49.871502 18.558490 9
6.031217 50.328555 17.450343 9
12.162971 50.874427 16.351863 9
-1.459616 66.771253 21.839550 1
29.661410 48.344780 12.488321 9
31.992541 52.116375 12.704794 9
38.983597 52.500207 11.408882 9
48.240537 51.407364 9.407804 9
74.623947 38.608886 1.981525 5
83.176657 38.637150 0.316785 5
91.942817 38.690675 -1.385410 5
101.340283 38.503997 -3.253853 5
123.946922 30.081603 -9.165858 6
135.895600 28.857836 -11.717443 6
-237.440407 138.984289 82.940768 0
-237.084208 142.591985 83.484367 0
-236.686575 145.990386 83.984882 0
-234.876387 146.608155 83.749932 0
-232.240456 145.719570 83.105257 0
-230.094426 145.796374 82.715969 0
-227.819828 145.687535 82.271257 0
-225.607372 145.734652 81.864706 0
-223.295992 145.658298 81.418818 0
-221.049451 145.737095 81.011464 0
-218.716489 145.719412 80.571691 0
-216.387874 145.755655 80.141979 0
-214.019926 145.776730 79.702445 0
-211.580533 145.736814 79.239315 0
-209.136043 145.739115 78.782501 0
-206.657188 145.740414 78.319202 0
-204.141189 145.738500 77.848527 0
-201.561009 145.697856 77.359398 0
-198.998298 145.733207 76.886543 0
-196.364424 145.724054 76.392956 0
-193.701355 145.729422 75.896496 0
-190.982513 145.716406 75.386617 0
-188.226943 145.711739 74.871417 0
-185.435671 145.718087 74.351543 0
-182.599655 145.725895 73.823687 0
-179.710148 145.726782 73.284796 0
-176.801727 145.763004 72.748504 0
-173.776514 145.724068 72.177779 0
-170.719927 145.711034 71.605733 0
-167.627443 145.719699 71.030811 0
-164.450207 145.699099 70.435242 0
-161.837314 146.329821 70.055763 0
-158.874686 146.641835 69.557027 0
-155.583034 146.676395 68.949917 0
-151.985798 146.475019 68.245868 0
-141.657478 139.867873 65.198034 0
-35.498924 43.141127 28.963937 9
-30.401759 43.802907 28.128247 9
-25.259105 44.511643 27.292314 9
-19.969742 45.178406 26.422157 9
-14.519478 45.797228 25.514125 9
-8.968752 46.426686 24.589451 9
-3.270955 47.031426 23.633445 9
2.486258 47.689281 22.675686 9
8.549251 48.203620 21.636842 9
14.578146 48.855580 20.628057 9
20.929268 49.366907 19.535637 9
27.345364 49.945794 18.442925 9
33.975594 50.483141 17.303593 9
40.781942 51.014724 16.130820 9
55.572841 45.999938 12.528120 9
75.157152 38.011478 7.527623 5
83.459337 38.199654 6.019277 5
92.034528 38.365740 4.456768 5
100.773095 38.590767 2.874308 5
120.662300 31.866139 -1.965464 6
130.760146 31.730514 -3.861188 6
141.795543 31.221270 -5.994437 6
-236.277120 137.090414 84.742472 0
-235.859728 140.607303 85.225025 0
-235.427937 143.972436 85.681165 0
-234.651528 146.574257 85.953578 0
-232.081198 145.802379 85.363600 0
-229.855288 145.727164 84.947356 0
-227.674686 145.778438 84.559789 0
-225.388176 145.689883 84.131058 0
-223.146436 145.724865 83.730449 0
-220.873028 145.751440 83.323085 0
-218.515787 145.687958 82.886509 0
-216.180519 145.707787 82.467529 0
-213.827852 145.746704 82.048781 0
-211.384083 145.694261 81.599317 0
-208.957281 145.716796 81.165234 0
-206.476231 145.708673 80.716801 0
-203.985004 145.735593 80.272482 0
-201.417852 145.706228 79.805820 0
-198.821412 145.688834 79.336150 0
-196.232088 145.732698 78.877926 0
-193.568761 145.730525 78.399371 0
-190.856952 145.719343 77.911018 0
-188.073762 145.672988 77.404564 0
-185.306220 145.701822 76.913357 0
-182.471894 145.704593 76.406355 0
-180.001800 146.190797 76.042710 0
-177.441709 146.611048 75.652711 0
-174.556391 146.705481 75.152443 0
-171.425214 146.582799 74.573617 0
-167.936931 146.137274 73.879328 0
-54.699143 29.131403 34.787311 9
-51.953233 31.901077 34.745812 9
-49.147844 34.607681 34.684160 9
-45.799570 36.771741 34.438716 9
-41.675470 38.197462 33.936337 9
-36.899121 39.048913 33.225587 9
-32.059672 39.918521 32.507223 9
-26.978143 40.643030 31.722985 9
-17.819343 37.755872 29.629385 9
-16.552230 42.116566 30.113854 9
-11.239913 42.900194 29.300302 9
-5.712030 43.590309 28.434029 9
-0.084312 44.293486 27.552897 9
5.664352 44.995989 26.650951 9
11.590224 45.657115 25.711624 9
17.665563 46.305892 24.744576 9
23.834549 46.991078 23.767652 9
30.152966 47.673371 22.764602 9
36.839432 48.196186 21.671260 9
43.715118 48.704618 20.542941 9
69.214335 36.100521 13.984636 5
76.955816 36.533677 12.693011 5
84.850553 37.007504 11.381890 5
93.127639 37.373871 9.986663 5
101.657350 37.731877 8.546468 5
120.598074 31.598890 4.209243 6
130.100396 31.814075 2.576365 6
140.060449 31.931862 0.847953 6
-234.315096 138.000466 86.859607 0
-233.823590 141.298076 87.262992 0
-233.345344 144.509681 87.656458 0
-228.253754 139.158999 85.963360 0
-229.698924 145.805060 87.207886 0
-227.447615 145.724158 86.800544 0
-225.255598 145.792178 86.426356 0
-222.986005 145.771690 86.025887 0
-220.674160 145.727747 85.615052 0
-218.331120 145.681082 85.198897 0
-215.981810 145.672462 84.787888 0
-213.626134 145.700871 84.381866 0
-211.225710 145.707911 83.965396 0
-208.776679 145.690811 83.537403 0
-206.316087 145.705976 83.112811 0
-203.809833 145.705000 82.678432 0
-201.264897 145.700160 82.237336 0
-198.684691 145.697996 81.791112 0
-196.341841 146.061094 81.441615 0
-194.068202 146.550903 81.123787 0
-191.482220 146.676134 80.697551 0
-188.744760 146.660483 80.224488 0
-185.734329 146.365765 79.662772 0
-65.214872 5.498488 37.586456 8
-62.456316 8.414115 37.557433 9
-61.985201 13.948232 38.319691 9
-59.615529 17.227920 38.414823 9
-57.580896 20.852706 38.620908 9
-54.723999 23.548712 38.545922 9
-52.025483 26.412273 38.524621 9
-49.529188 29.480240 38.570109 9
-46.429756 31.919054 38.417685 9
-42.299611 33.338118 37.934791 9
-37.552412 34.204643 37.263400 9
-32.729372 35.074530 36.580765 9
-27.870524 35.988683 35.899985 9
-22.874164 36.853822 35.189500 9
-17.819090 37.747775 34.474664 9
-12.619863 38.596507 33.729638 9
-7.228030 39.364175 32.940734 9
-1.852783 40.238240 32.172259 9
3.743459 41.017533 31.353060 9
9.503496 41.758804 30.501597 9
15.315422 42.558788 29.651739 9
21.270721 43.346466 28.777111 9
27.458331 44.058596 27.852982 9
33.805562 44.759708 26.901633 9
40.245614 45.505240 25.942944 9
49.671690 44.196358 24.164923 9
72.097567 33.841423 18.799917 5
79.583638 34.477261 17.653383 5
87.252699 35.125240 16.479633 5
95.407935 35.589042 15.197341 5
103.725109 36.099519 13.896878 5
122.870680 29.838293 9.729560 6
131.772573 30.440527 8.349422 6
141.086370 30.956109 6.888745 6
-231.849786 137.926475 88.746710 0
-231.300695 141.070306 89.088698 0
-230.741129 144.093949 89.412975 0
-229.858309 146.445659 89.589659 0
-227.788585 146.661207 89.268417 0
-225.004082 145.689670 88.661435 0
-222.781604 145.743687 88.293287 0
-220.487560 145.723016 87.903370 0
-218.163402 145.700197 87.508826 0
-215.835977 145.718876 87.120298 0
-213.448627 145.691203 86.715967 0
-211.219189 145.948087 86.378826 0
-209.197078 146.545753 86.125060 0
-206.833217 146.675443 85.749092 0
-204.364286 146.700267 85.341597 0
-201.681628 146.478444 84.864486 0
-197.537214 144.341624 83.874489 0
-45.150742 -39.031875 32.638993 9
-61.800112 -11.214206 39.345885 9
-64.421098 -1.506556 41.162910 9
-63.331344 3.483467 41.697957 9
-60.971002 6.890125 41.799608 9
-59.765943 11.593584 42.277770 9
-57.667923 15.210067 42.455458 9
-55.341333 18.536318 42.555626 9
-52.871578 21.681920 42.607959 9
-50.287864 24.688822 42.623251 9
-47.125612 27.081986 42.457419 9
-43.234918 28.744964 42.069314 9
-38.609447 29.715491 41.463402 9
-33.662556 30.442008 40.771649 9
-28.614347 31.153734 40.062950 9
-23.541268 31.927184 39.360810 9
-18.305188 32.634587 38.624390 9
-13.032227 33.397896 37.891822 9
-7.752239 34.244246 37.171906 9
-2.474013 35.180338 36.467071 9
2.822355 36.187809 35.771472 9
8.354991 37.083648 35.023367 9
13.957758 38.014923 34.270986 9
19.800899 38.846797 33.467339 9
25.706709 39.729801 32.663015 9
31.841136 40.537300 31.812931 9
38.120061 41.342386 30.941337 9
45.027309 41.791321 29.919026 9
68.661787 30.209394 24.459496 5
75.873460 30.944702 23.435740 5
83.213260 31.720415 22.399771 5
90.854363 32.422250 21.307242 5
98.682426 33.137968 20.189398 5
109.191691 32.241777 18.409801 5
127.167333 26.779756 14.772477 6
135.681285 27.664542 13.578963 6
144.592409 28.459930 12.311953 6
-228.740687 136.682287 90.396211 0
-227.952107 139.375703 90.612973 0
-225.313845 138.692103 90.091408 0
-222.177877 137.215987 89.386880 0
-221.329159 139.750075 89.576149 0
-220.401942 142.087825 89.728151 0
-219.346238 144.160075 89.825750 0
-218.105670 145.893719 89.850263 0
-215.990867 146.233766 89.552552 0
-213.501324 146.032477 89.124590 0
-55.895626 -18.269954 42.334819 9
-58.104733 -8.946322 43.929800 9
-58.085267 -2.547746 44.785355 9
-57.095601 2.567411 45.318742 9
-55.652164 7.065290 45.700186 9
-53.879641 11.121199 45.972715 9
-51.813970 14.799947 46.150649 9
-49.385181 18.047505 46.215798 9
-46.389702 20.673008 46.110730 9
-42.573107 22.448420 45.765126 9
-38.085361 23.577505 45.229912 9
-33.463162 24.637154 44.666515 9
-28.703519 25.631397 44.075067 9
-23.863577 26.622113 43.472855 9
-18.986903 27.653859 42.872711 9
-13.889765 28.557610 42.223336 9
-8.780283 29.533037 41.584066 9
-3.380239 30.332165 40.878313 9
2.145189 31.113073 40.153135 9
7.787609 31.888052 39.411567 9
13.553713 32.656051 38.652508 9
19.372552 33.480122 37.895531 9
25.291182 34.323567 37.128469 9
31.194346 35.280784 36.381956 9
37.078892 36.352128 35.656573 9
43.607735 37.033130 34.781953 9
67.055891 25.268745 29.621240 5
73.877508 26.223597 28.746777 5
80.945868 27.121183 27.829941 5
88.148820 28.049193 26.899978 5
95.653146 28.898007 25.916571 5
103.189005 29.859578 24.947255 5
125.775957 21.096327 20.359826 6
133.728833 22.264699 19.364348 6
141.777740 23.511874 18.368904 6
-51.404701 -10.283675 47.607976 9
-51.613480 -3.631048 48.475587 9
-50.754787 1.642647 49.013472 9
-49.198835 6.031994 49.338847 9
-46.966476 9.610192 49.464016 9
-44.024186 12.387647 49.385338 9
-40.058243 14.078329 49.020300 9
-35.778818 15.485366 48.575543 9
-31.415173 16.861390 48.116957 9
-26.940494 18.183983 47.637794 9
-22.337505 19.442012 47.134147 9
-17.621358 20.656657 46.610992 9
-12.803593 21.844335 46.072171 9
-7.886624 23.011997 45.518983 9
-2.795158 24.095784 44.932325 9
2.370644 25.193087 44.339357 9
7.690936 26.236830 43.719867 9
13.118252 27.274458 43.086932 9
18.681284 28.286194 42.433920 9
24.404164 29.257794 41.755585 9
30.350229 30.144855 41.037129 9
36.514104 30.961100 40.281217 9
42.928613 31.690100 39.481109 9
69.465474 17.275585 33.824896 5
75.814179 18.585589 33.118156 5
82.366126 19.851343 32.380034 5
89.089964 21.103111 31.619087 5
96.131464 22.245442 30.802145 5
101.733936 24.492302 30.338696 5
124.754684 15.152568 25.881003 6
132.283709 16.536760 25.039490 6
140.201134 17.799144 24.131003 6
148.955382 18.672771 23.057102 6
-34.373429 -4.117001 50.827449 9
-32.219422 -0.236271 50.989113 9
-29.196422 2.683957 50.918614 9
-25.705249 5.116300 50.727933 9
-21.920964 7.268648 50.466177 9
-17.921696 9.236986 50.155672 9
-13.677925 11.004982 49.790425 9
-9.254011 12.648387 49.388457 9
-4.714136 14.237495 48.967109 9
0.040319 15.686964 48.502612 9
4.894515 17.111980 48.024686 9
9.891361 18.478942 47.523462 9
15.073896 19.756977 46.989397 9
20.333173 21.047921 46.449793 9
25.803572 22.242031 45.873094 9
31.393079 23.424443 45.282274 9
37.132626 24.574985 44.670769 9
43.055057 25.673833 44.031813 9
75.101735 6.647882 37.403530 5
80.476205 8.760278 36.972458 5
86.243248 10.653265 36.465496 5
92.275453 12.436859 35.913468 5
98.666512 14.055304 35.297084 5
105.642241 15.365695 34.568658 5
131.450488 3.901577 29.748846 6
137.429383 6.379483 29.308962 6
144.009977 8.545088 28.754712 6
3.518071 -5.800954 50.658391 9
5.134475 -1.149156 50.981396 9
8.257041 2.026985 50.947295 9
12.003015 4.628963 50.771694 9
16.118116 6.921923 50.517363 9
20.538953 8.982109 50.201155 9
25.237498 10.849868 49.831329 9
30.208016 12.544050 49.410860 9
35.323365 14.184498 48.969733 9
40.625551 15.743212 48.499495 9
48.026634 15.687387 47.581988 9
42.759101 -5.075887 -50.717544 9
39.526631 -6.251197 -50.610438 9
36.382278 -7.061032 -50.491582 9
33.265809 -7.843416 -50.378073 9
30.178091 -8.581563 -50.268885 9
27.128472 -9.186278 -50.159093 9
24.105354 -9.719355 -50.051765 9
21.101671 -10.222509 -49.949003 9
18.114178 -10.714620 -49.851735 9
15.143884 -11.174346 -49.758705 9
12.194183 -11.539471 -49.666364 9
9.254546 -11.916561 -49.580508 9
6.329130 -12.232163 -49.496972 9
3.414921 -12.501429 -49.416507 9
0.506458 -12.814925 -49.344175 9
-2.392934 -13.088703 -49.275184 9
-5.285144 -13.334889 -49.210164 9
-8.171619 -13.567699 -49.149879 9
-11.053200 -13.771478 -49.093389 9
-13.931062 -13.966493 -49.041826 9
-16.806517 -14.118337 -48.993163 9
-19.680989 -14.238310 -48.948018 9
-22.553842 -14.383656 -48.909713 9
-25.426291 -14.522296 -48.876367 9
-28.301182 -14.614587 -48.845639 9
-31.175993 -14.728285 -48.821498 9
-34.058975 -14.749585 -48.797239 9
-36.939202 -14.847902 -48.782843 9
-39.829915 -14.861799 -48.768792 9
-42.730701 -14.823927 -48.757013 9
-45.729571 -13.963817 -48.701970 9
-48.996354 -11.079777 -48.532655 9
51.502408 -8.484929 -47.917547 9
47.250603 -14.695070 -48.119200 9
43.895865 -16.759660 -48.077705 9
40.848968 -17.349182 -47.952262 9
37.860323 -17.710690 -47.818706 9
34.887521 -18.070669 -47.690943 9
31.936786 -18.382162 -47.565908 9
29.006691 -18.641210 -47.443209 9
26.079397 -18.972678 -47.330793 9
23.175743 -19.211319 -47.217937 9
20.276182 -19.509612 -47.114459 9
17.397184 -19.710977 -47.010059 9
14.520150 -19.989164 -46.916095 9
11.660578 -20.168245 -46.820880 9
8.804298 -20.405150 -46.734783 9
5.957001 -20.623479 -46.652679 9
3.121515 -20.745993 -46.569290 9
0.287504 -20.948349 -46.496428 9
-2.539367 -21.105167 -46.425582 9
-5.361721 -21.255299 -46.359346 9
-8.180039 -21.382353 -46.296566 9
-10.995564 -21.525472 -46.239901 9
-13.809023 -21.584041 -46.182388 9
-16.620826 -21.709162 -46.134436 9
-19.432293 -21.795446 -46.088743 9
-22.242727 -21.907532 -46.049784 9
-25.054798 -21.980391 -46.013020 9
-27.870087 -22.014417 -45.978460 9
-30.686764 -22.063251 -45.949842 9
-33.504133 -22.137272 -45.927901 9
-36.326206 -22.185383 -45.909057 9
-39.156694 -22.180847 -45.891432 9
-41.986649 -22.230961 -45.882567 9
-44.868564 -21.856227 -45.848764 9
-47.879226 -20.528836 -45.752906 9
-51.125091 -17.650165 -45.552961 9
-54.809634 -12.097043 -45.170184 9
53.357633 -15.327312 -45.070007 9
49.309448 -20.451432 -45.264673 9
45.938474 -22.678626 -45.260501 9
42.856515 -23.637310 -45.171414 9
39.927321 -23.887154 -45.036424 9
37.011080 -24.142685 -44.907276 9
34.111432 -24.378038 -44.781988 9
31.225106 -24.607773 -44.661563 9
28.358076 -24.782988 -44.542245 9
25.497401 -24.988943 -44.430381 9
22.648267 -25.184527 -44.322824 9
19.805682 -25.408457 -44.222482 9
16.981283 -25.545177 -44.120434 9
14.159116 -25.740780 -44.027858 9
11.349621 -25.878100 -43.935658 9
8.544214 -26.049492 -43.850958 9
5.747499 -26.186071 -43.768350 9
2.956692 -26.313559 -43.689797 9
0.172169 -26.404367 -43.613080 9
-2.609962 -26.533814 -43.544119 9
-5.387113 -26.611586 -43.475732 9
-8.162726 -26.758316 -43.417491 9
-10.934819 -26.796643 -43.355226 9
-13.705765 -26.905243 -43.303190 9
-16.475372 -27.001942 -43.254802 9
-19.245092 -27.062209 -43.208064 9
-22.015215 -27.120868 -43.165760 9
-24.784894 -27.208632 -43.130371 9
-27.559286 -27.224061 -43.093677 9
-30.331234 -27.319254 -43.068000 9
-33.109284 -27.353239 -43.041903 9
-35.892516 -27.364141 -43.018475 9
-38.674161 -27.437559 -43.004685 9
-41.465642 -27.448883 -42.990397 9
-44.288729 -27.223785 -42.961396 9
-47.201470 -26.344599 -42.883621 9
-50.263203 -24.507202 -42.732284 9
-53.574987 -21.195491 -42.465389 9
-57.550509 -13.949871 -41.882663 9
-61.590797 -7.231474 -41.348253 9
60.478821 -11.899352 -41.692740 9
55.836104 -18.888963 -42.086824 9
51.818287 -23.684852 -42.312714 9
48.306805 -26.538937 -42.387326 9
45.138143 -27.986200 -42.352084 9
42.176013 -28.531001 -42.247142 9
