ply
format ascii 1.0
element vertex 1435
property float x
property float y
property float z
property int scalar_Label
end_header
102.154828 -18.177705 33.366080 5
100.408594 -21.401313 31.415999 5
100.804801 -23.449575 31.866695 5
101.422697 -25.368589 32.565941 5
97.616000 -30.012426 28.308497 5
-114.139903 145.447803 -200.388302 0
-114.168108 140.292699 -200.439955 0
61.688717 47.809468 -7.755952 9
66.919144 45.623252 -2.018056 9
69.894897 43.407477 1.247906 9
70.283564 41.034156 1.677518 5
78.918932 39.553554 11.150229 5
83.546449 37.830306 16.228528 5
86.783493 36.047558 19.782513 5
89.582612 34.288393 22.856667 5
91.796902 32.509494 25.289944 5
93.815037 30.755013 27.508506 5
95.486780 28.987126 29.347656 5
96.920947 27.213215 30.926714 5
97.584049 25.303793 31.660897 5
96.807937 23.066175 30.817942 5
97.487156 21.166589 31.570736 5
98.496892 19.368570 32.686208 5
99.413416 17.567123 33.699906 5
100.215402 15.751536 34.588472 5
100.890878 13.912716 35.338806 5
101.492682 12.061961 36.008829 5
102.007848 10.191241 36.584351 5
102.442049 8.298360 37.071608 5
102.769336 6.369688 37.442194 5
103.027120 4.414472 37.737119 5
103.169993 2.410920 37.906670 5
103.245299 0.373104 38.002736 5
103.186476 -1.731307 37.952452 5
103.022993 -3.895793 37.788137 5
102.766298 -6.120430 37.522367 5
102.299218 -8.466279 37.026913 5
101.692036 -10.909073 36.378794 5
100.880622 -13.488888 35.507887 5
99.799008 -16.250967 34.342099 5
98.302928 -19.287460 32.723697 5
97.032942 -22.261269 31.353708 5
97.754408 -24.146634 32.163258 5
96.786376 -27.024939 31.125299 5
90.961379 -32.907364 24.776544 5
-93.394302 143.995500 -169.512031 0
-93.458496 139.200204 -169.614510 0
-99.177762 135.744422 -175.775737 0
-124.632972 136.482053 -203.089358 0
57.557235 50.261401 -7.932406 9
62.800487 47.971906 -2.306292 9
66.766875 45.747842 1.951244 9
69.927466 43.571367 5.345393 9
68.607215 41.070748 3.935175 9
75.764481 39.428039 11.616680 5
80.393513 37.681462 16.587512 5
83.672482 35.881569 20.111205 5
86.480810 34.101289 23.130811 5
88.719674 32.304264 25.540412 5
90.779712 30.535110 27.758865 5
92.472912 28.749980 29.584628 5
93.922880 26.958334 31.150251 5
94.276717 24.961725 31.541619 5
93.431215 22.688293 30.648400 5
94.464738 20.852196 31.769805 5
95.474864 19.033388 32.866783 5
96.367155 17.204332 33.838146 5
97.180154 15.370892 34.725216 5
97.887353 13.521167 35.499617 5
98.506678 11.655985 36.180582 5
98.972923 9.749194 36.698308 5
99.395369 7.832109 37.169877 5
99.707072 5.877896 37.523631 5
99.939211 3.893133 37.793000 5
100.059507 1.861056 37.943476 5
100.090391 -0.214564 37.999125 5
99.999028 -2.352247 37.924869 5
99.805816 -4.549028 37.742603 5
99.425803 -6.848969 37.361531 5
98.922217 -9.231350 36.849396 5
98.227629 -11.735476 36.134190 5
97.264488 -14.410063 35.133153 5
96.016160 -17.277164 33.828701 5
94.365376 -20.414003 32.095745 5
93.899257 -22.964970 31.630274 5
94.643022 -24.859757 32.458449 5
91.848179 -28.813834 29.508405 5
-75.285787 142.718814 -142.571798 0
-75.413300 138.246126 -142.751440 0
-87.309635 136.679178 -155.259584 0
-107.049915 136.603406 -175.987985 0
-129.200825 136.502800 -199.245027 0
58.532867 50.372123 -2.655531 9
62.656485 48.069241 1.673748 9
66.026437 45.832615 5.213646 9
68.848172 43.646135 8.179634 9
69.331247 41.324197 8.693942 9
72.491491 39.293278 12.017094 5
77.153576 37.526032 16.916075 5
80.494600 35.710876 20.430431 5
83.297364 33.906902 23.381140 5
85.621215 32.100773 25.830488 5
87.504530 30.278777 27.818780 5
89.409067 28.509353 29.830131 5
90.898520 26.704528 31.407192 5
90.881935 24.609208 31.406721 5
90.201981 22.354051 30.712277 5
91.364806 20.526681 31.949996 5
92.418087 18.697642 33.073822 5
93.344093 16.857100 34.065211 5
94.124100 14.993888 34.904595 5
94.817693 13.119496 35.654430 5
95.425600 11.230109 36.315513 5
95.905611 9.307642 36.843700 5
96.272271 7.351222 37.254282 5
96.591391 5.379347 37.616192 5
96.789877 3.362009 37.852990 5
96.905106 1.308113 38.003857 5
96.844221 -0.824223 37.971750 5
96.731321 -2.991017 37.886554 5
96.433220 -5.253253 37.609105 5
96.048892 -7.575120 37.242996 5
95.450565 -10.020794 36.654821 5
94.632267 -12.603584 35.838546 5
93.553495 -15.354494 34.752098 5
92.087255 -18.351596 33.263167 5
90.048496 -21.711786 31.179022 5
90.712004 -23.679158 31.917019 5
90.907397 -25.903795 32.167840 5
86.073223 -31.038199 27.175703 5
68.040534 -44.165926 8.430724 9
-59.304338 145.827943 -118.758929 0
-59.406063 141.605063 -118.924078 0
-59.515889 137.396481 -119.094484 0
-73.158479 136.678995 -133.123346 0
-90.961058 136.599684 -151.415691 0
-111.231268 136.596054 -172.239141 0
-133.615728 136.489362 -195.232185 0
53.686073 52.819700 -3.498047 9
58.345159 50.440231 1.285191 9
61.940185 48.136762 4.978325 9
64.883641 45.890540 8.004489 9
62.747409 43.338762 5.821380 9
69.850056 41.553370 13.116741 9
69.234870 39.163605 12.496948 5
73.872946 37.369742 17.266528 5
77.234767 35.533737 20.728137 5
80.065672 33.710406 23.646286 5
82.458255 31.892163 26.115988 5
84.335456 30.047204 28.058317 5
86.238191 28.254802 30.027876 5
87.752788 26.432764 31.600623 5
87.411231 24.249199 31.272283 5
87.058810 22.047922 30.934415 5
88.235442 20.202250 32.164633 5
89.256936 18.343569 33.237062 5
90.222521 16.491962 34.253382 5
91.006745 14.608960 35.085156 5
91.702477 12.714383 35.827551 5
92.246118 10.784160 36.415517 5
92.744917 8.846675 36.958898 5
93.109094 6.868866 37.365872 5
93.372210 4.856545 37.670866 5
93.535071 2.805241 37.874788 5
93.610926 0.715299 37.991270 5
93.536811 -1.442811 37.956052 5
93.364705 -3.654524 37.822386 5
93.030456 -5.952346 37.524863 5
92.526072 -8.347617 37.055499 5
91.869063 -10.840482 36.432369 5
90.908765 -13.510252 35.501931 5
89.668925 -16.359759 34.288774 5
87.963951 -19.496687 32.604016 5
86.752869 -22.442483 31.425798 5
87.467191 -24.405310 32.212241 5
85.688093 -27.741474 30.460430 5
75.867556 -35.726520 20.524954 5
67.912860 -42.947885 12.498686 9
-52.645164 142.782038 -105.276932 3
-54.484003 139.195994 -107.188828 3
-60.521729 136.698145 -113.302175 0
-76.819465 136.651360 -129.689809 0
-94.979006 136.609034 -147.945549 0
-115.254042 136.551959 -168.324096 0
-138.295416 136.531398 -191.478181 0
53.798851 52.866904 0.763810 9
57.932906 50.499176 4.916095 9
61.008494 48.192544 8.008152 9
63.699903 45.944732 10.716514 9
66.019466 43.740635 13.053521 9
68.184593 41.583974 15.237264 9
70.053673 39.453652 17.125655 9
70.521530 37.209196 17.610181 5
73.955758 35.358580 21.071593 5
76.784955 33.511839 23.927418 5
79.198311 31.673593 26.367476 5
81.095235 29.809322 28.290996 5
83.041274 28.001863 30.265041 5
84.623817 26.171185 31.875995 5
83.921919 23.894239 31.199067 5
83.836246 21.731591 31.141607 5
85.058125 19.874532 32.395788 5
86.099745 17.999477 33.470794 5
87.017046 16.113609 34.422723 5
87.819949 14.214233 35.261572 5
88.484111 12.289033 35.963042 5
89.042760 10.342152 36.560475 5
89.495895 8.368795 37.053945 5
89.857382 6.368833 37.457405 5
90.105238 4.330227 37.748962 5
90.228324 2.243626 37.917595 5
90.239976 0.108338 37.976759 5
90.157978 -2.073844 37.944344 5
89.934863 -4.326977 37.773079 5
89.493880 -6.690432 37.386549 5
88.922823 -9.135663 36.872618 5
88.143661 -11.704576 36.153666 5
87.045129 -14.459448 35.119085 5
85.622535 -17.417624 33.764659 5
83.672909 -20.696177 31.888732 5
83.456480 -23.154221 31.742258 5
84.215622 -25.115720 32.569059 5
80.142916 -29.709825 28.591700 5
69.693194 -38.029742 18.281244 9
66.877484 -42.283566 15.569055 9
53.431073 -52.951509 2.305339 9
-39.709515 141.857508 -86.023243 3
-43.886938 139.192684 -90.192835 3
-58.008333 139.197779 -104.092574 3
-64.133061 136.705323 -110.167704 0
-80.620440 136.658245 -126.388702 0
-98.980014 136.612867 -144.447057 0
-119.702548 136.602776 -164.824161 0
-142.099370 136.387474 -186.845989 0
53.132446 52.897351 4.164733 9
57.051386 50.541068 8.015612 9
59.835793 48.235813 10.755214 9
62.246353 45.981495 13.130032 9
64.524191 43.780529 15.376638 9
66.574515 41.618946 17.401966 9
68.313528 39.478775 19.123783 9
69.987021 37.375251 20.783228 9
70.591776 35.176979 21.396252 5
73.455162 33.311341 24.226437 5
75.921038 31.457855 26.668241 5
77.833972 29.573899 28.569360 5
79.811572 27.749343 30.535397 5
81.215835 25.861540 31.940970 5
80.250478 23.509959 31.026240 5
80.561878 21.411703 31.364847 5
81.791258 19.533899 32.604584 5
82.818479 17.632994 33.647971 5
83.738333 15.725471 34.587921 5
84.512024 13.795787 35.386527 5
85.211685 11.858686 36.114465 5
85.758737 9.886679 36.694929 5
86.204720 7.889583 37.178446 5
86.484939 5.841146 37.501877 5
86.762772 3.791028 37.825031 5
86.851274 1.670854 37.965322 5
86.824583 -0.499859 37.995360 5
86.668401 -2.732078 37.901345 5
86.348447 -5.045769 37.650016 5
85.867590 -7.447313 37.244411 5
85.216321 -9.948398 36.675515 5
84.294758 -12.602025 35.846297 5
83.051211 -15.444776 34.706860 5
81.416292 -18.524938 33.190210 5
79.295331 -21.907618 31.204930 5
79.981030 -23.938254 31.953484 5
79.438933 -26.607062 31.510862 5
69.127903 -34.579652 21.583534 9
69.251464 -37.092590 21.799365 9
65.421745 -41.873957 18.183028 9
59.305904 -48.131359 12.358019 9
-28.074827 141.017685 -68.706418 3
-34.251323 139.197103 -74.705406 3
-47.255684 139.194717 -87.234798 3
-61.518006 139.193932 -100.971663 3
-68.182862 136.825628 -107.441154 0
-84.405125 136.659428 -123.059695 0
-102.976182 136.613979 -140.931494 0
-124.254809 136.673831 -161.401294 0
52.066279 52.919196 7.123344 9
55.769069 50.568789 10.683032 9
58.469035 48.269210 13.282594 9
60.733867 46.014079 15.466896 9
62.870457 43.808148 17.530447 9
64.649063 41.626115 19.252721 9
66.467116 39.493026 21.015078 9
68.005095 37.374007 22.510889 9
69.476761 35.284591 23.945241 9
69.996407 33.097878 24.468620 5
72.563492 31.235280 26.957745 5
74.483497 29.329568 28.828099 5
76.474147 27.483813 30.767944 5
77.509503 25.501864 31.793940 5
76.474341 23.113552 30.838113 5
77.255152 21.092794 31.624784 5
78.445138 19.183340 32.805415 5
79.481036 17.261885 33.840403 5
80.396245 15.330612 34.761808 5
81.178233 13.380851 35.557721 5
81.837036 11.409739 36.237843 5
82.376079 9.412931 36.805557 5
82.785798 7.382120 37.251838 5
83.096254 5.321542 37.605548 5
83.304126 3.225555 37.863633 5
83.356911 1.070641 37.976108 5
83.281000 -1.140289 37.968365 5
83.070293 -3.415474 37.834781 5
82.684736 -5.777189 37.537391 5
82.116697 -8.236587 37.069208 5
81.328228 -10.818383 36.394415 5
80.303136 -13.539911 35.497998 5
78.900725 -16.476723 34.246560 5
76.907103 -19.747401 32.437442 5
75.843055 -22.636088 31.516855 5
76.603077 -24.652488 32.332790 5
73.836070 -28.488204 29.803618 5
69.924774 -33.031850 26.195754 9
67.193904 -37.062340 23.714946 9
63.855085 -41.535021 20.665323 9
58.608667 -47.231053 15.818288 9
-20.868636 141.334473 -56.140639 3
-18.629776 137.070581 -54.154396 3
-17.923710 133.340687 -53.594318 3
-18.096757 129.894129 -53.851069 3
-65.066437 139.198956 -97.875769 3
-72.226714 136.939878 -104.677332 0
-88.179229 136.656276 -119.707881 0
-107.172817 136.659818 -137.590021 0
50.229931 52.925443 9.319980 9
54.296906 50.589767 13.144184 9
56.807561 48.288464 15.510060 9
59.127946 46.040616 17.700010 9
61.049386 43.823306 19.518099 9
62.788435 41.638978 21.167572 9
64.569513 39.502263 22.858998 9
66.084617 37.380074 24.303297 9
67.430294 35.273664 25.591080 9
68.724741 33.192373 26.833226 9
69.770745 31.103985 27.844770 9
71.244534 29.109824 29.259816 5
73.072184 27.213518 31.008758 5
73.727567 25.136664 31.661117 5
72.573807 22.701521 30.621017 5
73.816003 20.753106 31.828423 5
75.004420 18.819773 32.987624 5
76.078773 16.884327 34.042197 5
76.973049 14.924822 34.930438 5
77.742974 12.948864 35.704620 5
78.419017 10.959826 36.393337 5
78.959407 8.941072 36.957637 5
79.333753 6.877216 37.369273 5
79.615808 4.785220 37.697321 5
79.745685 2.640510 37.886003 5
79.768936 0.452562 37.978038 5
79.662964 -1.791793 37.952523 5
79.413361 -4.103900 37.796247 5
78.931703 -6.525332 37.427097 5
78.255428 -9.051015 36.880339 5
77.397207 -11.684389 36.168143 5
76.120252 -14.537842 35.070703 5
74.506988 -17.592651 33.665439 5
72.237846 -21.013692 31.656281 5
72.181742 -23.446088 31.707288 5
73.000166 -25.459454 32.572951 5
69.410379 -29.719352 29.355477 9
67.518278 -33.206382 27.718760 9
64.973259 -37.119008 25.484194 9
61.804539 -41.471378 22.680404 9
57.356218 -46.667784 18.703022 9
-24.412243 141.495628 -53.910213 3
-22.071149 137.203358 -51.889111 3
-20.229771 133.135656 -50.317348 3
-18.407462 129.135493 -48.756391 3
-16.647363 125.212849 -47.245862 3
-14.872382 121.344670 -45.715456 3
-13.158484 117.549166 -44.234817 3
-11.447177 113.809713 -42.750596 3
-9.817375 110.142486 -41.335195 3
-9.615583 106.816280 -41.222287 3
-9.740233 103.565180 -41.403761 3
47.555662 52.915310 10.742281 9
52.367484 50.595564 15.167098 9
55.319960 48.315386 17.887725 9
57.388970 46.059022 19.800196 9
59.204459 43.836718 21.482852 9
61.029577 41.660507 23.177198 9
62.592847 39.503984 24.634001 9
64.008269 37.369221 25.957889 9
65.379090 35.262908 27.243578 9
66.566196 33.163985 28.363427 9
67.681466 31.081719 29.420080 9
68.707810 29.010216 30.397862 9
69.660675 26.948410 31.310949 9
69.973618 24.785857 31.640308 5
68.927110 22.351146 30.727295 5
70.313314 20.408343 32.045832 5
71.508474 18.452799 33.191805 5
72.574927 16.491770 34.222390 5
73.478566 14.511137 35.106478 5
74.212934 12.502371 35.838304 5
74.862119 10.482151 36.494895 5
75.377607 8.432382 37.032017 5
75.741224 6.341716 37.433231 5
75.995948 4.217543 37.737968 5
76.135269 2.052881 37.940451 5
76.112324 -0.173798 37.998133 5
75.927098 -2.469573 37.911272 5
75.573043 -4.844058 37.674198 5
75.030096 -7.312598 37.268975 5
74.291978 -9.886134 36.690275 5
73.267094 -12.611880 35.855252 5
71.858668 -15.544552 34.676607 5
69.973378 -18.742941 33.070461 5
69.029592 -21.572286 32.324590 9
69.897894 -23.578049 33.226427 9
68.615347 -26.629061 32.182701 9
66.997965 -29.900814 30.841687 9
65.131393 -33.364238 29.281731 9
62.729671 -37.184203 27.245209 9
59.803825 -41.379400 24.743550 9
55.725416 -46.329151 21.211481 9
-28.066738 141.686222 -51.745441 3
-25.607777 137.360079 -49.678625 3
-23.684941 133.269642 -48.082607 3
-21.852240 129.267911 -46.559821 3
-20.031531 125.329644 -45.040696 3
-18.241699 121.458320 -43.542298 3
-16.513431 117.659280 -42.092271 3
-14.770116 113.911971 -40.622264 3
-13.068036 110.228256 -39.182796 3
-11.412751 106.606909 -37.779028 3
-9.817584 103.047895 -36.423073 3
-8.180256 99.530375 -35.023445 3
-6.635703 96.077095 -33.701203 3
-1.522381 92.141231 -29.173169 3
-1.590108 89.044095 -29.285143 3
43.862951 52.885883 11.280070 9
49.990155 50.587007 16.789398 9
53.169684 48.312128 19.655113 9
55.566054 46.072439 21.820853 9
57.406025 43.853452 23.490227 9
59.044807 41.663067 24.982132 9
60.630952 39.507542 26.429866 9
61.917599 37.357554 27.611861 9
63.299190 35.249448 28.882055 9
64.360580 33.130490 29.867974 9
65.482952 31.044444 30.911566 9
66.491853 28.965285 31.856349 9
67.479181 26.904319 32.784719 9
68.244456 24.822896 33.517030 9
68.980188 22.750596 34.225861 9
69.665007 20.681411 34.892080 9
69.875670 18.517183 35.136906 9
69.016151 16.096049 34.427584 5
69.902924 14.087481 35.284060 5
70.666946 12.063007 36.033622 5
71.291085 10.012685 36.661089 5
71.768120 7.928534 37.160176 5
72.108357 5.807511 37.540277 5
72.316477 3.645288 37.805764 5
72.426899 1.447649 37.987538 5
72.325722 -0.829200 37.984279 5
72.096142 -3.164304 37.870452 5
71.661513 -5.591988 37.578110 5
71.030237 -8.117879 37.115145 5
70.128478 -10.780228 36.416371 5
68.960309 -13.589120 35.486010 5
69.999640 -15.495083 36.520164 9
69.448790 -18.088394 36.146790 9
68.555210 -20.866233 35.474554 9
67.454696 -23.779740 34.624525 9
66.092292 -26.865093 33.548683 9
64.536798 -30.099905 32.308586 9
62.746971 -33.514547 30.868450 9
60.423359 -37.278350 28.964887 9
57.684609 -41.351217 26.704039 9
53.112488 -46.543427 22.838662 9
-31.692230 141.860799 -49.517320 3
-29.137174 137.508667 -47.427373 3
-27.172991 133.407848 -45.844451 3
-25.289549 129.393133 -44.324105 3
-23.431014 125.445812 -42.817842 3
-21.606296 121.566326 -41.333657 3
-19.845187 117.759632 -39.897816 3
-18.109694 114.013981 -38.477314 3
-16.358741 110.318984 -37.036377 3
-14.687550 106.693392 -35.658524 3
-13.031236 103.121420 -34.287141 3
-11.406594 99.604723 -32.937097 3
-9.809367 96.140761 -31.604823 3
6.314107 90.595417 -17.529782 3
-0.647031 88.555404 -23.688032 3
21.515890 69.013433 -4.452729 1
21.518119 66.259171 -4.468695 1
39.602855 52.846411 11.390055 9
46.891995 50.555927 17.798931 9
50.647073 48.292628 21.107933 9
53.261235 46.058309 23.418590 9
55.323587 43.850331 25.248182 9
57.084324 41.668010 26.816366 9
58.567862 39.501863 28.144580 9
59.864873 37.350807 29.312420 9
61.080633 35.220142 30.412263 9
62.241977 33.110059 31.467623 9
63.332068 31.015722 32.463716 9
64.300934 28.926151 33.356732 9
65.211363 26.847212 34.201740 9
65.993209 24.763386 34.937299 9
66.764917 22.692872 35.667211 9
67.336918 20.595001 36.225522 9
67.932431 18.511708 36.807730 9
68.358592 16.397913 37.245117 9
68.804171 14.293886 37.702896 9
69.191191 12.179562 38.112907 9
69.538614 10.057563 38.491790 9
69.729610 7.892194 38.737626 9
68.366625 5.254012 37.631482 5
68.527308 3.052989 37.859024 5
68.584049 0.813604 37.999768 5
68.443420 -1.500679 37.972565 5
68.118849 -3.893413 37.789481 5
67.615099 -6.370700 37.455045 5
69.305009 -8.031514 39.031476 9
68.792058 -10.530472 38.697188 9
68.189117 -13.091160 38.289703 9
67.794858 -15.591183 38.068208 9
66.908468 -18.329259 37.425341 9
66.059590 -21.087187 36.820649 9
64.723838 -24.108195 35.800787 9
63.579692 -27.088025 34.953129 9
62.112674 -30.273368 33.833391 9
60.239149 -33.721213 32.370471 9
58.094861 -37.378964 30.682545 9
55.228996 -41.501163 28.382767 9
46.003289 -49.226606 20.628359 9
-35.412595 142.058326 -47.332946 3
-32.620939 137.637662 -45.102776 3
-30.674685 133.544392 -43.584189 3
-28.752094 129.520112 -42.077298 3
-26.866715 125.566603 -40.593901 3
-25.027117 121.683747 -39.141561 3
-23.225377 117.867147 -37.713745 3
-21.423877 114.106270 -36.278497 3
-19.677279 110.411795 -34.882762 3
-17.961327 106.776167 -33.505998 3
-16.271329 103.196681 -32.144375 3
13.332184 94.913468 -6.861758 3
13.556741 92.019405 -6.734277 3
13.461981 89.182588 -6.875323 3
-3.944416 88.637227 -21.856416 3
21.979992 68.850297 0.159487 1
21.962503 66.133214 0.125439 1
16.337965 63.593162 -4.718435 4
16.298395 60.807578 -4.762170 4
16.294320 58.021392 -4.770548 4
16.309543 55.235430 -4.757475 4
35.267806 52.806515 11.527074 9
42.884873 50.497179 18.076523 9
47.689374 48.254689 22.214561 9
50.790724 46.035454 24.893878 9
53.120122 43.839313 26.914070 9
54.909227 41.655775 28.474073 9
56.409066 39.487820 29.789401 9
57.776328 37.340984 30.994528 9
58.979384 35.206184 32.062318 9
59.990369 33.073233 32.968907 9
61.019720 30.965048 33.894771 9
62.092014 28.885922 34.860907 9
62.865253 26.778979 35.574232 9
63.705312 24.699497 36.348309 9
64.408491 22.609866 37.008657 9
64.985751 20.506845 37.564769 9
65.501295 18.399522 38.071679 9
65.816451 16.252732 38.410893 9
66.205414 14.126204 38.816959 9
66.583138 12.000360 39.217152 9
66.936659 9.870908 39.600425 9
67.199809 7.717655 39.910374 9
65.972258 5.117767 38.953291 9
66.009781 2.872931 39.079583 9
66.026836 0.614132 39.192652 9
66.001765 -1.667154 39.274144 9
65.871909 -3.995038 39.270905 9
66.556444 -6.038389 39.964086 9
66.595506 -8.317676 40.112831 9
66.063637 -10.829968 39.781715 9
65.493221 -13.382881 39.423207 9
64.969669 -15.942713 39.109806 9
64.209083 -18.630935 38.601346 9
63.139289 -21.490051 37.837504 9
61.967816 -24.437943 36.994392 9
61.093620 -27.290424 36.408918 9
59.573328 -30.496118 35.285622 9
57.819273 -33.875890 33.973457 9
55.662874 -37.527475 32.331573 9
51.948808 -42.081447 29.391255 9
-39.164338 142.258159 -45.133699 3
-36.187056 137.785335 -42.813835 3
-34.195463 133.680634 -41.305267 3
-32.273973 129.657775 -39.846058 3
-30.335992 125.690975 -38.364240 3
-28.453015 121.797568 -36.919703 3
-26.586689 117.965805 -35.480667 3
-24.810328 114.210374 -34.108637 3
11.740631 103.334460 -3.640737 2
12.256843 100.369697 -3.294371 2
12.133466 97.540205 -3.477594 2
14.951912 94.218133 -1.191561 3
18.113729 90.919004 1.389326 3
12.961842 88.895686 -2.990534 3
13.684882 85.979600 -2.442401 1
13.592305 83.182353 -2.572566 1
11.720058 80.574880 -4.190285 1
6.542093 78.232506 -8.576934 1
11.806389 74.920170 -4.197105 1
11.750053 72.105417 -4.276041 1
20.142794 68.819013 2.742694 1
17.742847 66.212517 0.707590 1
16.488680 63.512148 -0.360781 4
16.471228 60.758561 -0.385745 4
16.479539 58.004978 -0.383923 4
16.442041 55.251515 -0.415408 4
30.914004 52.767272 11.740947 9
38.648371 50.432801 18.244289 9
43.774422 48.176237 22.561641 9
47.573704 45.971712 25.768962 9
50.188932 43.779218 27.986146 9
52.404997 41.617715 29.872088 9
54.060022 39.456919 31.290996 9
52.030937 36.945269 29.623341 9
56.673264 35.169032 33.555600 9
57.760146 33.040813 34.509286 9
58.748000 30.922182 35.383723 9
59.710451 28.820616 36.240621 9
60.592115 26.725557 37.033568 9
61.349402 24.625795 37.726101 9
61.912578 22.502844 38.259952 9
62.394818 20.372409 38.729981 9
62.901682 18.254235 39.224524 9
63.230799 16.102073 39.574434 9
63.606297 13.963618 39.967130 9
63.992916 11.831266 40.373122 9
64.340897 9.691696 40.750890 9
64.594741 7.527404 41.054228 9
64.368437 5.220229 40.961711 9
64.467080 2.999794 41.144468 9
64.415868 0.725582 41.206962 9
64.337726 -1.567473 41.251698 9
64.150474 -3.909411 41.210517 9
63.986365 -6.257179 41.193460 9
63.840024 -8.612293 41.196086 9
63.295313 -11.135760 40.873641 9
62.733549 -13.691066 40.542743 9
62.286469 -16.224834 40.312476 9
61.358251 -18.987827 39.690432 9
60.123057 -21.923230 38.821675 9
59.310107 -24.712500 38.308328 9
58.464000 -27.552414 37.774397 9
56.986174 -30.733650 36.727770 9
55.103835 -34.170349 35.357104 9
52.490295 -38.046823 33.395754 9
47.220454 -43.403381 29.268534 9
-42.954733 142.462171 -42.923574 3
-39.800277 137.940505 -40.526807 3
-37.760002 133.823252 -39.026412 3
-35.778795 129.785142 -37.564433 3
-33.779951 125.803615 -36.078615 3
-31.885422 121.908055 -34.668687 3
-30.017797 118.076031 -33.271786 3
2.212120 107.724180 -7.055315 2
12.675004 102.630470 1.399039 2
12.630713 99.817939 1.273119 2
14.866633 96.602296 3.018956 3
18.128048 93.277362 5.611654 3
18.184911 90.532859 5.587505 3
8.212620 89.216105 -2.648135 3
14.380112 85.569126 2.344325 1
14.435412 82.793962 2.334574 1
12.467205 80.235584 0.671025 1
12.459507 77.451071 0.620363 1
12.474685 74.667509 0.594048 1
12.464222 71.888624 0.552262 1
19.318885 68.731917 6.150198 1
5.286869 66.644023 -5.388613 1
16.287807 63.443445 3.624583 4
16.307005 60.716671 3.629486 4
16.310624 57.991046 3.627029 4
16.348533 55.265913 3.658150 4
26.355496 52.725249 11.878442 9
34.330474 50.367545 18.435197 9
39.506269 48.084602 22.698418 9
43.655273 45.870944 26.122942 9
46.920664 43.698102 28.826259 9
49.480729 41.547450 30.954732 9
51.444942 39.402768 32.598292 9
53.062916 37.267869 33.961810 9
54.350789 35.131557 35.058613 9
55.492779 33.005155 36.039824 9
56.538688 30.890035 36.946284 9
57.469055 28.779357 37.762074 9
58.238879 26.661053 38.450405 9
58.779822 24.516621 38.955470 9
59.280483 22.373334 39.431761 9
59.823588 20.246272 39.946946 9
60.235475 18.099125 40.359048 9
60.564865 15.937822 40.708025 9
60.935786 13.788926 41.095228 9
61.357906 11.656162 41.528487 9
61.741090 9.517099 41.934250 9
61.953807 7.333148 42.205431 9
61.977185 5.091954 42.326973 9
62.024323 2.850987 42.472592 9
62.035734 0.591874 42.593931 9
61.935103 -1.712396 42.629123 9
61.707725 -4.071606 42.566512 9
61.418312 -6.467985 42.458895 9
61.073076 -8.902084 42.311514 9
60.466683 -11.455224 41.958416 9
60.220701 -13.891806 41.902805 9
59.456806 -16.557805 41.434572 9
58.405325 -19.376924 40.740955 9
57.274322 -22.270494 39.990518 9
56.491539 -25.050022 39.527933 9
55.668032 -27.882233 39.039690 9
54.343662 -30.988768 38.156586 9
51.932776 -34.677952 36.410659 9
48.208294 -39.109753 33.623680 9
-43.416595 138.089937 -38.203790 3
-41.331373 133.961579 -36.715508 3
-39.284797 129.907142 -35.247667 3
-37.317730 125.934671 -33.833142 3
-35.357320 122.023004 -32.414179 3
6.247390 109.184499 0.655518 2
6.764913 106.190717 0.959684 2
10.439362 102.579756 3.793112 2
10.529160 99.745432 3.770056 2
13.835625 96.349807 6.326015 3
17.395806 92.999564 9.093465 3
17.370953 90.288726 8.999266 3
5.952399 89.179369 -0.213864 3
15.295121 85.138294 7.205048 1
15.003341 82.444792 6.913762 1
11.692616 80.060171 4.208066 1
11.725585 77.292774 4.187899 1
11.754353 74.529408 4.170239 1
18.101924 71.346578 9.227198 1
18.056284 68.670235 9.162348 1
2.030603 66.674398 -3.719274 1
15.745145 63.386345 7.268201 4
15.744181 60.682793 7.256027 4
15.733467 57.979842 7.241731 4
15.707694 55.276727 7.221047 4
21.656230 52.681716 12.000627 9
29.860078 50.299304 18.595141 9
35.160034 47.991952 22.863857 9
39.430787 45.756019 26.311104 9
42.822649 43.563736 29.057455 9
45.715474 41.412786 31.407645 9
48.228176 39.295539 33.457041 9
50.027528 37.163366 34.938541 9
51.575714 35.043362 36.222854 9
52.926744 32.932975 37.353321 9
54.050957 30.820552 38.306251 9
54.635058 28.649723 38.830962 9
55.538981 26.541998 39.616059 9
56.087776 24.389384 40.121315 9
56.720291 22.261602 40.697938 9
57.155204 20.104699 41.121019 9
57.596648 17.954773 41.553818 9
58.047661 15.812463 41.998746 9
58.537353 13.684794 42.479005 9
58.866597 11.522821 42.835804 9
59.229441 9.371477 43.223976 9
59.429298 7.177325 43.486996 9
59.572377 4.964620 43.709645 9
59.624198 2.720468 43.864655 9
59.579120 0.439280 43.947763 9
59.482325 -1.868210 43.995056 9
59.296185 -4.217162 43.976876 9
58.966641 -6.630489 43.850676 9
58.552003 -9.092808 43.662991 9
58.037008 -11.613645 43.402054 9
57.461289 -14.181845 43.099502 9
56.582905 -16.898258 42.564815 9
55.555940 -19.710893 41.920301 9
54.453299 -22.594764 41.223883 9
53.666294 -25.379546 40.783426 9
52.320603 -28.453620 39.912030 9
50.566382 -31.769284 38.729262 9
10.574228 -53.681516 7.629154 9
39.588546 -42.305841 30.555889 9
3.764836 109.170139 2.951376 2
3.804549 106.280345 2.867338 2
8.931527 102.382940 6.762255 2
8.964082 99.572173 6.688113 2
12.185741 96.209530 9.113232 3
16.062062 92.824285 12.059136 3
16.059472 90.123495 11.979138 3
3.480093 89.171491 2.061075 3
14.748145 84.900573 10.814695 1
15.952037 82.058474 11.697615 1
14.820046 79.488124 10.756948 1
8.981901 77.318480 6.133377 1
10.256569 74.454347 7.089628 1
16.476716 71.296147 11.930189 1
16.487316 68.625962 11.908833 1
-0.765251 66.684330 -1.646705 1
14.483736 63.351797 10.295686 4
14.508364 60.661610 10.303046 4
14.496195 57.972791 10.287522 4
14.472615 55.283794 10.269023 4
16.856893 52.637472 12.145397 9
25.301967 50.230148 18.781685 9
30.707651 47.897174 23.038635 9
35.090529 45.637738 26.498017 9
38.599420 43.424500 29.276501 9
41.524105 41.248303 31.601335 9
44.191072 39.117256 33.728460 9
46.503636 37.011902 35.582065 9
48.325569 34.903578 37.055498 9
49.807614 32.793326 38.267018 9
51.225011 30.706726 39.432236 9
51.968130 28.549236 40.074138 9
52.706955 26.405219 40.717301 9
53.358968 24.259790 41.297190 9
54.173271 22.156178 42.008492 9
54.608421 19.991980 42.428191 9
55.196560 17.865743 42.972044 9
55.696944 15.728848 43.452069 9
56.135780 13.583973 43.888810 9
56.529207 11.432570 44.294932 9
56.793523 9.250792 44.605373 9
57.020968 7.058773 44.892102 9
57.156625 4.839109 45.112537 9
57.188317 2.584398 45.257433 9
57.168106 0.306596 45.367420 9
57.058461 -2.008763 45.413576 9
56.798808 -4.385814 45.349261 9
56.501305 -6.791491 45.261632 9
56.063519 -9.264720 45.071726 9
55.521044 -11.797974 44.807456 9
54.832719 -14.411697 44.437470 9
54.072418 -17.082437 44.019161 9
53.092731 -19.874458 43.439512 9
51.928358 -22.782085 42.725959 9
50.505060 -25.845808 41.822291 9
49.016796 -28.988695 40.878074 9
46.075270 -32.860922 38.831883 9
40.167952 -38.246099 34.533603 9
0.807988 109.258950 4.900741 2
0.893927 106.355431 4.845205 2
7.431488 102.186799 9.718909 2
7.407480 99.399172 9.596407 2
10.069671 96.151309 11.532330 3
14.056766 92.759453 14.489508 3
14.130444 90.052475 14.464061 3
0.642172 89.212518 4.071432 3
11.849809 84.961099 12.574559 1
14.944845 81.900755 14.880531 1
16.173647 79.106911 15.765389 1
16.589723 76.418081 16.034555 1
16.561429 73.776250 15.969655 1
16.581161 71.132914 15.947752 1
16.624422 68.490743 15.950081 1
-3.358956 66.685194 0.606538 1
12.654094 63.334590 12.863045 4
12.693483 60.651035 12.880711 4
12.641626 57.969502 12.834685 4
12.626184 55.287132 12.822844 4
12.625485 52.604477 12.828576 4
-15.562287 49.082930 -8.769477 9
26.199797 47.802481 23.265745 9
30.583980 45.513546 26.649673 9
34.054424 43.267738 29.338065 9
37.204807 41.078092 31.785877 9
39.909650 38.921712 33.896905 9
42.360935 36.801856 35.818204 9
44.485431 34.700919 37.493698 9
46.383565 32.619522 39.000318 9
47.750930 30.507542 40.105269 9
49.042212 28.413484 41.156586 9
49.872222 26.272257 41.859896 9
50.773835 24.159292 42.622674 9
51.576708 22.045346 43.314746 9
52.267870 19.924021 43.926302 9
52.851103 17.791786 44.460346 9
53.388261 15.658160 44.964145 9
53.811545 13.505323 45.386137 9
54.148091 11.335505 45.747149 9
54.458624 9.160924 46.093505 9
54.618422 6.946558 46.330526 9
54.757556 4.723348 46.557241 9
54.798002 2.467157 46.714564 9
54.718093 0.167314 46.786328 9
54.617335 -2.149151 46.848157 9
54.334460 -4.537050 46.778242 9
54.024672 -6.950014 46.694302 9
53.566837 -9.432821 46.505113 9
53.042114 -11.961431 46.272309 9
52.346398 -14.578741 45.917837 9
51.506321 -17.281218 45.462317 9
50.441242 -20.107890 44.845782 9
49.114077 -23.083635 44.041278 9
47.293682 -26.319690 42.876790 9
44.598527 -30.006752 41.068956 9
39.158571 -35.041432 37.225279 9
31.444647 -41.309769 31.706500 9
-2.077646 106.439240 6.808399 2
3.383840 102.490438 10.759463 2
3.536839 99.652253 10.763729 2
7.199486 96.221788 13.394284 3
0.997153 94.457762 8.669010 3
11.730809 90.050890 16.597823 3
-1.828825 89.201362 6.384546 3
-0.265771 86.160839 7.476684 1
12.184246 81.941646 16.720228 1
7.445836 79.742866 13.115810 1
13.824195 76.452605 17.836604 1
13.851135 73.802006 17.811419 1
13.879528 71.154224 17.793841 1
13.901400 68.509381 17.777881 1
-5.268886 66.657403 3.391045 1
10.294942 63.333020 15.030632 4
10.287820 60.650929 15.012168 4
10.247952 57.969394 14.975732 4
10.276933 55.287503 14.997448 4
10.238288 52.604923 14.975055 4
15.563860 50.078754 18.978176 9
21.480223 47.701472 23.429524 9
25.975781 45.387105 26.821733 9
29.560365 43.118205 29.536709 9
32.777081 40.903895 31.981166 9
35.517763 38.721360 34.074067 9
38.032490 36.578562 36.002602 9
40.172495 34.450598 37.655447 9
42.282878 32.366692 39.290758 9
44.304585 30.317557 40.864263 9
45.794101 28.234358 42.044562 9
47.050886 26.145665 43.055704 9
48.105625 24.048195 43.920765 9
48.985019 21.939375 44.659838 9
49.737399 19.822112 45.309131 9
50.417180 17.702871 45.909317 9
50.962931 15.565301 46.414751 9
51.418721 13.414494 46.858411 9
51.754209 11.239529 47.217893 9
52.017624 9.048083 47.529234 9
52.208727 6.837172 47.792408 9
52.320792 4.601966 48.002600 9
52.332364 2.332985 48.144120 9
52.290921 0.040661 48.252354 9
52.080096 -2.314169 48.241487 9
51.861767 -4.684853 48.231480 9
51.486388 -7.123128 48.112169 9
51.035010 -9.606556 47.943739 9
50.438781 -12.163640 47.675855 9
49.603679 -14.835912 47.239973 9
48.617233 -17.598596 46.701137 9
47.305211 -20.528408 45.932326 9
45.465674 -23.722549 44.787018 9
42.735938 -27.357766 43.002227 9
37.795016 -32.053845 39.617794 9
31.463550 -37.523485 35.239351 9
-1.510198 102.948994 11.256096 2
-1.464229 100.102987 11.173706 2
3.637513 96.406193 14.784422 3
8.619811 92.853951 18.319716 3
8.712457 90.138083 18.297618 3
-4.849682 89.262708 8.312352 3
-3.029168 86.187572 9.562091 1
9.372870 81.986075 18.553222 1
4.621435 79.779048 15.018034 1
11.066351 76.484771 19.675399 1
11.105450 73.829070 19.656546 1
11.135395 71.177107 19.637819 1
11.183811 68.526767 19.639413 1
-9.884805 66.740032 4.190986 1
7.046481 63.357053 16.563354 4
7.054769 60.665083 16.555660 4
7.041191 57.973957 16.538839 4
7.061107 55.282885 16.553421 4
7.035288 52.591303 16.541398 4
10.565742 50.002144 19.139625 9
16.584815 47.595847 23.565679 9
21.268577 45.258674 27.019853 9
24.934095 42.963996 29.734208 9
28.241797 40.725974 32.191996 9
31.028574 38.517581 34.273841 9
33.613449 36.351958 36.213061 9
35.808541 34.200972 37.872281 9
38.005640 32.098730 39.537840 9
40.179747 30.041734 41.191303 9
42.044620 27.987164 42.623616 9
43.617073 25.926563 43.847233 9
44.883950 23.847153 44.852789 9
45.926303 21.752601 45.699632 9
46.821808 19.649725 46.444553 9
47.570814 17.533134 47.087971 9
48.159226 15.394302 47.619828 9
48.667154 13.245577 48.098563 9
49.072873 11.078576 48.508540 9
49.358681 8.884874 48.837110 9
49.527930 6.660758 49.086951 9
49.666080 4.425386 49.320182 9
49.681403 2.150806 49.470583 9
49.607518 -0.157642 49.562757 9
49.397492 -2.518259 49.563110 9
49.089347 -4.924002 49.499451 9
48.628933 -7.397150 49.333141 9
48.059857 -9.928448 49.096037 9
47.261657 -12.566015 48.702076 9
46.242475 -15.315773 48.157895 9
44.935239 -18.212458 47.416302 9
43.054188 -21.381693 46.274105 9
40.185161 -25.016540 44.437768 9
36.146007 -29.232566 41.781088 9
30.013377 -34.479433 37.651563 9
22.148300 -40.675726 32.313689 9
-5.519971 100.372286 12.360328 2
-1.613741 96.868216 15.027937 3
4.704219 93.083947 19.424924 3
4.820805 90.347948 19.413962 3
-4.098712 88.819849 12.965726 3
3.102990 85.133376 18.022198 1
6.567762 82.027595 20.423022 1
7.887594 79.215807 21.301298 1
8.310308 76.515098 21.546530 1
8.353855 73.855137 21.528124 1
8.388145 71.198970 21.510225 1
8.433891 68.544862 21.507617 1
-11.648285 66.705347 7.119250 1
2.831403 63.408094 17.451543 4
2.815199 60.696136 17.425504 4
2.820063 57.984202 17.421759 4
2.800787 55.272413 17.407971 4
2.757844 52.559599 17.384482 4
5.410998 49.922957 19.296368 9
11.565930 47.487906 23.719011 9
16.414994 45.125909 27.213674 9
20.169259 42.804915 29.931273 9
23.554206 40.541162 32.390411 9
26.374172 38.304691 34.451211 9
29.025130 36.114522 36.396577 9
31.244332 33.935750 38.038837 9
33.552451 31.816295 39.749695 9
35.818543 29.741641 41.435482 9
37.710736 27.662163 42.859477 9
39.346314 25.582925 44.105506 9
40.819197 23.510513 45.240621 9
42.146184 21.442032 46.276879 9
43.216594 19.350980 47.135690 9
44.087572 17.239712 47.857972 9
44.829217 15.116015 48.493761 9
45.431055 12.972703 49.035814 9
45.873134 10.799813 49.470220 9
46.201250 8.602865 49.829709 9
46.422900 6.379486 50.119823 9
46.527841 4.122773 50.333571 9
46.517239 1.828575 50.472071 9
46.364629 -0.515468 50.516981 9
46.111063 -2.902089 50.497624 9
45.745551 -5.338840 50.406605 9
45.138721 -7.873403 50.153430 9
44.340218 -10.497784 49.773710 9
43.244595 -13.257253 49.194258 9
41.740319 -16.204575 48.338103 9
39.761223 -19.380727 47.160497 9
37.187263 -22.851410 45.579494 9
33.730876 -26.756799 43.397150 9
28.620040 -31.455316 40.080198 9
21.818041 -37.026071 35.609562 9
-8.758561 91.937083 13.854362 3
-2.331041 88.250807 18.237046 3
-13.382174 69.540764 10.092693 1
-13.290572 66.666008 10.124868 1
-6.641887 63.607640 14.745396 4
-6.653204 60.815773 14.722025 4
-6.619419 58.023915 14.737897 4
-6.709766 55.232295 14.674777 4
-6.734273 52.439566 14.665390 4
0.097360 49.841241 19.453020 9
6.420028 47.377621 23.891614 9
11.405681 44.988519 27.402481 9
15.250536 42.640219 30.122658 9
18.738964 40.351579 32.599796 9
21.574232 38.084743 34.626738 9
24.278683 35.867771 36.567994 9
26.585572 33.667000 38.237447 9
29.033264 31.533150 40.010419 9
31.280331 29.425966 41.648742 9
33.195556 27.319567 43.061089 9
34.879323 25.217805 44.317523 9
36.378073 23.120181 45.450486 9
37.705391 21.022486 46.469552 9
38.824371 18.911571 47.349245 9
39.830142 16.799072 48.155808 9
40.648171 14.664978 48.837700 9
41.346482 12.517739 49.442315 9
41.855179 10.336429 49.921485 9
42.247826 8.132343 50.326422 9
42.506215 5.896399 50.644794 9
42.598924 3.615053 50.855240 9
42.530868 1.283523 50.961561 9
42.300226 -1.104761 50.962944 9
41.924546 -3.550558 50.871931 9
41.319394 -6.086328 50.631036 9
40.512826 -8.711428 50.260233 9
39.426169 -11.460505 49.706379 9
37.970810 -14.375594 48.909899 9
36.198464 -17.451637 47.907429 9
33.905391 -20.778004 46.561389 9
30.902416 -24.448436 44.745095 9
26.742937 -28.670021 42.158012 9
20.469881 -33.884392 38.155806 9
12.357649 -40.053679 32.932535 9
-14.885109 52.344952 13.111931 9
-5.376537 49.757067 19.614825 9
1.060854 47.261703 24.029308 9
5.984518 44.833692 27.417756 9
10.170595 42.469692 30.309446 9
13.756879 40.154574 32.798260 9
16.814130 37.873754 34.932426 9
19.407436 35.615297 36.756354 9
21.789263 33.390325 38.442051 9
24.298839 31.231713 40.220328 9
26.595582 29.099291 41.859197 9
28.559955 26.968683 43.277435 9
30.278196 24.841520 44.533846 9
31.783690 22.714660 45.651267 9
33.131621 20.590300 46.667306 9
34.268654 18.452827 47.545943 9
35.225443 16.300854 48.308193 9
36.065243 14.141234 48.997103 9
36.749456 11.961124 49.586745 9
37.246010 9.747403 50.055724 9
37.597522 7.503731 50.433163 9
37.817156 5.228159 50.728247 9
37.836404 2.897417 50.895180 9
37.732015 0.525664 50.986078 9
37.449838 -1.907566 50.964944 9
36.943864 -4.422848 50.801461 9
36.212065 -7.029112 50.494976 9
35.230184 -9.742715 50.030032 9
33.987629 -12.576602 49.400444 9
32.414773 -15.565016 48.560772 9
30.360450 -18.775212 47.411649 9
27.685922 -22.277168 45.862716 9
24.124601 -26.197202 43.739538 9
18.840404 -30.902088 40.491907 9
11.669492 -36.523140 36.018321 9
-3.275139 -45.624416 26.442213 9
-20.752119 52.290795 13.282393 9
-11.028530 49.670049 19.776010 9
-4.401598 47.144674 24.214082 9
0.645202 44.686849 27.606609 9
4.975148 42.296396 30.528372 9
8.670835 39.955026 33.034270 9
11.728631 37.640912 35.121913 9
14.392123 35.355549 36.953430 9
16.893744 33.110159 38.683377 9
19.473824 30.927326 40.471324 9
21.779339 28.764030 42.082565 9
23.790192 26.607989 43.503861 9
25.536243 24.453561 44.755191 9
27.033600 22.294192 45.847429 9
28.354552 20.133813 46.828670 9
29.501633 17.966682 47.700757 9
30.503192 15.792231 48.482630 9
31.316470 13.596372 49.146237 9
31.972612 11.379264 49.712430 9
32.437753 9.127450 50.159166 9
32.806774 6.857105 50.549302 9
32.924294 4.525193 50.780873 9
32.937977 2.161928 50.951478 9
32.730212 -0.269175 50.984264 9
32.331412 -2.767366 50.899784 9
31.747090 -5.338004 50.702245 9
30.916368 -8.006950 50.352504 9
29.818184 -10.790082 49.837675 9
28.393868 -13.716953 49.120521 9
26.537994 -16.836194 48.133713 9
24.154966 -20.198003 46.816842 9
21.035724 -23.899346 45.036505 9
16.774327 -28.122721 42.533045 9
10.180338 -33.380093 38.542400 9
1.623624 -39.606264 33.312269 9
-26.809195 52.234857 13.455859 9
-16.823998 49.581266 19.965921 9
-10.064807 47.022843 24.385858 9
-4.780891 44.539416 27.853824 9
-0.397311 42.116746 30.743461 9
3.385085 39.746214 33.249110 9
6.480827 37.400520 35.315269 9
9.184598 35.084330 37.133394 9
11.827910 32.819251 38.918608 9
14.535552 30.617575 40.751630 9
16.840116 28.421676 42.329252 9
18.851899 26.233179 43.723145 9
20.584479 24.044121 44.942278 9
22.148174 21.862697 46.058216 9
23.461179 19.668945 47.018213 9
24.650477 17.477507 47.904538 9
25.621666 15.265621 48.656417 9
26.400801 13.031060 49.290964 9
27.010919 10.772089 49.823327 9
27.467541 8.486273 50.263802 9
27.784509 6.171449 50.621602 9
27.867764 3.798952 50.836708 9
27.810911 1.385085 50.969681 9
27.546755 -1.093684 50.977926 9
27.061872 -3.648648 50.853481 9
26.375660 -6.282015 50.609424 9
25.395255 -9.029799 50.187291 9
24.091756 -11.911890 49.569722 9
22.441870 -14.947737 48.743114 9
20.339899 -18.186280 47.641795 9
17.566234 -21.721970 46.128557 9
13.914382 -25.654913 44.075602 9
8.530860 -30.340233 40.948310 9
0.977251 -36.011651 36.477717 9
-12.994460 -44.457766 28.004839 9
-33.058101 52.177186 13.638406 9
-22.866974 49.487964 20.123618 9
-15.882143 46.898196 24.582053 9
-10.521824 44.380240 28.017265 9
-5.901181 41.933761 30.990448 9
-2.111031 39.527751 33.443952 9
1.039769 37.150369 35.499032 9
3.882131 34.811165 37.365430 9
6.598356 32.518741 39.158530 9
9.377972 30.290549 40.998102 9
11.722885 28.065654 42.568860 9
13.773614 25.848762 43.959880 9
15.568137 23.635564 45.195325 9
17.096368 21.415752 46.269023 9
18.471585 19.199573 47.252650 9
19.606044 16.965797 48.091073 9
20.548236 14.715516 48.815129 9
21.313002 12.445100 49.434437 9
21.934438 10.155697 49.970705 9
22.348075 7.827667 50.383767 9
22.575011 5.458766 50.687289 9
22.639297 3.048399 50.896768 9
22.483048 0.575724 50.976464 9
22.148408 -1.955622 50.953301 9
21.565770 -4.571712 50.784466 9
20.735697 -7.281205 50.471111 9
19.573983 -10.118680 49.961791 9
18.109181 -13.086911 49.275396 9
16.269886 -16.220264 48.368890 9
13.739603 -19.639791 47.048155 9
10.550811 -23.358655 45.335890 9
6.108977 -27.616366 42.868751 9
-0.824116 -32.921601 38.890916 9
-9.745762 -39.168628 33.720729 9
-39.470144 52.118326 13.854937 9
-29.051910 49.393178 20.324246 9
-21.953522 46.767082 24.746332 9
-16.383806 44.219195 28.229924 9
-11.656754 41.740451 31.199485 9
-7.792651 39.301776 33.642428 9
-4.534336 36.895760 35.717881 9
-1.611265 34.527384 37.593135 9
1.209553 32.209514 39.412074 9
4.050866 29.952592 41.250279 9
6.449069 27.699210 42.821483 9
8.554877 25.455137 44.218880 9
10.330468 23.205044 45.419352 9
11.887473 20.955490 46.491902 9
13.237975 18.701119 47.444155 9
14.383211 16.435137 48.277095 9
15.329025 14.151666 48.994578 9
16.055445 11.839854 49.584667 9
16.618346 9.504078 50.081970 9
17.033786 7.142250 50.496633 9
17.199601 4.725197 50.766575 9
17.207861 2.266964 50.948571 9
16.966794 -0.261624 50.987149 9
16.517338 -2.858262 50.907930 9
15.789986 -5.549742 50.669360 9
14.817395 -8.336314 50.292163 9
13.550411 -11.241539 49.747468 9
11.841774 -14.322028 48.947370 9
9.601170 -17.622662 47.839033 9
6.728965 -21.195695 46.364525 9
2.936551 -25.163805 44.352922 9
-2.472228 -29.809525 41.390356 9
-10.718385 -35.642380 36.752449 9
-24.938843 -43.961497 28.576989 9
-52.960473 51.947133 9.934996 9
-35.474368 49.294433 20.514881 9
-28.167349 46.633943 24.956055 9
-22.490193 44.050455 28.421259 9
-17.739321 41.532773 31.335140 9
-13.630090 39.070686 33.869391 9
-10.342260 36.628829 35.915617 9
-7.365140 34.227089 37.781869 9
-4.296654 31.896240 39.710293 9
-1.442935 29.604505 41.516209 9
0.978992 27.317922 43.069012 9
3.038113 25.031583 44.410452 9
4.884567 22.755322 45.630990 9
6.460738 20.473040 46.696181 9
7.800492 18.181387 47.626606 9
8.959373 15.882319 48.455816 9
9.939968 13.570197 49.185591 9
10.603328 11.211225 49.733147 9
11.180115 8.843326 50.236794 9
11.492535 6.424019 50.590688 9
11.646811 3.969028 50.858687 9
11.529388 1.445195 50.973671 9
11.204431 -1.140441 50.974482 9
10.687148 -3.791053 50.870773 9
9.854906 -6.547328 50.590589 9
8.664351 -9.432638 50.109361 9
7.118316 -12.458548 49.430025 9
5.196682 -15.643703 48.542081 9
2.607913 -19.095001 47.275653 9
-0.767662 -22.875404 45.563131 9
-5.374257 -27.165142 43.147609 9
-12.651771 -32.518783 39.192764 9
-21.906061 -38.773996 34.114139 9
-42.157738 49.191270 20.690770 9
-34.619506 46.495337 25.159525 9
-28.837290 43.874503 28.602875 9
-23.922168 41.324488 31.543990 9
-19.706547 38.828994 34.081387 9
-16.299531 36.356795 36.150940 9
-13.225620 33.924808 38.032321 9
-10.109707 31.560056 39.945792 9
-7.152457 29.241279 41.773221 9
-4.730061 26.917185 43.293848 9
-2.582784 24.604987 44.660301 9
-0.747583 22.290341 45.851101 9
0.868513 19.977376 46.920918 9
2.210064 17.649667 47.837547 9
3.341837 15.309545 48.639151 9
4.244038 12.946311 49.314479 9
4.943439 10.557590 49.879505 9
5.438743 8.136290 50.333856 9
5.738419 5.677378 50.682884 9
5.802296 3.164964 50.903738 9
5.609830 0.586110 50.985126 9
5.215819 -2.054080 50.959479 9
4.493868 -4.795783 50.754415 9
3.497855 -7.635397 50.402062 9
2.168185 -10.599340 49.869082 9
0.450476 -13.715184 49.125452 9
-1.891997 -17.068976 48.036865 9
-4.826057 -20.671515 46.624707 9
-8.898005 -24.723101 44.579265 9
-14.559391 -29.416389 41.647632 9
-23.339984 -35.343873 36.965997 9
-37.081325 -43.280650 29.501862 9
-41.029837 46.361792 25.526470 9
-35.354602 43.694967 28.824301 9
-30.264430 41.112292 31.794930 9
-25.961700 38.581251 34.322102 9
-22.532939 36.069937 36.356298 9
-19.375672 33.604381 38.242904 9
-16.070785 31.217679 40.221738 9
-13.093830 28.861752 42.020268 9
-10.631669 26.503388 43.531741 9
-8.411214 24.162020 44.912527 9
-6.564083 21.811042 46.087621 9
-5.012465 19.450274 47.101763 9
-3.638096 17.089427 48.022642 9
-2.507867 14.710977 48.812386 9
-1.614839 12.308177 49.475295 9
-0.934554 9.877979 50.025658 9
-0.502940 7.405898 50.443515 9
-0.300003 4.888015 50.740728 9
-0.261522 2.331309 50.954164 9
-0.559084 -0.310754 50.987413 9
-1.082920 -3.022003 50.903296 9
-1.940320 -5.838040 50.642172 9
-3.072632 -8.754198 50.238089 9
-4.640601 -11.825181 49.601927 9
-6.684943 -15.077623 48.712490 9
-9.339047 -18.568204 47.497106 9
-12.881478 -22.405289 45.802912 9
-17.727479 -26.754226 43.402485 9
-25.393428 -32.170006 39.459477 9
-35.175822 -38.502662 34.374899 9
-48.351201 46.198530 25.520511 9
-42.139328 43.507486 29.037013 9
-36.868571 40.890534 32.036098 9
-32.463358 38.323163 34.559935 9
-28.884893 35.781132 36.630295 9
-25.697781 33.276897 38.490438 9
-22.192775 30.868179 40.535956 9
-19.213813 28.472414 42.295767 9
-16.705834 26.079511 43.800827 9
-14.500751 23.696395 45.145007 9
-12.626495 21.309406 46.312975 9
-10.995092 18.921240 47.353910 9
-9.642211 16.518256 48.248261 9
-8.545208 14.095342 49.008946 9
-7.689667 11.646815 49.644336 9
-7.063278 9.167168 50.161660 9
-6.665803 6.648921 50.561506 9
-6.512984 4.081147 50.835707 9
-6.617972 1.452799 50.977634 9
-6.993046 -1.247563 50.981243 9
-7.655364 -4.033149 50.837925 9
-8.708002 -6.940078 50.492132 9
-10.052925 -9.955004 49.998784 9
-11.851121 -13.132711 49.271107 9
-14.207516 -16.518757 48.253638 9
-17.401105 -20.215696 46.796857 9
-21.558933 -24.290999 44.835118 9
-27.537244 -29.053047 41.908854 9
-37.046715 -35.132867 37.101506 9
-49.543143 43.296086 29.059447 9
-43.710479 40.660969 32.290401 9
-39.209232 38.055314 34.805264 9
-35.629167 35.469414 36.827588 9
-32.228953 32.939480 38.760718 9
-28.628069 30.497006 40.811169 9
-25.578486 28.066584 42.570116 9
-23.008693 25.639394 44.076665 9
-20.782363 23.217916 45.405046 9
-18.909002 20.789936 46.550367 9
-17.314480 18.355355 47.553079 9
-15.951886 15.912775 48.438839 9
-14.877526 13.445118 49.177546 9
-14.045000 10.951536 49.794674 9
-13.424242 8.429965 50.306842 9
-13.129744 5.850361 50.652926 9
-13.082996 3.218874 50.875824 9
-13.258305 0.533133 50.989948 9
