ply
format ascii 1.0
element vertex 1420
property float x
property float y
property float z
property int scalar_Label
end_header
141.370482 136.467834 -73.517923 0
134.281445 136.681153 -88.348341 0
127.421270 136.477117 -102.663369 0
138.480509 146.584983 -72.180380 0
138.535797 143.139305 -71.551520 0
138.343886 139.857009 -71.465665 0
138.175742 136.580074 -71.351093 0
131.171947 136.678204 -85.588142 0
123.928318 136.591223 -100.307951 0
135.309465 143.277148 -69.440296 0
135.130405 139.985717 -69.346237 0
134.988449 136.693281 -69.196441 0
128.052094 136.689582 -82.905682 0
120.452482 136.702094 -97.947063 0
132.090497 143.415035 -67.335804 0
131.949014 140.101830 -67.185177 0
131.790964 136.815715 -67.086284 0
124.973590 136.689606 -80.190840 0
117.232354 136.702157 -95.107582 0
128.912365 143.534856 -65.171105 0
128.750629 140.230533 -65.079032 0
128.607994 136.934486 -64.967698 0
121.909632 136.690915 -77.496620 0
114.027482 136.703483 -92.289576 0
150.177691 17.688443 -21.480603 6
150.159854 14.905285 -21.742696 6
148.935637 11.651530 -24.331915 6
148.410958 8.609654 -25.598023 6
148.128702 5.630932 -26.415445 6
148.054871 2.714755 -26.848369 6
148.141729 -0.148613 -26.987597 6
148.384334 -2.952158 -26.841750 6
148.774416 -5.690862 -26.425828 6
149.340733 -8.340741 -25.683244 6
149.975913 -10.950096 -24.820511 6
150.045409 -13.878756 -25.067243 6
125.726553 143.662384 -63.040684 0
125.550800 140.363000 -62.992515 0
125.417996 137.059677 -62.880131 0
118.860936 136.692708 -74.818795 0
110.833683 136.707410 -89.497862 0
150.191694 23.917403 -14.291875 6
149.977168 21.152140 -14.874224 6
148.113067 17.822617 -18.542188 6
146.990412 14.663153 -20.847065 6
145.108074 11.161826 -24.586345 6
144.608346 8.108578 -25.764090 6
144.362060 5.122869 -26.483965 6
144.287702 2.184208 -26.897333 6
144.406687 -0.687847 -26.963272 6
144.668348 -3.506090 -26.775764 6
145.108091 -6.244728 -26.267525 6
145.688324 -8.912660 -25.508092 6
146.486884 -11.459528 -24.349953 6
148.196428 -13.482351 -21.485526 6
149.185098 -15.875019 -19.988444 6
150.249457 -18.202682 -18.358293 6
150.206632 -21.204854 -18.834653 6
122.528871 143.798936 -60.947851 0
122.389510 140.479141 -60.849339 0
122.242690 137.180437 -60.779830 0
115.836074 136.690744 -72.139208 0
107.707690 136.689272 -86.625737 0
150.194056 27.238609 -7.657149 6
149.362085 24.363937 -9.319667 6
143.345984 19.871870 -20.389290 6
144.307681 17.384635 -18.834288 6
143.165563 14.200057 -21.106902 6
141.253079 10.675062 -24.794792 6
140.777243 7.609634 -25.890051 6
140.513408 4.594697 -26.614347 6
140.468400 1.645152 -26.954392 6
140.608440 -1.241524 -26.970781 6
140.928911 -4.056906 -26.671028 6
141.393701 -6.808197 -26.120149 6
142.033322 -9.471591 -25.261479 6
143.260692 -11.817731 -23.337442 6
144.626133 -14.057714 -21.168705 6
145.648632 -16.458911 -19.637650 6
146.910562 -18.697451 -17.675521 6
148.399450 -20.765803 -15.303269 6
150.111644 -22.651621 -12.525562 6
150.214562 -25.553053 -12.726847 6
119.357740 143.924434 -58.819563 0
119.214193 140.604662 -58.745870 0
119.084761 137.295423 -58.661387 0
112.810342 136.695674 -69.500657 0
104.545790 136.693208 -83.862214 0
150.210834 27.850709 -1.423033 6
145.158684 23.851750 -10.476665 6
142.186236 20.264448 -15.882108 6
140.397412 16.924837 -19.215600 6
139.210223 13.705055 -21.501964 6
137.345922 10.182365 -25.001212 6
136.887853 7.101598 -26.028469 6
136.654845 4.076308 -26.670708 6
136.615604 1.105990 -26.982589 6
136.776516 -1.795760 -26.951982 6
137.132727 -4.619858 -26.586602 6
137.638142 -7.377249 -25.967466 6
138.331270 -10.040251 -25.025188 6
139.981839 -12.196953 -22.386034 6
141.002117 -14.648110 -20.878504 6
142.132059 -17.017375 -19.183852 6
143.464146 -19.244228 -17.135676 6
145.016131 -21.305347 -14.700551 6
144.853504 -24.401204 -15.349466 6
148.943601 -24.767905 -8.367400 6
150.232580 -26.863304 -6.420812 6
116.175959 144.057368 -56.721483 0
116.038785 140.732154 -56.653265 0
115.941202 137.405957 -56.529807 0
109.807065 136.696732 -66.858431 0
101.412599 136.691170 -81.086052 0
150.201902 28.432692 4.526290 6
150.173903 25.878529 4.347894 6
138.081648 19.777078 -16.587917 6
136.438004 16.461870 -19.579965 6
135.295063 13.236557 -21.724537 6
133.394547 9.686964 -25.188683 6
132.940425 6.585175 -26.174616 6
132.731417 3.545866 -26.750291 6
132.725060 0.565142 -26.988208 6
132.911820 -2.349964 -26.904089 6
133.279120 -5.194430 -26.518893 6
133.850895 -7.946930 -25.790326 6
134.558252 -10.629665 -24.836845 6
136.352325 -12.748315 -22.006114 6
137.402754 -15.210787 -20.473615 6
138.576333 -17.584177 -18.735056 6
140.021546 -19.776044 -16.530804 6
141.686177 -21.800737 -13.950035 6
143.599736 -23.626376 -10.939470 6
145.975411 -25.101089 -7.124014 6
148.937736 -26.112700 -2.281618 6
150.186065 -28.190501 -0.444835 6
111.862487 141.324431 -56.258468 3
109.015124 139.194129 -60.787798 3
100.939713 139.185681 -74.130037 3
147.812035 28.396604 6.265535 6
150.266133 26.509242 10.256202 6
134.047576 19.323266 -17.058078 6
132.448997 16.002006 -19.892390 6
131.120913 12.695705 -22.286323 6
129.379713 9.182478 -25.387538 6
128.933599 6.060435 -26.326798 6
128.754247 3.008412 -26.829274 6
128.778550 0.015502 -27.000331 6
128.999849 -2.910102 -26.850482 6
129.428690 -5.752993 -26.361182 6
130.016251 -8.524279 -25.613960 6
130.796800 -11.198703 -24.550182 6
132.664295 -13.315740 -21.656774 6
133.766027 -15.779396 -20.064965 6
134.997881 -18.149706 -18.260176 6
136.550434 -20.311652 -15.918124 6
138.318198 -22.307455 -13.215973 6
140.411311 -24.057195 -9.964784 6
142.894860 -25.499666 -6.051269 6
146.403276 -26.198768 -0.390114 6
150.269529 -26.534852 5.886975 6
108.685028 141.447675 -54.140474 3
106.058633 139.198442 -58.205422 3
97.826906 139.201411 -71.480174 3
144.768638 28.198457 6.926676 6
147.825356 26.445965 11.807848 6
149.865538 24.509681 15.024569 6
150.163614 22.113260 15.387923 6
126.043746 11.879460 -24.212210 6
125.304643 8.670583 -25.588179 6
124.919386 5.546597 -26.395891 6
124.734109 2.468519 -26.886635 6
124.797827 -0.533687 -26.979424 6
125.048501 -3.472413 -26.775321 6
125.488088 -6.336830 -26.270459 6
126.146253 -9.103229 -25.415305 6
127.240447 -11.656299 -23.850872 6
128.927793 -13.893223 -21.316144 6
130.086807 -16.356036 -19.658371 6
131.421662 -18.700438 -17.717122 6
133.106275 -20.819832 -15.203823 6
134.993662 -22.777798 -12.359700 6
137.183647 -24.502662 -9.017959 6
140.028077 -25.759013 -4.592755 6
144.046399 -26.175021 1.783283 6
150.274185 -24.994837 11.840919 6
105.486729 141.581206 -52.061207 3
103.100450 139.208185 -55.653032 3
94.795752 139.188022 -68.725765 3
141.720516 28.003419 7.623734 6
144.656789 26.192825 12.198290 6
146.743351 24.243472 15.415299 6
148.443847 22.246267 18.012479 6
149.855144 20.210199 20.143644 6
150.218630 17.865235 20.596878 6
150.244480 15.403164 20.503835 6
120.658947 1.921981 -26.939816 6
120.744556 -1.097254 -26.985894 6
121.064182 -4.033988 -26.666621 6
121.536396 -6.910618 -26.111708 6
122.217045 -9.694181 -25.231065 6
123.810544 -12.044456 -22.893260 6
125.183852 -14.460083 -20.914604 6
126.391688 -16.926619 -19.207943 6
127.864482 -19.228028 -17.081148 6
129.570368 -21.366421 -14.584197 6
131.595422 -23.279532 -11.576957 6
134.014106 -24.904738 -7.937350 6
137.062086 -26.075407 -3.282051 6
150.233287 -20.808253 17.757099 6
142.253347 -28.703445 4.566672 6
102.312877 141.704258 -49.945327 3
100.185654 139.203759 -53.056767 3
91.716305 139.198949 -66.076203 3
133.116977 29.167497 -0.175996 6
138.700220 27.819219 8.406896 6
141.497695 25.948048 12.659794 6
143.612610 23.981158 15.848147 6
145.270519 21.947396 18.321676 6
146.722740 19.899759 20.470731 6
148.560633 18.021307 23.216008 6
149.990889 16.057322 25.322413 6
150.058566 13.635730 25.299863 6
149.993525 11.153265 25.063413 6
117.004445 -4.611786 -26.589777 6
117.542244 -7.487881 -25.935647 6
118.283497 -10.272183 -24.971096 6
120.218781 -12.498755 -22.145161 6
121.334937 -15.063281 -20.606405 6
122.644524 -17.509190 -18.770623 6
124.238299 -19.778870 -16.494551 6
126.059438 -21.886651 -13.866099 6
128.185632 -23.776267 -10.761969 6
150.135716 -14.190919 23.534108 6
150.068188 -16.871951 23.209918 6
147.876793 -20.885216 19.528009 6
99.151623 141.822157 -47.811942 3
97.290294 139.195455 -50.455158 3
88.673045 139.199217 -63.393927 3
130.400042 29.084871 1.308366 6
135.605550 27.621458 9.117202 6
138.301784 25.699662 13.119488 6
140.463155 23.719925 16.307098 6
142.066972 21.646997 18.644791 6
141.333415 18.906102 17.428324 6
145.819509 17.819321 24.136192 6
146.814882 15.689185 25.537519 6
147.707354 13.546454 26.777682 6
148.448432 11.366755 27.782652 6
149.044275 9.143792 28.561428 6
149.558226 6.895373 29.210146 6
149.947362 4.597829 29.663082 6
149.995824 2.146044 29.590339 6
150.007243 -0.336731 29.454497 6
149.978723 -2.854726 29.250908 6
149.989196 -5.370805 29.100084 6
149.998113 -7.904916 28.939977 6
149.515917 -10.725780 28.020168 6
148.759502 -13.739903 26.671182 6
147.584320 -17.049131 24.669651 6
143.454619 -22.215533 18.115888 6
95.950391 141.957278 -45.738923 3
94.399778 139.189103 -47.869139 3
85.637108 139.200283 -60.722948 3
127.797674 29.027713 2.972722 6
132.255823 27.369059 9.494644 6
135.056200 25.444740 13.560924 6
137.203948 23.435601 16.657889 6
138.920433 21.370007 19.112618 6
140.201149 19.223614 20.917804 6
142.610806 17.472235 24.393160 6
143.614697 15.321971 25.780440 6
144.493055 13.151544 26.977136 6
145.210851 10.940757 27.930976 6
145.813607 8.698284 28.709245 6
146.275993 6.407057 29.273988 6
146.671891 4.090444 29.734749 6
146.899767 1.699043 29.940134 6
147.008132 -0.754519 29.961877 6
147.005060 -3.273639 29.811577 6
146.866017 -5.877540 29.452176 6
146.478349 -8.633172 28.714869 6
145.917095 -11.515068 27.710789 6
145.026026 -14.621215 26.205421 6
141.662691 -19.207384 20.989711 6
138.526619 -23.809116 16.098607 6
92.772495 142.081925 -43.628327 3
91.476135 139.199592 -45.351534 3
82.616487 139.198734 -58.049619 3
106.460866 28.026685 -22.350284 5
124.818640 28.891442 4.096296 6
129.015768 27.147690 10.092158 6
131.793838 25.191744 14.035446 6
133.893059 23.144561 16.994655 6
135.586580 21.047202 19.364024 6
136.935355 18.896437 21.231226 6
139.336905 17.113165 24.618796 6
140.353946 14.943702 25.999120 6
141.227215 12.748430 27.167290 6
141.916405 10.504557 28.064623 6
142.528573 8.243046 28.846016 6
142.962390 5.918527 29.364251 6
143.317893 3.562972 29.764144 6
143.554367 1.153746 29.986317 6
143.637596 -1.331822 29.980673 6
143.569560 -3.901809 29.749607 6
143.318536 -6.580878 29.246420 6
142.894727 -9.374720 28.485317 6
142.214430 -12.338207 27.343601 6
141.141599 -15.561385 25.621782 6
137.424388 -20.346147 20.030390 6
132.588105 -25.949621 12.788594 6
89.598138 142.204474 -41.509203 3
88.587232 139.198968 -42.800144 3
79.580581 139.205989 -55.416191 3
109.765451 32.053195 -11.665232 5
113.229617 29.816578 -6.835557 5
121.509884 28.689389 4.784766 6
125.734632 26.922237 10.684204 6
128.435070 24.921468 14.430896 6
130.576504 22.859106 17.385981 6
132.240109 20.728835 19.663520 6
133.630525 18.565816 21.552057 6
136.073109 16.766085 24.924398 6
137.052215 14.561402 26.225625 6
137.895928 12.332828 27.331829 6
138.601034 10.071745 28.238253 6
139.176582 7.773893 28.957459 6
139.658597 5.446274 29.540221 6
139.937785 3.038179 29.831444 6
140.117888 0.583088 29.977752 6
140.167433 -1.939051 29.934221 6
140.059073 -4.548694 29.661654 6
139.757758 -7.272109 29.109790 6
139.211576 -10.146739 28.204235 6
138.424875 -13.184611 26.950371 6
137.187728 -16.513471 25.048571 6
132.758685 -21.692268 18.592694 6
86.425783 142.325357 -39.382602 3
85.684452 139.206425 -40.283361 3
76.611026 139.190892 -52.705745 3
110.941505 32.686087 -4.376596 5
113.620543 30.353602 -0.734379 5
118.303472 28.512965 5.665786 6
122.361137 26.681630 11.202991 6
125.024013 24.645268 14.816197 6
127.136223 22.549036 17.667948 6
128.815369 20.397009 19.919943 6
130.488485 18.290207 22.160894 6
132.688391 16.390621 25.126235 6
133.675271 14.164355 26.414878 6
134.540267 11.919352 27.532056 6
135.228009 9.629235 28.401104 6
135.787407 7.302704 29.089348 6
136.201295 4.925938 29.572830 6
136.500663 2.503502 29.894146 6
136.648024 0.012906 30.001162 6
136.623399 -2.563293 29.865868 6
136.473033 -5.213541 29.551919 6
136.063957 -8.008869 28.874633 6
135.462268 -10.931116 27.925007 6
134.509475 -14.073079 26.482494 6
131.020099 -18.618487 21.511008 6
128.004194 -23.049730 17.186522 6
83.248153 142.447294 -37.257193 3
82.834287 139.195730 -37.707755 3
73.599572 139.193965 -50.068528 3
108.097293 35.455845 -2.704652 5
110.845658 33.084946 0.954995 5
112.967393 30.680790 3.768903 5
115.331112 28.387778 6.905771 5
119.021382 26.454135 11.825892 6
121.571991 24.366161 15.210015 6
123.703241 22.248411 18.027318 6
125.376121 20.069480 20.224952 6
127.540727 18.076341 23.082771 6
129.272343 16.015065 25.355025 6
130.273496 13.769325 26.640200 6
131.111661 11.491817 27.702795 6
131.817535 9.184687 28.584032 6
132.332411 6.819181 29.204499 6
132.710937 4.406137 29.637697 6
132.999069 1.956536 29.945478 6
133.087393 -0.580712 29.979810 6
133.044850 -3.186448 29.833519 6
132.801904 -5.899714 29.412267 6
132.317733 -8.750975 28.660368 6
131.626975 -11.736810 27.624157 6
130.519012 -14.975824 26.017806 6
126.530759 -19.783485 20.502069 6
121.633699 -25.246463 13.743720 6
80.047472 142.577009 -35.154642 3
79.947649 139.201199 -35.193680 3
70.595996 139.196103 -47.432587 3
107.671561 35.761442 2.116936 5
110.146123 33.371212 5.337809 5
111.915939 30.925200 7.629874 5
113.629430 28.518178 9.845422 5
115.507376 26.194550 12.274854 5
118.178601 24.107422 15.745553 6
120.248400 21.949732 18.423233 6
121.899465 19.740145 20.547913 6
124.545764 17.854094 23.980528 6
125.831444 15.641474 25.620301 6
126.808625 13.364386 26.851562 6
127.647906 11.063418 27.898760 6
128.305134 8.716017 28.703571 6
128.812460 6.324316 29.308169 6
129.205341 3.893774 29.759120 6
129.428353 1.396131 29.983151 6
129.469522 -1.182729 29.964204 6
129.375028 -3.832807 29.762942 6
129.055215 -6.601843 29.260715 6
128.497501 -9.508034 28.440481 6
127.632938 -12.597774 27.210641 6
126.349183 -15.944120 25.422020 6
121.845709 -21.018077 19.368943 6
114.611694 -27.729977 9.692588 5
110.835720 -32.809020 4.582007 5
76.854342 142.701941 -33.032199 3
76.851916 139.286498 -32.957987 3
67.612709 139.192636 -44.780555 3
106.396212 35.931624 5.717662 5
109.003766 33.576109 9.040743 5
110.714976 31.135263 11.210419 5
112.269743 28.711431 13.177023 5
113.521962 26.265755 14.752761 5
114.893601 23.879679 16.479866 5
115.544292 21.353297 17.278119 5
118.331374 19.395141 20.820996 6
121.095712 17.511232 24.333401 6
122.287164 15.246931 25.821433 6
123.268380 12.946299 27.037041 6
124.111869 10.622266 28.073378 6
124.768773 8.250998 28.867440 6
125.245500 5.825165 29.427302 6
125.586431 3.351993 29.809936 6
125.791774 0.824295 30.015450 6
125.792753 -1.793290 29.955037 6
125.612448 -4.501837 29.658174 6
125.225102 -7.322533 29.091381 6
124.567061 -10.295800 28.172217 6
123.555260 -13.475763 26.793054 6
122.029587 -16.960389 24.746603 6
116.751035 -22.428097 17.848953 6
113.379450 -27.093052 13.406505 5
110.831999 -31.447395 10.022416 5
73.690576 142.813612 -30.862021 3
73.611624 139.424251 -30.898888 3
64.602922 139.200044 -42.171088 3
107.433639 33.705477 12.127315 5
109.214897 31.285840 14.340750 5
110.649404 28.848372 16.117120 5
111.872160 26.404664 17.625859 5
112.925465 23.953857 18.920033 5
113.952698 21.522065 20.179699 5
115.007057 19.121285 21.471708 5
117.530798 17.145546 24.608511 6
118.742047 14.862012 26.094643 6
119.729941 12.539244 27.298425 6
120.516783 10.173276 28.247762 6
121.103509 7.754300 28.943694 6
121.607007 5.313410 29.533097 6
121.911778 2.803428 29.870585 6
122.048827 0.226061 29.994994 6
122.000320 -2.434676 29.883705 6
121.783480 -5.181373 29.558200 6
121.313655 -8.059907 28.911664 6
120.502152 -11.123747 27.832051 6
119.343161 -14.393652 26.311613 6
115.489569 -19.027652 21.391229 5
113.765432 -22.740332 19.150472 5
112.124092 -26.487791 17.010198 5
110.051998 -30.542816 14.322403 5
70.443706 142.955066 -28.783907 3
70.429661 139.538190 -28.753175 3
61.619574 139.199198 -39.534890 3
100.938188 35.835699 9.135568 5
105.046162 33.699958 14.160279 5
107.345048 31.366993 16.963895 5
108.890242 28.954650 18.841298 5
110.137027 26.521721 20.351134 5
111.085680 24.054007 21.493662 5
112.047418 21.611173 22.650884 5
112.847240 19.149072 23.607935 5
113.539458 16.674286 24.431453 5
114.163558 14.192538 25.169892 5
114.818903 11.730001 25.945280 5
115.479315 9.279409 26.725476 5
117.434509 7.268938 29.095272 6
117.889260 4.787038 29.620158 6
118.139123 2.233136 29.891711 6
118.246320 -0.379518 29.986286 6
118.134596 -3.088644 29.810002 6
117.855622 -5.884208 29.426231 6
117.278645 -8.831200 28.673968 6
114.816229 -12.652386 25.599693 5
113.978699 -15.820001 24.522019 5
113.029023 -19.085950 23.303949 5
111.973117 -22.453908 21.952607 5
110.566417 -26.055602 20.166623 5
108.516917 -30.064584 17.585853 5
67.230907 143.080880 -26.649016 3
67.211876 139.662846 -26.638003 3
58.621642 139.204265 -36.921689 3
97.274001 35.655335 9.742968 5
101.763271 33.552583 15.116760 5
101.212504 30.706425 14.443439 5
106.755411 28.986902 21.079923 5
108.156419 26.585251 22.746442 5
109.236897 24.149126 24.027441 5
110.117188 21.691626 25.067267 5
110.852975 19.217022 25.932696 5
111.590405 16.756980 26.799106 5
112.068266 14.237756 27.352951 5
112.958397 11.845970 28.400679 5
113.531536 9.372862 29.066882 5
113.559367 6.728281 29.077285 5
114.751181 4.473140 30.484343 5
115.082861 1.934783 30.857501 5
115.108934 -0.720064 30.862469 5
115.072767 -3.411374 30.791462 5
113.649967 -6.682058 29.053120 5
113.602263 -9.430706 28.965517 5
113.092938 -12.398774 28.321803 5
111.868035 -15.725292 26.816414 5
111.142297 -18.872612 25.909375 5
110.134320 -22.199007 24.661306 5
108.788467 -25.747600 23.005069 5
106.270821 -29.971800 19.937224 5
64.028132 143.200321 -24.487572 3
64.009585 139.779354 -24.489259 3
55.686530 139.188525 -34.237722 3
45.684685 138.897061 -45.955723 3
80.154440 36.606386 -5.358697 5
93.540261 35.469581 10.333299 5
98.024400 33.337557 15.585432 5
101.099502 31.093118 19.184609 5
103.740340 28.854142 22.274013 5
105.576852 26.526296 24.419542 5
106.955707 24.147913 26.027745 5
108.054262 21.738949 27.306611 5
108.992485 19.315870 28.396839 5
110.588568 17.085294 30.258299 5
111.119925 14.599404 30.870097 5
111.886907 12.189371 31.757755 5
112.286671 9.679943 32.213948 5
112.635076 7.155831 32.609247 5
112.809664 4.572640 32.799925 5
112.976162 1.980497 32.980439 5
112.973361 -0.681214 32.961564 5
112.895770 -3.384563 32.854182 5
112.767496 -6.124018 32.686564 5
112.472105 -8.951266 32.321985 5
112.038173 -11.862588 31.793932 5
111.121260 -15.020305 30.697882 5
109.177240 -18.702157 28.394633 5
107.946877 -22.119778 26.928325 5
106.198165 -25.853658 24.852036 5
101.514554 -31.175171 19.326653 5
60.783906 143.332189 -22.358573 3
60.791669 139.898678 -22.343052 3
55.986273 138.091179 -27.848257 3
49.727434 136.615074 -35.020478 3
44.258311 134.722038 -41.286955 3
81.210966 37.062858 1.136179 5
89.741515 35.279358 10.915923 5
94.162527 33.108896 15.983205 5
97.292553 30.845511 19.569974 5
99.966525 28.585118 22.633630 5
102.179143 26.306102 25.168084 5
103.920353 23.985447 27.161793 5
105.445900 21.660200 28.908022 5
107.800118 19.574712 31.604406 5
108.626116 17.156555 32.548068 5
109.285778 14.709097 33.300780 5
109.803941 12.231548 33.891019 5
110.211744 9.726491 34.354488 5
110.543291 7.199307 34.730291 5
110.723936 4.621035 34.932809 5
110.849397 2.017712 35.071813 5
110.900360 -0.620810 35.125143 5
110.826523 -3.317719 35.035092 5
110.648783 -6.071145 34.825615 5
110.334663 -8.899982 34.459445 5
109.895310 -11.806565 33.949350 5
109.276512 -14.821614 33.233122 5
108.393481 -17.993452 32.213465 5
107.113103 -21.398952 30.737626 5
81.100055 -37.030158 0.885835 5
57.533172 140.029086 -20.225320 3
57.580827 136.594305 -20.178146 3
56.788855 133.439920 -21.071927 3
51.698569 131.565435 -26.784131 3
46.406731 129.608682 -32.722246 3
40.827424 127.583979 -38.982592 3
64.862482 38.533385 -12.073346 9
77.591981 36.932186 2.201835 5
85.882511 35.085567 11.499787 5
90.277131 32.882349 16.429525 5
93.456511 30.599222 19.996818 5
96.128393 28.311134 22.995237 5
98.419848 26.020451 25.567265 5
100.054035 23.651745 27.402525 5
103.395672 21.709338 31.152288 5
104.708234 19.370143 32.627253 5
105.723329 16.985850 33.768888 5
106.562650 14.575716 34.713639 5
107.183280 12.119247 35.413403 5
107.684134 9.635898 35.979084 5
108.040344 7.111986 36.382812 5
108.277610 4.548988 36.653408 5
108.412567 1.946752 36.809533 5
108.471019 -0.690604 36.880120 5
108.372539 -3.397382 36.775025 5
108.142849 -6.171320 36.523101 5
107.755121 -9.030033 36.094289 5
107.189395 -11.989976 35.466239 5
106.328956 -15.111333 34.508162 5
105.087128 -18.448102 33.122957 5
100.068872 -23.613556 27.505815 5
95.749720 -28.615960 22.672797 5
54.314393 136.720527 -18.062778 3
54.374470 133.293875 -18.014612 3
54.343397 129.909370 -18.065468 3
53.579181 126.743042 -18.918963 3
48.427364 124.736899 -24.580580 3
43.066063 122.643471 -30.471612 3
37.463251 120.461215 -36.627154 3
58.795059 41.387188 -13.332955 9
67.453349 39.103878 -3.833775 9
74.411131 36.858064 3.801135 5
81.887521 34.878126 12.004984 5
86.318501 32.650449 16.870021 5
89.524176 30.343222 20.392029 5
92.198497 28.027556 23.331919 5
94.415109 25.694400 25.770467 5
96.426703 23.376194 27.984725 5
99.559522 21.359286 31.428519 5
100.881602 18.996263 32.887822 5
102.042305 16.623267 34.170747 5
103.007947 14.223861 35.240399 5
103.805481 11.796648 36.126346 5
104.416894 9.328451 36.808880 5
104.875880 6.821061 37.324961 5
105.170710 4.263402 37.661770 5
105.348410 1.663682 37.870875 5
105.341072 -1.008066 37.877910 5
105.173182 -3.751660 37.709754 5
104.848972 -6.573344 37.371095 5
104.310723 -9.504075 36.798769 5
103.431518 -12.607289 35.853856 5
102.152056 -15.925129 34.471542 5
100.419487 -19.500712 32.594106 5
94.670430 -25.007953 26.320349 5
88.694964 -30.820598 19.800852 5
51.118156 130.012293 -15.907893 3
51.127598 126.624482 -15.924084 3
51.159098 123.242908 -15.915249 3
50.394181 120.071688 -16.758494 3
45.177079 117.933056 -22.372045 3
39.764054 115.696908 -28.195166 3
34.100253 113.366061 -34.286624 3
61.665401 41.904740 -4.842848 9
67.181114 39.357241 1.080370 9
70.714548 36.723922 4.878767 5
77.821529 34.666348 12.509699 5
82.303932 32.416053 17.327018 5
85.506526 30.079754 20.772838 5
88.238910 27.745836 23.715279 5
90.375312 25.369816 26.019570 5
92.911322 23.130631 28.752982 5
95.642804 21.000309 31.696589 5
96.930932 18.602710 33.093928 5
98.108623 16.206937 34.373769 5
99.059030 13.777047 35.410924 5
99.819625 11.313185 36.245604 5
100.469948 8.829934 36.963077 5
100.922723 6.295215 37.469891 5
101.191926 3.704383 37.781086 5
101.322930 1.064126 37.945328 5
101.320497 -1.630528 37.967782 5
101.110820 -4.413133 37.769493 5
100.639581 -7.314291 37.292418 5
99.929827 -10.337284 36.561368 5
98.917702 -13.519917 35.508146 5
97.510445 -16.916345 34.033677 5
95.459229 -20.655589 31.872007 5
88.908639 -26.532662 24.899604 5
47.897035 123.345208 -13.796693 3
47.911039 119.975585 -13.814632 3
47.934572 116.614447 -13.820691 3
47.213579 113.425537 -14.605147 3
41.952356 111.147922 -20.146690 3
36.480783 108.769426 -25.907999 3
30.766750 106.286660 -31.922686 3
55.786194 44.789178 -5.802156 9
61.667257 42.149888 0.376048 9
66.184823 39.528880 5.125423 9
67.559953 36.657524 6.580584 9
73.669154 34.448434 13.001334 5
78.214968 32.176636 17.783570 5
81.527848 29.829177 21.274010 5
84.085714 27.437340 23.973915 5
86.294824 25.045697 26.309301 5
89.304432 22.872734 29.484804 5
91.605849 20.624237 31.918963 5
92.924991 18.206276 33.324769 5
94.088393 15.779830 34.568578 5
95.042950 13.324044 35.594800 5
95.815382 10.836900 36.431501 5
96.410404 8.311504 37.083691 5
96.859881 5.749425 37.584821 5
97.101340 3.124016 37.869555 5
97.176774 0.439689 37.981968 5
97.082744 -2.312540 37.918565 5
96.789932 -5.151299 37.648780 5
96.241831 -8.107271 37.113639 5
95.410776 -11.203290 36.284391 5
94.238610 -14.476367 35.100441 5
92.625191 -17.984848 33.457366 5
87.142948 -23.246397 27.772668 5
82.642965 -28.245963 23.118988 5
67.885097 -38.191014 7.752053 9
44.688930 116.701140 -11.680401 3
44.703763 113.347819 -11.701904 3
44.730494 110.001416 -11.708835 3
44.071004 106.792232 -12.416820 3
38.756671 104.376811 -17.894705 3
33.229663 101.854189 -23.589528 3
27.455037 99.220409 -29.537045 3
56.190534 45.027535 -0.157687 9
60.834078 42.314588 4.618216 9
64.772925 39.653678 8.672885 9
67.892846 37.001858 11.889201 9
69.523984 34.236962 13.580332 5
69.211625 31.230742 13.280352 5
77.259792 29.538957 21.554548 5
79.899972 27.130976 24.284790 5
82.156028 24.718854 26.622635 5
85.769817 22.635956 30.353445 5
87.494043 20.241569 32.148809 5
88.849966 17.804041 33.568230 5
89.988843 15.344242 34.766809 5
90.926656 12.856733 35.761001 5
91.671397 10.334768 36.559084 5
92.256128 7.779161 37.195011 5
92.665382 5.178011 37.653040 5
92.863271 2.512060 37.896551 5
92.921258 -0.204798 37.998821 5
92.754537 -3.008225 37.873202 5
92.397332 -5.896304 37.554885 5
91.723300 -8.924979 36.914855 5
90.794117 -12.084949 36.016452 5
89.455940 -15.449981 34.702713 5
87.579157 -19.092992 32.841630 5
81.425081 -24.651335 26.615158 5
75.265390 -30.411812 20.389074 5
67.095477 -37.301507 12.117454 9
41.513663 110.070964 -9.532328 3
41.505803 106.735846 -9.578888 3
41.533536 103.401992 -9.586934 3
40.928736 100.175196 -10.226389 3
35.581883 97.617569 -15.618585 3
29.974151 94.952899 -21.270843 3
23.864131 92.198216 -27.425211 3
31.654187 43.392982 -19.671331 9
59.473578 42.428981 8.254109 9
62.823672 39.720915 11.632367 9
65.758029 37.052482 14.595574 9
68.310889 34.410714 17.178089 9
69.663540 31.662293 18.558939 5
72.953552 29.250048 21.884495 5
75.613308 26.815105 24.579764 5
77.872906 24.373626 26.875572 5
81.733460 22.305781 30.777632 5
83.298866 19.850868 32.380886 5
84.679542 17.390408 33.800874 5
85.803566 14.899091 34.965622 5
86.707569 12.375135 35.911943 5
87.448877 9.824298 36.697358 5
88.006156 7.233314 37.300609 5
88.347932 4.584665 37.690327 5
88.574859 1.900011 37.967386 5
88.545302 -0.871999 37.990215 5
88.325233 -3.720478 37.825018 5
87.870638 -6.669710 37.427990 5
87.106935 -9.757835 36.724847 5
85.991609 -13.015157 35.673458 5
84.514549 -16.461739 34.264136 5
82.330867 -20.256097 32.153010 5
75.400305 -26.151348 25.308735 5
67.681334 -32.614099 17.685870 9
65.540922 -36.781086 15.635069 9
56.348431 -44.347881 6.559240 9
38.298404 103.464061 -7.418718 3
38.326108 100.133466 -7.430206 3
38.331838 96.813030 -7.459957 3
37.861265 93.559466 -7.953627 3
31.182991 91.009126 -14.533726 3
19.177418 88.820883 -26.338460 3
45.519450 47.835356 -0.550811 9
53.999073 45.266259 7.785275 9
57.738957 42.508283 11.472671 9
60.857324 39.785210 14.552639 9
63.620006 37.101953 17.286007 9
65.934634 34.431914 19.582187 9
67.967502 31.780090 21.604346 9
68.598550 28.960869 22.254218 5
71.286594 26.500451 24.923488 5
73.534210 24.026975 27.162993 5
77.445963 21.934769 31.035489 5
79.024925 19.453525 32.623469 5
80.368409 16.955799 33.982907 5
81.504170 14.438138 35.141102 5
82.418434 11.888143 36.084680 5
83.154422 9.307709 36.856094 5
83.634120 6.667276 37.379121 5
84.017913 4.002680 37.810888 5
84.137128 1.257716 37.986508 5
84.029521 -1.567105 37.943156 5
83.759064 -4.460456 37.743604 5
83.196868 -7.474790 37.262114 5
82.322849 -10.630433 36.479423 5
81.049489 -13.974441 35.310485 5
79.326333 -17.544509 33.706591 5
76.795309 -21.506413 31.319049 5
68.580272 -27.948148 23.393905 5
67.377859 -31.591454 22.314609 9
63.225147 -36.614293 18.365375 9
56.817789 -42.824620 12.227868 9
35.068683 96.868021 -5.305535 3
35.100434 93.545236 -5.311775 3
35.129933 90.228646 -5.316454 3
21.676954 88.263161 -18.253937 3
43.602125 47.886679 2.719877 9
52.140490 45.326130 10.931747 9
55.880718 42.575425 14.541312 9
58.702469 39.829616 17.272244 9
61.237123 37.123031 19.730450 9
63.408242 34.434137 21.842604 9
62.249673 31.332884 20.763913 9
67.190469 29.130977 25.537842 9
68.130954 26.389119 26.477990 9
69.113221 23.674262 27.461100 5
73.030751 21.548399 31.260124 5
74.629958 19.041153 32.839403 5
76.013701 16.522559 34.214764 5
77.140350 13.973749 35.346455 5
78.016671 11.385552 36.241119 5
78.719516 8.767459 36.972496 5
79.222230 6.104601 37.515223 5
79.519498 3.386771 37.864401 5
79.569931 0.592474 37.980668 5
79.451717 -2.264241 37.939028 5
79.062387 -5.224838 37.641796 5
78.376609 -8.309967 37.065132 5
77.420171 -11.523459 36.234061 5
75.930211 -14.975493 34.898172 5
73.930241 -18.680372 33.080673 5
67.449562 -24.254767 26.997024 9
67.506504 -27.311043 27.152514 9
64.644576 -31.636753 24.531956 9
60.938054 -36.436869 21.114236 9
55.516594 -42.149085 16.072904 9
31.859476 90.272917 -3.152453 3
15.066357 88.616580 -18.943844 3
39.101611 47.784342 3.538927 9
38.541268 44.536025 3.032887 9
53.652862 42.609848 17.239159 9
56.510435 39.869809 19.946921 9
58.780132 37.135866 22.106132 9
60.881218 34.436819 24.110241 9
62.676657 31.746663 25.830700 9
64.442627 29.094767 27.526574 9
65.882972 26.430771 28.920142 9
67.237646 23.784093 30.236464 9
68.588547 21.166633 31.552293 5
70.177878 18.627519 33.094499 5
71.550784 16.076686 34.436823 5
72.621664 13.485251 35.499239 5
73.509292 10.869801 36.393149 5
74.195605 8.217870 37.101796 5
74.644124 5.510956 37.591244 5
74.885178 2.747623 37.890094 5
74.918021 -0.081286 37.997886 5
74.681766 -3.003874 37.858002 5
74.217766 -6.018225 37.509419 5
73.428711 -9.167501 36.861647 5
72.282458 -12.477229 35.885193 5
70.648725 -16.011037 34.459146 5
68.329193 -19.866022 32.399480 5
66.451867 -23.624512 30.758145 9
64.320901 -27.554671 28.886787 9
61.778393 -31.735390 26.639053 9
58.323531 -36.405336 23.550098 9
53.179916 -41.957124 18.900183 9
28.562723 90.318423 -0.985362 3
7.963874 89.009334 -19.925608 3
19.039233 81.054757 -9.822900 1
21.686375 77.467555 -7.416277 1
21.893224 74.062567 -7.245005 1
21.829750 70.673581 -7.317244 1
21.856472 67.282505 -7.302013 1
35.017758 47.709031 4.822398 9
46.133474 45.279210 15.048141 9
50.864776 42.596609 19.416083 9
53.910001 39.869780 22.239762 9
56.168393 37.131890 24.344774 9
58.284666 34.431501 26.322817 9
60.008350 31.728434 27.944118 9
61.637172 29.051535 29.481840 9
63.020052 26.372088 30.797453 9
64.336544 23.711670 32.055635 9
65.404813 21.032868 33.089761 9
66.342400 18.349296 34.007658 9
67.128925 15.650990 34.790739 9
68.041911 12.995133 35.693178 5
68.917180 10.346587 36.564591 5
69.540087 7.648560 37.208640 5
69.959730 4.903745 37.670478 5
70.156472 2.097988 37.932389 5
70.136743 -0.776266 38.000528 5
69.823821 -3.752036 37.805133 5
69.229178 -6.838073 37.357106 5
68.329112 -10.054452 36.635278 5
67.168656 -13.398555 35.681231 9
66.147308 -16.736262 34.859523 9
64.868575 -20.212492 33.808939 9
63.287258 -23.856424 32.488873 9
61.298419 -27.724130 30.804516 9
58.801937 -31.875689 28.665731 9
55.551581 -36.440437 25.849944 9
49.587346 -42.330029 20.579477 9
25.282331 90.360375 1.225127 3
3.955047 89.094157 -17.954985 3
19.667412 84.186791 -3.889500 1
18.940383 80.849684 -4.572663 1
18.436797 77.483794 -5.050257 1
18.482852 74.082573 -5.029311 1
18.500837 70.685254 -5.028456 1
18.482392 67.290394 -5.055211 1
17.506370 63.901985 -5.936768 4
17.522417 60.495138 -5.922358 4
17.541850 57.088508 -5.899794 4
17.493992 53.679437 -5.932538 4
29.941356 47.578405 5.278544 9
41.241066 45.123666 15.446751 9
47.338010 42.522457 20.947301 9
50.985714 39.839104 24.252820 9
53.413335 37.112990 26.467020 9
55.513603 34.405696 28.391230 9
57.298059 31.705743 30.035866 9
58.776292 29.001941 31.409622 9
60.111160 26.308268 32.658626 9
61.333037 23.624067 33.810143 9
62.423462 20.941109 34.847666 9
63.327515 18.242885 35.722074 9
64.393739 15.596079 36.745570 9
65.323836 12.939135 37.650982 9
65.776317 10.184478 38.132903 9
66.077361 7.395302 38.483544 9
65.425147 4.351795 37.986350 9
65.491665 1.482671 38.136404 9
65.464036 -1.421854 38.206914 9
65.350678 -4.363464 38.205559 9
65.785593 -7.143539 38.698095 9
65.381400 -10.202437 38.446768 9
64.314514 -13.513524 37.610117 9
63.163893 -16.895911 36.704873 9
62.179170 -20.260439 35.953467 9
60.153296 -24.068723 34.282232 9
58.151438 -27.937135 32.639873 9
55.805926 -32.018249 30.700013 9
52.402771 -36.633665 27.829909 9
11.654970 101.927752 -5.445414 2
11.662525 98.452009 -5.500909 2
20.351886 93.932197 2.065349 3
21.972253 90.403787 3.438035 3
0.443233 89.128910 -15.498973 3
17.385580 84.130060 -0.669007 1
16.871975 80.786307 -1.152866 1
9.833299 74.334726 -7.382685 1
15.511016 70.685655 -2.413955 1
15.567013 67.289222 -2.375830 1
18.324550 63.877820 0.040240 4
18.311005 60.519114 0.028345 4
18.278601 57.159453 0.005355 4
18.280314 53.799297 0.017794 4
-1.016058 49.579932 -16.908945 4
24.951513 47.456057 5.913170 9
36.391492 44.975072 15.982578 9
42.635241 42.353352 21.493574 9
47.234180 39.730857 25.564419 9
50.237598 37.049747 28.238803 9
52.557635 34.358913 30.317511 9
54.308076 31.647045 31.900592 9
55.876177 28.948669 33.327856 9
57.251565 26.254773 34.590258 9
58.357468 23.544358 35.620602 9
59.700717 20.900478 36.863040 9
60.856869 18.247916 37.945630 9
61.821116 15.578056 38.864292 9
62.715403 12.910389 39.725886 9
63.111237 10.140286 40.155703 9
63.434315 7.354296 40.526459 9
64.064195 4.649002 41.169905 9
64.141289 1.798614 41.334944 9
64.091281 -1.095915 41.393915 9
63.879049 -4.050724 41.316402 9
63.140677 -7.187715 40.785424 9
62.653847 -10.272425 40.479495 9
61.485038 -13.615168 39.585429 9
60.598364 -16.900789 38.943447 9
59.619827 -20.256776 38.227959 9
56.891731 -24.322425 35.998856 9
54.952623 -28.163077 34.463848 9
52.283095 -32.370805 32.303375 9
47.570732 -37.533072 28.381505 9
12.159194 101.413582 0.281526 2
12.145464 97.985987 0.203778 2
16.444436 94.047677 3.831283 3
18.607500 90.451200 5.634074 3
8.370618 88.083097 -3.197028 1
15.318135 84.056376 2.723448 1
11.957186 80.920500 -0.196972 1
12.056292 77.507137 -0.141714 1
12.795711 74.070371 0.469315 1
15.932575 70.578660 3.145015 1
15.935958 67.226043 3.136181 1
17.527543 63.864278 4.497060 4
17.484154 60.532470 4.459799 4
17.499424 57.200432 4.478746 4
17.477963 53.866888 4.471989 4
17.483094 50.532748 4.493907 4
20.274577 47.354564 6.913791 9
31.188043 44.805839 16.310853 9
37.666695 42.166887 21.904563 9
42.639970 39.546227 26.210063 9
46.172504 36.893585 29.283185 9
48.978275 34.239501 31.736883 9
51.053899 31.555675 33.568518 9
52.783613 28.869740 35.107854 9
54.605153 26.237194 36.730192 9
55.898878 23.555684 37.904499 9
57.304974 20.921911 39.179432 9
58.455945 18.267877 40.240214 9
59.407617 15.595107 41.134823 9
60.051136 12.871483 41.770330 9
60.480998 10.106899 42.227866 9
60.770077 7.310714 42.569967 9
61.059852 4.513859 42.917659 9
61.132739 1.656507 43.085238 9
61.038110 -1.256117 43.115169 9
60.838734 -4.212260 43.061266 9
60.488588 -7.230907 42.884546 9
59.944419 -10.332599 42.548504 9
58.750885 -13.679779 41.666144 9
58.005639 -16.912573 41.172015 9
57.046118 -20.255775 40.502502 9
54.679796 -24.170127 38.645832 9
51.248531 -28.578992 35.895055 9
33.289890 -38.985846 20.843777 9
36.903084 -40.854126 24.090857 9
6.598274 108.718324 0.967596 2
6.544504 105.253654 0.838140 2
12.426436 100.943347 5.690096 2
12.096714 97.598521 5.343967 2
13.523580 94.042868 6.477197 3
15.261120 90.494672 7.878033 3
8.805615 87.758267 2.411835 1
13.397402 83.971710 6.220389 1
12.116972 80.704192 5.108035 1
12.099692 77.336838 5.062005 1
12.069463 73.971809 5.011421 1
14.928963 70.517985 7.393332 1
14.897129 67.190307 7.354141 1
15.746135 63.857089 8.060787 4
15.649744 60.539332 7.979852 4
15.623157 57.220241 7.963741 4
15.588231 53.899511 7.946847 4
15.597219 50.578622 7.973046 4
15.547467 47.252990 7.956163 9
25.853474 44.631937 16.637235 9
32.532061 41.971764 22.277649 9
37.497459 39.315265 26.484526 9
41.335981 36.660119 29.750184 9
44.611153 34.030500 32.547578 9
47.168607 31.384823 34.747433 9
49.637604 28.786022 36.877490 9
52.513425 26.307672 39.352627 9
53.798818 23.628461 40.499560 9
54.837178 20.931235 41.444371 9
55.859649 18.251063 42.380695 9
56.534189 15.518488 43.030759 9
57.074391 12.766698 43.573523 9
57.556051 10.007752 44.072481 9
57.830770 7.202741 44.403771 9
58.024903 4.375833 44.673163 9
58.105300 1.514551 44.853145 9
57.970497 -1.414639 44.859339 9
57.760241 -4.379183 44.808571 9
57.406607 -7.403477 44.644481 9
56.859879 -10.509618 44.326036 9
56.139575 -13.699166 43.869913 9
55.253545 -16.976787 43.283076 9
54.126632 -20.376778 42.503604 9
52.723002 -23.922756 41.502432 9
48.928208 -28.445960 38.528478 9
40.315840 -35.015537 31.578966 9
5.704851 108.357660 5.437529 2
5.898896 104.882108 5.507383 2
9.305198 100.962224 8.216192 2
9.365084 97.565221 8.191108 2
11.355432 93.948963 9.755546 3
11.863000 90.541581 10.111706 3
10.697675 87.305136 9.102601 1
11.399945 83.894227 9.632017 1
8.787887 80.727837 7.448704 1
8.773292 77.356085 7.403154 1
10.279157 73.920730 8.612313 1
13.001625 70.486702 10.827081 1
12.997499 67.171030 10.810489 1
13.079432 63.855435 10.871149 4
13.073499 60.541549 10.866279 4
13.090408 57.227702 10.886759 4
13.076268 53.912612 10.888353 4
13.059682 50.595891 10.894548 4
11.267225 47.178884 9.449912 9
20.524824 44.462854 17.079708 9
27.228900 41.768147 22.618488 9
32.172733 39.073348 26.717587 9
36.124154 36.393405 30.007228 9
39.521086 33.742517 32.846746 9
42.144347 31.071504 35.056639 9
47.847128 28.897472 39.794291 9
50.085756 26.326137 41.697383 9
51.223416 23.621873 42.703593 9
52.134248 20.899766 43.529280 9
52.931954 18.172755 44.267648 9
53.589715 15.430766 44.896867 9
54.108359 12.668350 45.417767 9
54.515893 9.886304 45.853396 9
54.823882 7.082834 46.213349 9
54.993125 4.243792 46.465811 9
55.035783 1.366736 46.620934 9
54.909724 -1.565384 46.644641 9
54.724704 -4.527368 46.626621 9
54.321548 -7.570565 46.437562 9
53.761755 -10.684309 46.127938 9
53.073768 -13.865775 45.721252 9
52.164256 -17.152619 45.142145 9
51.023753 -20.557456 44.383539 9
49.463952 -24.159672 43.293572 9
46.981163 -28.169472 41.465791 9
30.655232 -37.745272 28.457791 9
1.945104 108.475308 7.552251 2
2.366813 104.957061 7.795309 2
5.872409 101.022861 10.515792 2
5.916952 97.622935 10.472836 2
8.417041 93.944973 12.405019 3
8.452038 90.587704 12.369479 3
8.584321 87.226391 12.419088 1
8.583570 83.882331 12.369152 1
5.344307 80.757912 9.728456 1
5.320929 77.381223 9.674097 1
7.406419 73.916354 11.319032 1
10.251576 70.480773 13.581029 1
10.270318 67.167064 13.582100 1
10.243226 63.854783 13.553374 4
10.270242 60.542402 13.575055 4
10.239657 57.229397 13.557494 4
10.234276 53.915722 13.567146 4
10.199627 50.599514 13.560308 4
5.760618 47.039856 10.026860 9
15.029272 44.286943 17.497457 9
21.794000 41.559301 22.964145 9
26.781795 38.831510 27.010502 9
30.828270 36.124759 30.306973 9
34.276693 33.444013 33.128939 9
36.997811 30.750532 35.373016 9
44.920709 28.848550 41.787935 9
46.573501 26.180230 43.184874 9
47.854707 23.486219 44.289627 9
48.956400 20.786489 45.256127 9
49.818872 18.062752 46.036780 9
50.518334 15.321173 46.692727 9
51.066124 12.557764 47.233207 9
51.509886 9.777302 47.696441 9
51.766669 6.955682 48.016419 9
51.888222 4.098526 48.234692 9
51.927294 1.214269 48.393526 9
51.807150 -1.721864 48.432028 9
51.559373 -4.707203 48.375655 9
51.159528 -7.754444 48.205296 9
50.581589 -10.878063 47.900671 9
49.772544 -14.102751 47.420186 9
48.683973 -17.454409 46.726078 9
47.231757 -20.974113 45.752506 9
45.165656 -24.768174 44.302523 9
41.822095 -29.112619 41.853418 9
2.379484 101.088929 12.803247 2
2.455595 97.679619 12.779778 2
4.488267 94.053112 14.296554 3
5.047619 90.630997 14.667538 3
-7.440400 88.404351 4.820463 1
4.630064 83.958750 14.228448 1
1.896823 80.786837 12.040615 1
1.918140 77.402513 12.019732 1
3.237950 73.966131 13.024845 1
6.867448 70.493692 15.849453 1
6.888496 67.174785 15.851209 1
6.626706 63.858767 15.638460 4
6.626998 60.538256 15.638689 4
6.640752 57.217767 15.656861 4
6.630068 53.896192 15.663248 4
6.614971 50.573037 15.673566 4
0.128410 46.897631 10.616173 9
9.520797 44.114683 18.018538 9
16.251828 41.347391 23.339153 9
21.224838 38.580833 27.286758 9
25.360932 35.845402 30.583676 9
28.869833 33.134511 33.394406 9
31.678948 30.415948 35.662296 9
40.023545 28.528747 42.268211 9
42.021926 25.882197 43.910311 9
43.727787 23.231511 45.328920 9
45.017602 20.544072 46.427679 9
46.069590 17.837742 47.346224 9
46.903543 15.107421 48.100248 9
47.531935 12.347400 48.699737 9
47.986344 9.556825 49.169591 9
48.343138 6.746960 49.569589 9
48.498530 3.887973 49.819069 9
48.461582 0.974348 49.925450 9
48.316666 -1.978416 49.954729 9
47.980045 -4.998766 49.842104 9
47.467184 -8.089744 49.600037 9
46.733184 -11.272456 49.194157 9
45.614745 -14.608670 48.498514 9
44.165349 -18.095546 47.555513 9
41.993611 -21.882980 46.063422 9
38.795879 -26.109191 43.789631 9
21.827159 -35.590003 30.901663 9
-9.516347 102.304764 8.700635 2
-9.112528 98.748571 8.919633 2
-0.828181 94.314682 15.179648 3
1.584747 90.678044 16.956056 3
-0.926605 84.156662 14.914324 1
-6.756161 81.155126 10.399542 1
-7.702882 74.296366 9.601293 1
6.328328 70.421359 20.334304 1
6.302366 67.132240 20.299029 1
1.850141 63.869493 16.877607 4
1.894494 60.527791 16.911615 4
1.875572 57.185791 16.904914 4
1.915762 53.844424 16.951343 4
1.955657 50.502876 17.005354 4
-5.655180 46.750992 11.203119 9
3.725392 43.928093 18.431886 9
10.512406 41.125637 23.678488 9
15.607845 38.331164 27.634560 9
19.786941 35.562351 30.894316 9
23.321930 32.816910 33.666434 9
26.256916 30.076979 35.984873 9
34.720028 28.161499 42.537365 9
36.716623 25.479664 44.147352 9
38.498647 22.806239 45.598996 9
40.016421 20.124572 46.854467 9
41.279539 17.426577 47.921306 9
42.305727 14.706210 48.813284 9
43.092290 11.953968 49.528622 9
43.664524 9.166391 50.086910 9
44.052092 6.342234 50.511059 9
44.201615 3.461215 50.760768 9
44.181296 0.531823 50.888332 9
43.932463 -2.468506 50.849543 9
43.463715 -5.546228 50.651439 9
42.689464 -8.735258 50.229661 9
41.540254 -12.068857 49.532360 9
39.983702 -15.571960 48.536015 9
37.962927 -19.279389 47.198758 9
35.294474 -23.272659 45.383408 9
31.603675 -27.711126 42.809257 9
10.602157 -38.670436 27.206792 9
-5.386840 94.484333 16.731771 3
-3.293111 90.864561 18.223363 3
-6.569883 84.356009 15.646044 1
-7.219896 80.984307 15.109158 1
-19.579479 78.220192 5.809859 1
-13.076257 74.389669 10.646729 1
1.965137 70.462707 21.890365 1
2.003197 67.155920 21.902701 1
-3.666772 63.884273 17.646106 4
-3.598665 60.513148 17.697139 4
-3.608549 57.142028 17.697982 4
-3.592825 53.770759 17.726265 4
-3.675375 50.394698 17.689183 4
-11.304461 46.615279 12.007944 9
-2.193440 43.738295 18.873307 9
4.667842 40.901493 24.059664 9
9.985053 38.087366 28.095793 9
14.028242 35.268014 31.184252 9
17.591473 32.486944 33.919556 9
21.648078 29.847418 37.029563 9
29.235155 27.779001 42.783415 9
31.252088 25.063874 44.378542 9
33.078451 22.361356 45.837360 9
34.573175 19.640160 47.054685 9
35.852840 16.909496 48.117772 9
36.862505 14.150603 48.985877 9
37.648544 11.363067 49.693873 9
38.240764 8.545030 50.264253 9
38.610330 5.682460 50.675871 9
38.734132 2.761293 50.911943 9
38.619321 -0.225966 50.978254 9
38.289460 -3.282123 50.892797 9
37.666215 -6.437420 50.598022 9
36.682071 -9.722826 50.044656 9
35.371955 -13.141510 49.259472 9
33.631173 -16.739254 48.166030 9
31.289418 -20.588711 46.639867 9
28.194057 -24.765081 44.570215 9
23.853946 -29.471190 41.597676 9
-8.928170 94.536074 19.102140 3
-8.696816 91.097893 19.192738 3
-12.599921 81.131261 16.154087 1
-12.966438 77.704806 15.841820 1
-12.913610 74.254721 15.845235 1
-12.913398 70.808966 15.818966 1
-12.893268 67.363985 15.816093 1
-18.684979 46.392409 11.656761 9
-8.259322 43.543954 19.330066 9
-1.379395 40.667739 24.414918 9
4.010974 37.819147 28.416304 9
8.225009 34.976764 31.563680 9
11.757686 32.153916 34.219262 9
18.523404 29.806179 39.242755 9
23.568310 27.381805 43.013533 9
25.675464 24.642298 44.644742 9
27.475516 21.898973 46.058231 9
28.992049 19.144684 47.271421 9
30.246086 16.372906 48.299887 9
31.269006 13.580079 49.166755 9
32.027606 10.750848 49.848152 9
32.527118 7.876588 50.348265 9
32.871791 4.971554 50.743250 9
32.939552 2.000411 50.944793 9
32.751875 -1.041755 50.969020 9
32.309359 -4.164413 50.816935 9
31.582310 -7.385454 50.467666 9
30.465497 -10.746104 49.845865 9
28.973812 -14.256588 48.963333 9
26.960156 -17.977280 47.715030 9
24.285681 -21.973161 46.002440 9
20.701256 -26.353439 43.648263 9
1.663051 -36.245214 30.200512 9
-25.349319 46.212150 11.985619 9
-14.538534 43.341094 19.760448 9
-7.659419 40.422514 24.731194 9
-2.104884 37.545509 28.761901 9
2.165473 34.667851 31.881783 9
5.709277 31.805852 34.489488 9
15.314574 29.757248 41.428990 9
17.754189 26.975144 43.259926 9
19.875559 24.199220 44.870592 9
21.665315 21.415996 46.251651 9
23.245170 18.634013 47.490032 9
24.476288 15.820692 48.487110 9
25.420738 12.975353 49.287434 9
26.162537 10.104639 49.951080 9
26.706823 7.202166 50.481997 9
26.937014 4.234185 50.797817 9
26.974541 1.218136 50.985197 9
26.694163 -1.884567 50.955874 9
26.133294 -5.075872 50.737034 9
25.260183 -8.374967 50.306945 9
23.983112 -11.819777 49.601703 9
22.266953 -15.435843 48.597664 9
20.012171 -19.270473 47.226032 9
16.947096 -23.431352 45.297370 9
12.731966 -28.062248 42.575506 9
-11.733482 -39.821902 25.664185 9
-31.678177 46.053710 12.690197 9
-21.120821 43.124432 20.110645 9
-14.043565 40.175822 25.108063 9
-8.411446 37.262548 29.103672 9
-4.095971 34.347235 32.187539 9
-0.499451 31.449258 34.776992 9
9.269985 29.370739 41.675211 9
11.746777 26.553429 43.496087 9
13.922771 23.745561 45.114504 9
15.768916 20.931974 46.510419 9
17.272996 18.098940 47.675606 9
18.522670 15.249874 48.671327 9
19.486320 12.369646 49.475916 9
20.173325 9.449862 50.096272 9
20.632410 6.490883 50.566605 9
20.820144 3.474646 50.857240 9
20.768583 0.398818 50.990893 9
20.377043 -2.770342 50.898497 9
19.731510 -6.022949 50.640225 9
18.672646 -9.411650 50.106847 9
17.217221 -12.946861 49.311025 9
15.263679 -16.673186 48.184032 9
12.655502 -20.657024 46.619797 9
9.151879 -24.999248 44.455055 9
-9.262885 -34.366827 32.084813 9
-38.163552 45.891491 13.416470 9
-27.755943 42.910029 20.564311 9
-20.607361 39.922268 25.497246 9
-14.903114 36.971145 29.452959 9
-10.479275 34.023102 32.543551 9
-6.831841 31.088483 35.112741 9
3.081724 28.977011 41.953185 9
5.636341 26.129047 43.791105 9
7.827139 23.283256 45.388999 9
9.596576 20.418124 46.708026 9
11.112851 17.546578 47.862766 9
12.340059 14.653323 48.829104 9
