ply
format ascii 1.0
element vertex 1408
property float x
property float y
property float z
property int scalar_Label
end_header
52.638062 1.407116 48.037315 9
52.605755 -2.202549 47.973190 9
52.455689 -5.858668 47.766136 9
52.142992 -9.580812 47.362226 9
51.621307 -13.391873 46.705722 9
50.883402 -17.304901 45.787837 9
49.911679 -21.337060 44.587313 9
48.527255 -25.564692 42.889169 9
40.148267 -32.478028 32.786979 9
32.678809 -39.321440 23.773012 9
31.808407 -43.737227 22.683748 9
38.099807 128.361244 37.250448 3
38.060653 124.584181 37.221224 3
38.044442 120.812986 37.217947 3
37.007570 117.289558 36.016407 3
35.607442 113.824500 34.387923 3
34.226190 110.323808 32.780770 3
32.777580 106.803800 31.093792 3
31.328753 103.249342 29.405733 3
29.893802 99.657618 27.733113 3
28.433610 96.034157 26.030043 3
26.911249 92.381863 24.253205 3
23.765630 88.871181 20.571867 3
13.446398 85.964443 8.477253 1
16.903684 81.631295 12.537515 1
17.863956 77.571805 13.668505 1
17.948226 73.589718 13.771243 1
17.973365 69.614975 13.803660 1
14.521304 65.720190 9.757645 4
14.542790 61.698442 9.783831 4
14.542240 57.677550 9.783187 4
14.570139 53.656891 9.814911 4
8.778649 49.420211 3.021643 9
21.309011 45.960709 17.712245 9
27.595240 42.453735 25.079968 9
32.077993 38.983029 30.332059 9
35.597118 35.548683 34.453352 9
38.452347 32.140536 37.795324 9
42.019381 28.902114 41.971308 9
43.817653 25.514477 44.072231 9
45.206257 22.110065 45.691908 9
46.311250 18.691475 46.978154 9
47.152458 15.249035 47.954195 9
47.853567 11.795121 48.765080 9
48.321958 8.302722 49.302148 9
48.634963 4.778531 49.656077 9
48.800443 1.216741 49.836060 9
48.763290 -2.404523 49.777415 9
48.594355 -6.075632 49.563220 9
48.188179 -9.834271 49.069702 9
47.595242 -13.676648 48.356030 9
46.691692 -17.652341 47.276807 9
45.436086 -21.790773 45.783303 9
43.677556 -26.162898 43.698339 9
39.069697 -31.662206 38.267672 9
33.995679 -37.504600 32.287906 9
27.405143 107.191289 31.556049 3
27.392842 103.360249 31.545664 3
27.396463 99.534650 31.553222 3
26.144457 95.891758 30.120648 3
24.634765 92.250857 28.392303 3
21.307217 88.771484 24.579191 3
11.286837 85.837205 13.091395 1
12.474167 81.710303 14.454815 1
7.039528 78.058792 8.224811 1
8.101589 73.918406 9.443943 1
10.226044 69.772927 11.880921 1
11.237941 65.715985 13.041857 4
11.234385 61.697228 13.038105 4
11.210703 57.678595 13.010951 4
11.201806 53.659218 13.000423 4
2.800737 49.331326 3.366753 9
15.509735 45.837222 17.938460 9
21.978728 42.301745 25.354846 9
26.528825 38.798124 30.570675 9
30.097729 35.330693 34.661154 9
33.036462 31.894283 38.028784 9
36.659494 28.624453 42.180834 9
38.520891 25.209924 44.312604 9
40.083082 21.797709 46.101017 9
41.363255 18.376881 47.565775 9
42.384771 14.938626 48.733659 9
43.182786 11.477817 49.644974 9
43.746293 7.981511 50.287091 9
44.087443 4.441352 50.673930 9
44.269155 0.862016 50.877634 9
44.218734 -2.783168 50.814826 9
43.951048 -6.501347 50.502538 9
43.392001 -10.324542 49.855775 9
42.622572 -14.242216 48.967387 9
41.414709 -18.337676 47.575793 9
39.779029 -22.628438 45.693130 9
37.549513 -27.193383 43.128935 9
32.296312 -32.949142 37.096100 9
0.116634 -49.143887 0.177014 9
0.432114 107.310962 7.902100 2
3.783248 102.630177 11.655872 2
3.796512 98.514779 11.667454 2
16.224556 92.878391 25.599641 3
16.239606 88.957650 25.614008 3
6.168709 85.991495 14.319486 1
4.072741 78.022261 11.965716 1
4.044298 73.945932 11.932518 1
6.358658 69.786728 14.526640 1
6.964658 65.733356 15.205504 4
6.968685 61.702965 15.209698 4
6.935136 57.672788 15.172079 4
6.928088 53.641846 15.164498 4
-3.161479 49.245212 3.851670 9
9.670067 45.714756 18.240697 9
16.229904 42.144916 25.597496 9
20.881225 38.609980 30.814541 9
24.518228 35.110584 34.894496 9
27.452135 31.635863 38.186339 9
31.219886 28.343886 42.413393 9
33.074986 24.892421 44.496102 9
34.649988 21.445943 46.265011 9
35.933162 17.989672 47.706973 9
36.951012 14.515043 48.851712 9
37.788002 11.026372 49.793940 9
38.361703 7.497697 50.441245 9
38.734430 3.930816 50.863506 9
38.841702 0.300661 50.988440 9
38.730499 -3.393263 50.868735 9
38.386702 -7.165242 50.488580 9
37.758397 -11.041260 49.789790 9
36.809400 -15.045778 48.731829 9
35.460234 -19.219196 47.225628 9
33.666758 -23.595183 45.221741 9
31.153928 -28.290036 42.411899 9
25.121915 -34.347837 35.657695 9
17.424149 -41.234616 27.037018 9
-1.646218 102.914354 12.705813 2
-1.632698 98.772168 12.710826 2
0.425025 94.388887 14.958255 3
4.419781 89.863292 19.330748 3
-0.150119 86.253482 14.313030 1
-0.219844 82.163863 14.230746 1
-4.481426 78.345739 9.552791 1
-1.578070 74.050980 12.732610 1
1.395067 69.839301 15.989997 1
1.313942 65.779786 15.899108 4
1.323511 61.718404 15.908638 4
1.306557 57.657471 15.890045 4
1.298288 53.595874 15.881942 4
1.240263 49.531169 15.820240 4
3.704716 45.589052 18.525601 9
10.352666 41.983733 25.819337 9
15.144517 38.419513 31.078505 9
18.861486 34.888777 35.159781 9
21.821994 31.378963 38.412343 9
25.610988 28.049725 42.574074 9
27.527863 24.569072 44.683805 9
29.109155 21.086754 46.426368 9
30.406640 17.596243 47.858549 9
31.406747 14.082240 48.965495 9
32.249453 10.558373 49.900691 9
32.780411 6.985038 50.494953 9
33.102615 3.370961 50.861225 9
33.180544 -0.302083 50.960610 9
33.048914 -4.036749 50.831204 9
32.606879 -7.869896 50.362523 9
31.886274 -11.807041 49.589527 9
30.820954 -15.880966 48.439801 9
29.362945 -20.122835 46.860867 9
27.324590 -24.612373 44.647218 9
24.546524 -29.431066 41.624411 9
17.725758 -35.789906 34.174051 9
7.174540 -43.757583 22.639315 9
-8.327846 95.015895 12.476344 3
-8.171414 90.828383 12.631064 3
-15.354398 87.324370 4.916885 3
-5.715079 69.966232 15.224815 1
-4.699226 65.832724 16.311082 4
-4.683652 61.736009 16.326185 4
-4.691505 57.639931 16.317762 4
-4.699042 53.543276 16.311279 4
-4.661682 49.446905 16.354549 4
-2.355094 45.461813 18.833055 9
4.483561 41.827077 26.173380 9
9.280479 38.223906 31.325363 9
13.079009 34.660959 35.407949 9
16.085406 31.117191 38.642353 9
19.937102 27.755094 42.784412 9
21.858408 24.237362 44.857767 9
23.469971 20.721928 46.600302 9
24.766842 17.194209 48.006744 9
25.828966 13.654332 49.162841 9
26.573158 10.075733 49.979456 9
27.127589 6.470515 50.594042 9
27.416935 2.813298 50.925908 9
27.440653 -0.908149 50.974545 9
27.222576 -4.700090 50.765574 9
26.737688 -8.580351 50.272276 9
25.940501 -12.573990 49.446015 9
24.709599 -16.731038 48.156845 9
23.086680 -21.058629 46.449618 9
20.832743 -25.652021 44.068530 9
15.606667 -31.328896 38.506701 9
9.907073 -37.344026 32.440925 9
-13.963712 70.129685 13.439221 1
-16.237287 65.999799 11.049890 4
-22.624795 48.944612 4.354507 9
-8.492203 45.333976 19.185005 9
-1.554952 41.663705 26.470080 9
3.285466 38.023132 31.557654 9
7.204975 34.430524 35.681140 9
10.197933 30.846163 38.834664 9
14.099774 27.448426 42.943062 9
16.057125 23.896447 45.014054 9
17.669100 20.342497 46.724703 9
18.988931 16.780022 48.130870 9
20.071467 13.205710 49.290108 9
20.800339 9.586936 50.080484 9
21.309055 5.935223 50.642033 9
21.550836 2.230409 50.925801 9
21.596197 -1.523210 51.005781 9
21.266845 -5.378575 50.695248 9
20.678397 -9.322399 50.115496 9
19.769665 -13.383423 49.202571 9
18.425744 -17.609538 47.836313 9
16.599989 -22.034682 45.968129 9
14.129552 -26.732636 43.427822 9
8.277740 -32.643209 37.351000 9
1.495750 -39.064808 30.305146 9
-28.932678 48.855554 4.981062 9
-14.787408 45.201714 19.501204 9
-7.729198 41.496000 26.753126 9
-2.810243 37.819740 31.812818 9
1.115969 34.186590 35.856461 9
4.356392 30.586652 39.198949 9
8.203071 27.142456 43.165437 9
10.198071 23.556479 45.235073 9
11.810638 19.964204 46.914857 9
13.114181 16.360815 48.280131 9
14.138634 12.738025 49.361652 9
14.884227 9.083627 50.159736 9
15.373222 5.389803 50.697298 9
15.587326 1.641221 50.955697 9
15.518016 -2.176306 50.926329 9
15.175168 -6.073038 50.619463 9
14.490547 -10.078844 49.965372 9
13.465351 -14.208707 48.965504 9
12.002653 -18.505679 47.520857 9
9.975356 -23.027519 45.501645 9
7.184889 -27.861903 42.705068 9
0.522694 -34.064512 35.950862 9
-8.237079 -41.195875 27.056896 9
-35.052351 48.775138 5.920645 9
-21.226070 45.065927 19.804376 9
-13.992853 41.327012 27.075515 9
-9.023250 37.612649 32.078307 9
-5.053451 33.941630 36.080830 9
-1.333941 30.349103 39.835012 9
2.142597 26.825170 43.348136 9
4.167430 23.202797 45.407888 9
5.779172 19.570601 47.056191 9
7.123860 15.933964 48.439574 9
8.117419 12.266957 49.473816 9
8.874480 8.575653 50.273951 9
9.312078 4.833206 50.756923 9
9.489747 1.038368 50.982547 9
9.371639 -2.828437 50.915057 9
8.950157 -6.782063 50.547031 9
8.169185 -10.850196 49.822489 9
7.009422 -15.053889 48.722384 9
5.363705 -19.440183 47.139761 9
3.133839 -24.059644 44.976777 9
-0.012869 -29.041374 41.901107 9
-7.545565 -35.551949 34.443570 9
-19.534403 -43.804337 22.537884 9
-41.468806 48.686792 6.682472 9
-27.809792 44.926710 20.099725 9
-20.461917 41.149823 27.326646 9
-15.364771 37.401231 32.348199 9
-11.345830 33.692041 36.315073 9
-7.142098 30.105670 40.466468 9
-4.025436 26.503509 43.554519 9
-2.003513 22.840007 45.571938 9
-0.321222 19.177096 47.259592 9
0.949060 15.489191 48.546596 9
1.982619 11.788529 49.604947 9
2.677705 8.046316 50.334995 9
3.121858 4.265269 50.822701 9
3.242398 0.419235 50.996993 9
3.048956 -3.503589 50.867519 9
2.541998 -7.516729 50.434968 9
1.643143 -11.653557 49.622853 9
0.385457 -15.922357 48.463892 9
-1.439417 -20.397004 46.754535 9
-3.947734 -25.136150 44.381605 9
-9.787065 -30.981631 38.756288 9
-16.179986 -37.183952 32.597521 9
-34.489724 44.786505 20.440788 9
-27.008461 40.972435 27.639954 9
-21.832474 37.185882 32.630382 9
-17.779763 33.436463 36.546619 9
-12.990300 29.864421 41.173502 9
-10.316266 26.176013 43.774253 9
-8.264658 22.474891 45.781691 9
-6.564475 18.773474 47.455906 9
-5.314537 15.041944 48.702232 9
-4.310053 11.295774 49.717200 9
-3.631111 7.510052 50.424148 9
-3.234879 3.679323 50.864305 9
-3.167564 -0.218067 50.993582 9
-3.418965 -4.193877 50.821998 9
-4.032359 -8.271929 50.308380 9
-5.036299 -12.474829 49.425727 9
-6.487470 -16.834214 48.120187 9
-8.508239 -21.403046 46.275169 9
-11.308305 -26.266436 43.690756 9
-17.789860 -32.337452 37.592998 9
-25.399787 -38.961124 30.426164 9
-41.362134 44.640968 20.740541 9
-33.678701 40.792183 27.974228 9
-28.425163 36.966898 32.931306 9
-24.331589 33.177214 36.803962 9
-19.324256 29.581399 41.538312 9
-16.798105 25.835365 43.948470 9
-14.728307 22.093608 45.934820 9
-13.052658 18.346105 47.555825 9
-11.702217 14.587113 48.876265 9
-10.722685 10.795603 49.853424 9
-10.088171 6.960832 50.511765 9
-9.760210 3.075788 50.887552 9
-9.733805 -0.871402 50.985690 9
-10.076593 -4.908260 50.743085 9
-10.743281 -9.039843 50.202490 9
-11.882709 -13.316462 49.224930 9
-13.501334 -17.759723 47.804887 9
-15.760086 -22.433785 45.792413 9
-18.889948 -27.431741 42.972341 9
-26.217158 -33.786808 36.236930 9
-36.152007 -41.174682 27.076504 9
-40.579525 40.602981 28.236351 9
-35.195823 36.740696 33.207433 9
-31.002601 32.914402 37.090544 9
-25.974946 29.274618 41.744147 9
-23.395885 25.490435 44.155265 9
-21.296598 21.708944 46.131040 9
-19.608471 17.920193 47.734545 9
-18.270339 14.116668 49.022024 9
-17.344687 10.273868 49.936347 9
-16.702751 6.397651 50.595780 9
-16.425873 2.460818 50.925980 9
-16.465609 -1.541884 50.971618 9
-16.866159 -5.633211 50.692510 9
-17.711902 -9.847537 50.011785 9
-18.948662 -14.190233 48.979520 9
-20.760496 -18.724821 47.427838 9
-23.263381 -23.506479 45.251437 9
-26.769516 -28.652247 42.165909 9
-35.045553 -35.319158 34.731359 9
-48.918985 40.335350 27.353100 9
-42.118081 36.509463 33.490613 9
-37.884307 32.640597 37.328814 9
-32.769296 28.961681 41.963113 9
-30.110864 25.141351 44.397852 9
-28.030440 21.313700 46.319350 9
-26.359810 17.478543 47.878684 9
-25.034293 13.629022 49.134019 9
-24.107345 9.742553 50.037602 9
-23.481454 5.820026 50.677079 9
-23.262586 1.829262 50.957733 9
-23.405545 -2.237233 50.920400 9
-23.871765 -6.386074 50.599972 9
-24.842821 -10.671790 49.834312 9
-26.259380 -15.100814 48.677107 9
-28.262585 -19.727260 47.002745 9
-31.021809 -24.620355 44.660656 9
-36.354412 -30.318937 40.028205 9
-44.754605 -37.071642 32.667655 9
-81.631886 38.680701 5.271371 8
-52.121003 36.068719 31.215878 9
-44.961216 32.357542 37.542287 9
-39.754772 28.638379 42.159419 9
-37.092428 24.772226 44.549472 9
-34.902454 20.911684 46.530970 9
-33.207490 17.035101 48.084208 9
-31.908800 13.137416 49.295988 9
-31.016641 9.201211 50.157536 9
-30.481208 5.218839 50.712776 9
-30.281733 1.179784 50.980191 9
-30.470483 -2.939915 50.914331 9
-31.081576 -7.163161 50.485751 9
-32.130772 -11.510595 49.681170 9
-33.722014 -16.024671 48.410263 9
-35.983098 -20.759338 46.562086 9
-39.091587 -25.788473 43.982497 9
-46.764677 -32.173198 37.426516 9
-88.826345 38.506109 6.242155 8
-76.632365 34.635564 16.750758 8
-66.799442 30.875358 25.237995 9
-49.497290 28.063153 40.139696 9
-44.333500 24.384612 44.629141 9
-42.002339 20.492538 46.694347 9
-40.322120 16.567529 48.207711 9
-39.049952 12.619542 49.377807 9
-38.110610 8.644374 50.269347 9
-37.619283 4.609171 50.783882 9
-37.477889 0.514200 51.005803 9
-37.766471 -3.670211 50.866942 9
-38.507797 -7.965949 50.348313 9
-39.715768 -12.394190 49.438607 9
-41.484743 -16.995779 48.057823 9
-44.088260 -21.860831 45.973076 9
-80.805612 -35.679948 14.763426 8
-96.424933 38.313456 7.013444 8
-84.420122 34.377977 17.133730 8
-77.920218 30.292814 22.640039 8
-73.267763 26.193018 26.602878 8
-62.169479 22.886145 35.979429 9
-53.521735 19.561284 43.304725 9
-49.018715 15.904823 47.159365 9
-47.016592 11.996365 48.923692 9
-45.825722 8.004726 50.015178 9
-45.253683 3.931221 50.595618 9
-45.203104 -0.230454 50.747098 9
-45.679578 -4.501717 50.465491 9
-46.810388 -8.929468 49.644969 9
-49.196690 -13.670935 47.783799 9
-61.177907 -20.707060 37.914970 9
-78.281814 -29.312524 23.786879 8
-103.798184 38.138230 8.122400 8
-92.209375 34.126808 17.679587 8
-85.798946 29.983173 22.994477 8
-81.082099 25.837038 26.927321 8
-76.076410 21.832661 31.104365 8
-73.123806 17.706374 33.605102 8
-70.942760 13.547311 35.481029 8
-66.526496 9.752463 39.196091 9
-64.718873 5.657888 40.780952 9
-64.192711 1.387000 41.324393 9
-68.659465 -3.773110 37.790374 8
-66.354104 -7.756766 39.808050 9
-71.676724 -13.248929 35.596453 8
-74.757290 -18.399434 33.230547 8
-80.895186 -24.339243 28.379719 8
-88.978535 -30.916171 21.956186 8
-100.368828 33.857286 18.089870 8
-93.812249 29.670727 23.407859 8
-89.121982 25.469474 27.236985 8
-84.034486 21.418990 31.392439 8
-81.107207 17.237493 33.824075 8
-78.912526 13.027913 35.676922 8
-77.425025 8.766388 36.971767 8
-76.617566 4.430499 37.730860 8
-76.423853 0.005531 38.007863 8
-76.946309 -4.549930 37.721505 8
-78.209195 -9.267642 36.853260 8
-80.433462 -14.220375 35.227600 8
-83.942367 -19.513914 32.587812 8
-91.265584 -25.770383 26.916949 8
-100.504043 -32.679352 19.735816 8
-102.193813 29.337407 23.701515 8
-97.442080 25.085904 27.498485 8
-92.227810 20.991694 31.666307 8
-89.241785 16.763131 34.096624 8
-87.091435 12.495136 35.881257 8
-85.643928 8.175252 37.124711 8
-84.926314 3.773283 37.806371 8
-84.874745 -0.727549 37.976862 8
-85.527130 -5.358826 37.607297 8
-86.984339 -10.165879 36.619777 8
-89.510774 -15.231735 34.809010 8
-93.499800 -20.679862 31.869691 8
-101.407365 -27.115676 25.888914 8
-131.701005 27.377571 7.988791 7
-120.035198 23.437069 17.005893 7
-100.614028 20.555662 31.968148 8
-97.639218 16.271000 34.342464 8
-95.521143 11.944394 36.070442 8
-94.174391 7.556254 37.217996 8
-93.499284 3.093146 37.861975 8
-93.555032 -1.479275 37.957798 8
-94.368094 -6.192615 37.486112 8
-96.093703 -11.103732 36.329432 8
-98.945505 -16.288656 34.326126 8
-103.509273 -21.911944 31.031406 8
-140.238934 27.066316 8.890215 7
-128.707696 23.055082 17.607397 7
-122.114893 18.816614 22.636403 7
-107.015173 15.681677 34.037243 8
-104.203409 11.376250 36.253438 8
-102.883220 6.928592 37.364586 8
-102.340724 2.390443 37.905344 8
-102.512976 -2.256478 37.923524 8
-103.503984 -7.056165 37.342390 8
-105.795753 -12.127008 35.803601 8
-126.719607 -20.902353 20.391217 7
-148.720277 26.767473 10.006054 7
-137.678753 22.656799 18.171566 7
-131.170952 18.349937 23.030421 7
-126.548465 13.980990 26.520761 7
-124.015885 9.458214 28.494277 7
-122.668195 4.829144 29.613472 7
-122.358083 0.073001 29.986952 7
-123.091907 -4.848434 29.611226 7
-125.139986 -10.018582 28.290581 7
-129.054824 -15.584983 25.624410 7
-139.234267 -22.464806 18.413796 7
-146.977582 22.240368 18.690010 7
-140.396909 17.878464 23.496240 7
-135.913692 13.433518 26.814963 7
-133.519860 8.833162 28.653306 7
-132.246941 4.132875 29.703760 7
-132.038149 -0.698761 30.007877 7
-133.050109 -5.723962 29.455292 7
-135.494775 -11.021666 27.896723 7
-139.996293 -16.754887 24.890229 7
-150.097049 17.373001 23.827233 7
-145.593462 12.865775 27.091648 7
-143.275888 8.193601 28.843771 7
-142.106884 3.417118 29.808131 7
-142.131051 -1.510223 29.954821 7
-143.402340 -6.638586 29.247736 7
-146.253744 -12.067107 27.457080 7
-149.449623 7.095741 -26.044110 7
-150.636984 22.224412 -18.788969 7
-146.950330 20.886097 -20.492494 7
-142.984531 18.863093 -22.599846 7
-139.151104 17.445302 -24.401421 7
-149.114850 -4.101050 -26.671481 7
-146.059100 -2.565282 -26.865022 7
-150.950563 24.925520 -13.267331 7
-147.736906 24.971742 -14.184155 7
-144.256797 24.277936 -15.514500 7
-140.709583 23.508180 -16.906608 7
-137.043899 22.527326 -18.435463 7
-133.132167 21.008292 -20.283337 7
-129.033594 19.163212 -22.339474 7
-125.018032 17.722797 -24.201890 7
-112.367709 12.922564 -30.238368 8
-110.919480 18.005447 -28.496577 8
-109.303670 22.512629 -27.066101 8
-98.388413 6.700016 -37.393344 8
-102.824813 24.192197 -28.437711 8
-98.273831 22.392215 -30.696849 8
-149.997153 -11.512318 -25.085655 7
-146.936575 -9.757547 -25.183279 7
-143.708050 -8.620038 -25.602951 7
-150.962524 26.598040 -8.395602 7
-147.888534 27.005500 -9.101991 7
-144.571111 26.720884 -10.183192 7
-139.749593 22.129635 -13.552805 7
-137.716925 25.802030 -12.582875 7
-134.176503 25.185955 -13.894940 7
-130.525864 24.390645 -15.324169 7
-126.799202 23.523646 -16.814792 7
-122.977064 22.546214 -18.389292 7
-116.892503 16.227019 -22.920422 7
-115.222338 20.724928 -21.540495 8
-113.344875 24.574403 -20.506053 8
-111.311045 27.941620 -19.731201 8
-109.140318 30.907658 -19.175673 8
-106.282758 32.348656 -19.482939 8
-102.306291 31.501244 -21.108820 8
-97.747803 29.615584 -23.361450 8
-92.431211 26.432818 -26.405343 8
-87.032389 23.335252 -29.449407 8
-56.840452 19.799732 -41.042790 9
-55.052740 23.661625 -40.105861 9
-52.738554 26.636293 -39.716629 9
-49.307673 27.904020 -40.408550 9
-46.180544 29.649101 -40.812863 9
-147.715980 -17.683602 -23.714013 7
-145.185742 -13.872851 -22.814767 7
-141.828088 -13.040701 -23.397611 7
-150.938668 28.119844 -3.685910 7
-147.723663 28.015019 -4.635530 7
-143.357556 24.523357 -7.327091 7
-141.170978 27.680949 -6.643654 7
-137.833969 27.467140 -7.695763 7
-134.396103 27.065165 -8.862489 7
-129.493086 22.893135 -12.021148 7
-127.400255 26.243283 -11.261363 7
-123.864161 25.884625 -12.462104 7
-120.132402 25.150278 -13.883184 7
-116.541329 24.863174 -15.086647 8
-114.391646 27.949316 -14.483178 8
-112.213106 30.878195 -13.960386 8
-109.975242 33.597163 -13.548916 8
-105.335246 31.213474 -15.958538 8
-103.971098 35.716317 -14.568477 8
-100.043966 34.969173 -16.109412 8
-95.959459 34.032494 -17.784244 8
-91.622476 32.744282 -19.688482 8
-86.969875 31.017915 -21.877278 8
-81.832519 28.585574 -24.512381 8
-75.370933 24.031098 -28.430333 8
-70.406825 22.340197 -30.731137 8
-66.119194 21.945090 -32.305391 9
-65.113758 27.011016 -30.648104 9
-62.355055 29.136068 -30.739354 9
-59.504888 31.108933 -30.929353 9
-56.676417 33.113290 -31.108199 9
-53.772941 35.004376 -31.365045 9
-50.380470 36.188909 -32.071338 9
-46.255715 36.369277 -33.425720 9
-39.415295 32.855553 -37.149361 9
-32.975085 30.131901 -40.439691 9
-150.493261 -18.553073 -18.701969 7
-147.072305 -17.895871 -19.352114 7
-143.627599 -17.288846 -20.037065 7
-140.199988 -16.587442 -20.687201 7
-150.516844 28.330136 0.301843 7
-147.356515 28.371868 -0.556569 7
-144.120325 28.254975 -1.507042 7
-140.888644 28.230675 -2.426041 7
-137.621883 28.181745 -3.371925 7
-134.304617 28.071317 -4.363953 7
-130.927993 27.884483 -5.410728 7
-127.523913 27.712216 -6.466808 7
-124.066550 27.492074 -7.564705 7
-120.471847 27.029074 -8.806713 7
-116.932086 26.795452 -9.948803 7
-114.881683 30.028511 -9.282826 8
-112.590176 32.628112 -8.946580 8
-110.269877 35.101264 -8.676124 8
-107.715147 37.028882 -8.698566 8
-104.547073 37.683345 -9.415031 8
-100.863762 37.358468 -10.680427 8
-97.020426 36.817141 -12.087184 8
-93.182400 36.389948 -13.455273 8
-86.140313 30.175500 -18.082271 8
-84.777240 34.521695 -16.836322 8
-80.401663 33.470626 -18.638275 8
-75.620819 31.858693 -20.793359 8
-70.345382 29.580340 -23.371087 8
-65.674876 28.477004 -25.311444 9
-64.731994 33.440245 -23.732291 9
-61.700881 35.017195 -24.132418 9
-58.693302 36.644783 -24.513486 9
-55.799331 38.454915 -24.795846 9
-52.699732 39.973331 -25.264470 9
-49.290907 41.073615 -26.001558 9
-45.014693 41.009770 -27.474277 9
-39.466353 39.310225 -29.995706 9
-33.243495 36.878955 -33.026900 9
-25.725249 32.960978 -37.060287 9
-18.841860 30.114212 -40.488834 9
-149.253911 -20.984713 -15.412849 7
-145.761710 -20.512042 -16.148076 7
-142.279120 -19.959743 -16.857112 7
-138.774380 -19.439108 -17.592151 7
-149.957898 28.085321 4.031289 7
-146.819291 28.186412 3.216618 7
-143.664223 28.302621 2.396734 7
-140.447163 28.303779 1.508295 7
-137.198026 28.286982 0.597302 7
-133.971501 28.404255 -0.262010 7
-130.633840 28.295650 -1.246882 7
-127.284962 28.237787 -2.222071 7
-123.908732 28.189079 -3.208331 7
-120.490958 28.117391 -4.222223 7
-116.979385 27.905796 -5.323924 7
-113.585759 28.047266 -6.262723 8
-112.644074 33.647360 -4.399714 8
-110.346982 36.122250 -4.137320 8
-107.745450 37.907040 -4.235167 8
-104.666202 38.704598 -4.857995 8
-101.131624 38.636189 -5.953114 8
-97.432505 38.329676 -7.195033 8
-93.666814 37.989584 -8.476858 8
-89.844742 37.639949 -9.786563 8
-85.918309 37.198617 -11.169942 8
-81.906460 36.708237 -12.605312 8
-77.669342 35.937116 -14.223005 8
-73.291240 35.048453 -15.935995 8
-68.672351 33.891718 -17.831897 8
-66.009847 35.978065 -17.913389 9
-63.061443 37.610380 -18.261103 9
-60.033002 39.132661 -18.682373 9
-57.047892 40.736675 -19.067045 9
-54.056347 42.346383 -19.459113 9
-50.872286 43.699057 -20.015119 9
-47.076705 44.231946 -21.077098 9
-42.484638 43.749347 -22.777091 9
-37.240914 42.511998 -24.973226 9
-31.826183 41.196643 -27.262217 9
-25.886894 39.363481 -29.920438 9
-19.288183 36.882591 -33.040076 9
-11.023291 32.574621 -37.381879 9
-4.011647 30.041798 -40.676847 9
-150.968143 -25.981233 -12.314023 7
-148.152879 -22.891676 -11.861536 7
-144.600788 -22.581433 -12.665254 7
-141.062674 -22.164408 -13.431955 7
-137.510535 -21.741698 -14.207431 7
-149.281326 27.455399 7.554860 7
-146.162372 27.622311 6.783975 7
-143.015024 27.764465 5.989879 7
-139.857903 27.940205 5.199555 7
-136.639956 28.007038 4.345376 7
-133.412441 28.115498 3.497915 7
-130.192463 28.308880 2.678068 7
-126.890170 28.354781 1.773746 7
-123.521761 28.308359 0.810023 7
-120.182804 28.407959 -0.097353 7
-116.760291 28.381976 -1.081629 7
-114.805587 31.738394 -0.396891 8
-112.466562 34.144614 -0.181207 8
-110.141793 36.526915 0.023348 8
-107.542700 38.288448 -0.087372 8
-104.488648 39.112621 -0.682775 8
-101.041421 39.194093 -1.673194 8
-97.418437 39.008625 -2.819965 8
-93.778631 38.876461 -3.958773 8
-90.094729 38.746574 -5.116526 8
-86.338893 38.571869 -6.318872 8
-82.404168 38.172070 -7.663778 8
-78.464741 37.862141 -8.984319 8
-74.424825 37.479801 -10.368579 8
-70.244659 36.968619 -11.849285 8
-64.964596 34.819510 -14.265669 8
-63.774276 39.186517 -13.082707 9
-60.784655 40.717443 -13.482224 9
-57.767429 42.223862 -13.906045 9
-52.414911 40.367959 -16.268735 9
-51.789650 45.373107 -14.708113 9
-48.215459 46.163153 -15.583303 9
-44.123194 46.304233 -16.860081 9
-39.287389 45.541675 -18.700671 9
-34.357099 44.778748 -20.579311 9
-29.159192 43.799686 -22.627793 9
-23.640461 42.556270 -24.880553 9
-17.966028 41.270642 -27.206760 9
-11.552741 39.255774 -30.036238 9
-4.482014 36.657536 -33.292303 9
4.567876 32.009459 -37.918107 9
11.587137 29.929338 -40.996664 9
-17.084960 77.035437 -15.417363 1
-16.334140 81.062921 -14.337669 1
-14.403432 83.832965 -14.089114 1
-11.303276 85.432774 -14.639191 1
-9.061658 92.470405 -13.119950 3
-4.206259 92.463073 -14.830043 3
-0.062156 93.201379 -16.054541 3
-1.354473 103.219112 -12.377907 2
-150.732207 -24.603563 -7.292670 7
-147.180129 -24.320712 -8.088615 7
-143.607844 -24.049140 -8.900644 7
-140.011290 -23.798379 -9.733352 7
-150.911854 24.047569 10.645856 7
-148.495383 26.473164 10.904150 7
-145.389719 26.697964 10.170520 7
-142.273132 26.945945 9.436623 7
-139.118338 27.139356 8.666794 7
-135.959804 27.381083 7.907665 7
-132.741457 27.518863 7.088725 7
-129.531326 27.741196 6.296754 7
-126.282192 27.924012 5.473865 7
-122.951574 27.969245 4.572875 7
-119.604045 28.044505 3.672028 7
-116.479786 28.704358 3.037727 8
-114.481091 31.928997 3.633967 8
-112.126269 34.275201 3.808925 8
-109.761196 36.548593 3.948926 8
-107.159081 38.285902 3.823999 8
-102.542425 35.943367 1.662257 8
-100.583439 39.019266 2.186492 8
-97.106171 39.106081 1.204538 8
-93.585283 39.182299 0.200031 8
-89.966967 39.153055 -0.876385 8
-86.317070 39.145714 -1.960568 8
-82.512900 38.948173 -3.163485 8
-78.710288 38.840936 -4.340570 8
-74.772044 38.593208 -5.613685 8
-70.748076 38.298335 -6.935414 8
-66.745502 38.132028 -8.212413 8
-64.175173 40.270444 -8.261334 9
-61.202926 41.788854 -8.653840 9
-58.241841 43.340115 -9.038020 9
-55.260560 44.878229 -9.439394 9
-52.237305 46.374761 -9.874493 9
-48.838799 47.372938 -10.603333 9
-44.897340 47.679663 -11.744326 9
-40.467243 47.413498 -13.240282 9
-32.271168 42.366311 -17.552319 9
-30.943127 46.335959 -16.647101 9
-25.894028 45.610428 -18.515181 9
-20.672262 44.798826 -20.474474 9
-15.159258 43.769717 -22.607327 9
-9.319209 42.499481 -24.933474 9
-3.312697 41.191238 -27.333671 9
3.512866 39.123487 -30.259689 9
-18.158468 68.422898 -13.522737 1
-19.495660 74.828740 -10.994940 1
-19.640165 79.814653 -9.331589 1
-17.971445 82.826943 -8.918878 1
-10.441308 79.911459 -12.388798 1
-12.033424 86.203308 -9.838215 1
-13.742259 92.447164 -7.269824 3
-9.085373 92.513988 -8.834215 3
-12.201960 99.871941 -5.445748 2
-11.147891 103.243906 -4.747529 2
-7.320103 104.112192 -5.794188 2
-2.380495 104.077150 -7.512695 2
-2.541621 108.485754 -6.090144 2
-149.959258 -25.306886 -3.221506 7
-146.359847 -25.192143 -4.078229 7
-142.734066 -25.097248 -4.954969 7
-139.118459 -24.893238 -5.796753 7
-150.626228 24.688489 14.711221 7
-147.571131 25.053603 14.057396 7
-143.656429 22.852057 12.269098 7
-141.391639 25.713744 12.690646 7
-138.275967 26.042688 11.991872 7
-135.139092 26.363264 11.279061 7
-131.944341 26.580760 10.509200 7
-128.752148 26.863113 9.757202 7
-125.491462 27.028634 8.940395 7
-122.264598 27.339100 8.177734 7
-118.935592 27.462678 7.316601 7
-116.462597 29.622154 7.391725 8
-113.927701 31.598174 7.380513 8
-111.611416 34.017290 7.577559 8
-109.248135 36.282131 7.702595 8
-106.536411 37.782921 7.461095 8
-103.363476 38.352316 6.763807 8
-99.994173 38.581611 5.888623 8
-96.562131 38.753802 4.970417 8
-93.054441 38.851373 3.999428 8
-89.497851 38.930849 3.002529 8
-85.935849 39.073275 2.019752 8
-82.293399 39.146606 0.984411 8
-78.583045 39.179467 -0.090245 8
-74.800973 39.170977 -1.205738 8
-70.933474 39.104513 -2.371819 8
-66.956504 38.948816 -3.606229 8
-64.233879 40.818220 -3.794929 9
-61.311651 42.385606 -4.150178 9
-58.377415 43.949055 -4.516321 9
-55.446114 45.531837 -4.881139 9
-52.445105 47.031576 -5.300603 9
-49.060346 48.021297 -6.011460 9
-45.344821 48.607102 -6.962625 9
-41.000345 48.422568 -8.366193 9
-36.534541 48.176596 -9.833528 9
-31.918789 47.840202 -11.383133 9
-27.249566 47.542310 -12.943201 9
-22.277026 46.980756 -14.690050 9
-17.213921 46.428818 -16.468735 9
-11.839681 45.633203 -18.430646 9
-6.342723 44.828155 -20.441139 9
-20.521791 66.125434 -9.127939 4
-21.776626 72.511234 -6.701808 1
-21.879974 77.495318 -5.095992 1
-21.089341 81.430529 -4.115772 1
-19.175308 84.143660 -3.889869 1
-16.231660 85.803410 -4.334899 1
-15.387659 89.558697 -3.445984 3
-13.749070 92.488617 -3.079991 3
-10.373737 93.752688 -3.807217 3
-12.006525 99.697782 -1.442435 2
-3.605192 96.399323 -5.248891 2
-3.470592 100.674708 -3.994502 2
-4.639264 106.007522 -1.988661 2
-2.724429 108.595602 -1.854047 2
1.137539 109.554569 -2.871819 2
-149.325372 -25.493101 1.044032 7
-145.694497 -25.507045 0.148412 7
-142.032057 -25.549095 -0.770547 7
-138.366912 -25.515875 -1.670297 7
-149.606584 22.929484 17.722385 7
-146.537657 23.294959 17.074465 7
-143.460515 23.680907 16.426334 7
-140.393521 24.141307 15.801029 7
-137.275951 24.499456 15.122822 7
-134.135387 24.842801 14.428496 7
-131.000752 25.251796 13.752797 7
-127.811467 25.566751 13.025803 7
-124.606356 25.895245 12.294020 7
-121.388745 26.246460 11.561375 7
-118.108118 26.501566 10.774381 7
-115.711137 28.841858 10.919015 8
-113.279857 31.051249 11.005261 8
-111.013104 33.572599 11.235147 8
-108.571827 35.665334 11.269196 8
-105.785804 37.012850 10.955409 8
-102.575689 37.513907 10.238335 8
-99.216908 37.772528 9.394505 8
-95.806973 37.994838 8.519194 8
-92.394866 38.276950 7.657759 8
-88.863600 38.404499 6.706634 8
-85.351912 38.636754 5.790127 8
-81.770144 38.813656 4.830232 8
-78.091021 38.895422 3.806071 8
-74.346549 38.943989 2.746931 8
-70.631428 39.117019 1.731289 8
-66.766201 39.125820 0.613417 8
-64.106038 41.072648 0.467700 9
-61.174667 42.606382 0.103873 9
-58.257580 44.176144 -0.249705 9
-55.373485 45.807991 -0.579176 9
-52.353883 47.261714 -1.011353 9
-49.062163 48.361765 -1.642933 9
-45.446051 49.061919 -2.504295 9
-41.208487 48.997214 -3.800460 9
-36.824561 48.833119 -5.177862 9
-32.403192 48.717047 -6.557193 9
-27.816894 48.491368 -8.026906 9
-23.061821 48.161730 -9.586563 9
-18.261296 47.884795 -11.149610 9
-13.245883 47.463976 -12.829560 9
-13.921983 53.641943 -10.709694 4
-20.857005 66.647127 -4.543103 1
-19.991121 70.688299 -3.573416 1
-18.256704 73.727767 -3.188410 1
-10.556932 70.482659 -6.603932 1
-17.956740 82.971156 -0.472227 1
-16.693061 86.331487 0.142391 1
-16.033010 90.243425 1.110073 3
-13.688042 92.464254 1.025903 3
-4.080375 87.825418 -3.445352 1
-11.844668 99.554649 2.546805 2
-11.357210 103.420425 3.534551 2
-7.299581 104.054305 2.404612 2
-7.090982 108.106623 3.527214 2
-4.016302 109.650286 2.974017 2
2.203330 108.607847 0.631162 2
-148.872352 -25.014697 5.543552 7
-145.214154 -25.166663 4.610234 7
-141.557280 -25.222149 3.703720 7
-150.928173 18.379607 20.405219 7
-148.440362 20.704574 20.560955 7
-145.392166 21.194088 19.968287 7
-142.356373 21.758087 19.398451 7
-139.270187 22.208754 18.773973 7
-136.179371 22.688026 18.152925 7
-133.050977 23.105554 17.497328 7
-129.905915 23.524486 16.833130 7
-126.729354 23.908859 16.144749 7
-123.563971 24.370195 15.479493 7
-120.339814 24.734882 14.762703 7
-117.099219 25.112765 14.041045 7
-114.784685 27.659247 14.260111 8
-112.491674 30.188547 14.474382 8
-110.261923 32.792905 14.724760 8
-107.711628 34.658058 14.646715 8
-104.835343 35.830541 14.253816 8
-101.596528 36.291113 13.530082 8
-98.258468 36.608447 12.728796 8
-94.872245 36.892472 11.898911 8
-91.486250 37.237694 11.083712 8
-88.012990 37.483519 10.208030 8
-84.535517 37.786170 9.344285 8
-80.987673 38.029787 8.437382 8
-77.388714 38.253324 7.504914 8
-73.754039 38.485980 6.560309 8
-70.020121 38.627332 5.554064 8
-66.663315 39.435761 4.858350 9
-63.792343 41.036448 4.543065 9
-60.931891 42.663661 4.233932 9
-58.003406 44.201431 3.872387 9
-55.081543 45.764422 3.515439 9
-52.131428 47.303338 3.137749 9
-48.887927 48.455859 2.550667 9
-45.185050 49.024428 1.645064 9
-41.020968 49.045754 0.431594 9
-36.801282 49.081029 -0.799171 9
-32.458046 49.046560 -2.092900 9
-28.050200 49.022882 -3.407800 9
-23.531867 48.957018 -4.773692 9
-18.858998 48.802685 -6.217835 9
-16.562428 51.511385 -6.093820 4
-17.005851 57.323646 -4.220150 4
-20.330688 66.206059 -0.563969 1
-20.282807 71.135058 0.886861 1
-15.730040 71.136017 -0.501216 1
-12.439448 72.553368 -1.090049 1
-11.309891 76.226512 -0.356776 1
-15.069134 84.761841 3.303314 1
-17.457988 91.695271 6.066509 3
-13.937653 92.739269 5.276946 3
-11.517060 94.874177 5.141118 3
-11.779223 99.500703 6.558098 2
-10.805006 102.913264 7.233255 2
-7.397270 104.121503 6.506414 2
-4.827580 106.106265 6.260691 2
-3.054728 108.786755 6.460008 2
1.000645 109.552994 5.387632 2
-148.662854 -23.650001 10.337777 7
-144.990403 -23.925633 9.377896 7
-141.274578 -24.250797 8.386868 7
-150.167721 17.464774 23.806240 7
-147.168614 18.153179 23.300662 7
-144.128982 18.738892 22.748201 7
-141.062990 19.276769 22.169698 7
-138.019517 19.915228 21.624143 7
-134.917127 20.418496 21.016835 7
-131.788852 20.891013 20.388933 7
-127.594069 18.596871 18.618060 7
-125.514536 21.916232 19.140536 7
-122.382807 22.504036 18.534615 7
-119.153177 22.894382 17.837414 7
-116.309831 24.240169 17.533397 8
-113.840928 26.437793 17.587106 8
-111.615153 29.128603 17.852808 8
-109.323952 31.608331 18.031320 8
-106.701610 33.335551 17.885266 8
-103.702593 34.275633 17.392042 8
-100.417121 34.669527 16.649964 8
-97.111485 35.077974 15.902570 8
-93.784644 35.500098 15.149259 8
-90.422382 35.910760 14.378453 8
-86.980634 36.233334 13.554770 8
-83.518110 36.579886 12.728274 8
-80.000684 36.892240 11.871896 8
-76.456631 37.222677 11.009188 8
-72.858125 37.526568 10.118913 8
-67.429551 34.954330 7.849839 8
-66.148499 39.093609 8.748932 9
-63.277870 40.688303 8.435657 9
-60.375950 42.246865 8.098101 9
-57.562809 43.949445 7.823834 9
-54.670770 45.547058 7.491309 9
-51.739524 47.103603 7.130763 9
-48.411125 48.130548 6.495576 9
-44.761660 48.765679 5.648221 9
-40.720771 48.943142 4.549102 9
-36.513697 48.984964 3.357621 9
-32.270707 49.067201 2.162896 9
-27.939018 49.125172 0.930616 9
-23.452015 49.082865 -0.380847 9
-18.912842 49.072142 -1.703201 9
-17.178337 52.413618 -1.238261 4
-17.077119 57.570939 0.225853 4
-20.272332 66.285796 3.680805 1
-19.942478 70.890224 4.908335 1
-15.618289 71.128183 3.696488 1
-12.298200 72.501533 3.102633 1
-11.958182 76.971806 4.274333 1
-13.048859 82.794084 6.252861 1
-15.322771 89.640235 8.871286 3
-14.153087 92.980915 9.460227 3
-11.747072 95.111642 9.331316 3
-7.671883 95.705501 8.261972 3
-7.711335 100.101916 9.498863 2
-6.597702 103.392095 10.072275 2
-2.613644 104.148604 9.062095 2
2.517547 103.995715 7.444736 2
7.519185 104.058150 5.921718 2
26.017234 93.196455 -2.758696 3
-148.809338 -20.998145 15.542819 7
-145.070013 -21.632837 14.474745 7
-141.330869 -22.141272 13.440914 7
-148.734701 14.323631 26.362359 7
-145.747834 15.141829 25.903962 7
-142.744008 15.922312 25.425901 7
-139.731394 16.695229 24.939328 7
-136.632360 17.239552 24.358142 7
-133.463291 17.624756 23.707446 7
-130.358550 18.231237 23.135561 7
-127.256954 18.880664 22.573354 7
-124.090279 19.397634 21.950866 7
-120.959006 20.044069 21.372156 7
-117.767577 20.581569 20.741443 7
-115.019790 22.197429 20.542506 8
-112.819643 25.041349 20.846470 8
-110.600212 27.762838 21.104614 8
-108.228968 30.086814 21.200920 8
-104.136462 28.756233 19.760886 8
-102.294411 32.161239 20.307265 8
-99.046367 32.670208 19.624592 8
-95.796705 33.224337 18.950813 8
-92.503404 33.742836 18.250991 8
-89.126773 34.157035 17.494390 8
-85.768688 34.660213 16.764784 8
-82.337661 35.087205 15.989331 8
-78.857960 35.487234 15.188881 8
-75.389275 35.964675 14.409866 8
-71.746864 36.213280 13.513275 8
-68.152537 36.606677 12.667613 8
-65.462024 38.479730 12.491972 9
-62.611732 40.105212 12.196891 9
-59.781164 41.769785 11.914181 9
-56.945260 43.435452 11.626017 9
-54.131224 45.142490 11.351446 9
-51.133558 46.600942 10.950630 9
-47.800828 47.619905 10.327062 9
-44.139473 48.237589 9.493446 9
-40.089042 48.401802 8.418066 9
-36.009228 48.607245 7.341885 9
-31.814540 48.746360 6.210372 9
-27.517678 48.841942 5.033449 9
-23.225939 49.029659 3.879520 9
-18.639245 48.951315 2.562875 9
-16.533486 51.849266 2.780322 4
-16.076026 56.597054 3.979656 4
-20.012208 66.139455 7.765955 1
-19.931157 71.003553 9.096181 1
-15.464844 71.074826 7.833270 1
-10.990131 71.227103 6.585975 1
-9.944394 74.985097 7.319160 1
-8.160005 77.944098 7.614236 1
-10.221087 84.665159 10.053532 1
-10.462641 89.455052 11.430549 3
-9.321578 92.839859 12.016468 3
-8.166797 96.170211 12.579338 3
-2.670667 95.525155 10.785996 3
-2.859918 100.053220 12.059593 2
-1.481919 103.132056 12.476109 2
3.035007 103.509796 11.234338 2
21.047938 92.711099 2.993048 3
26.210202 92.963739 1.516792 3
31.434614 93.267217 0.030764 3
-148.059394 -21.697071 19.453569 7
-145.850995 -16.895839 20.363767 7
-149.761746 8.508939 28.757182 7
-146.822016 9.627425 28.404808 7
-143.872640 10.708330 28.035356 7
-140.891765 11.690340 27.625696 7
-137.903761 12.657418 27.206203 7
-134.885880 13.547631 26.753343 7
-131.855425 14.418221 26.287974 7
-128.812955 15.274425 25.811750 7
-125.751242 16.100569 25.318352 7
-122.658385 16.871031 24.797430 7
-119.403946 17.271306 24.125876 7
-114.775470 14.433191 22.175486 8
-113.768401 20.251442 23.616989 8
-111.647656 23.306212 23.981017 8
-109.432207 26.062060 24.231468 8
-105.606961 25.293143 23.062227 8
-103.966534 29.201623 23.780170 8
-100.761520 29.798996 23.151266 8
-97.530652 30.388357 22.509807 8
-94.295312 31.013704 21.873750 8
-90.971611 31.516000 21.176354 8
-87.651244 32.075141 20.492223 8
-84.301972 32.631189 19.796014 8
-80.883566 33.115784 19.057948 8
-77.439418 33.610480 18.312273 8
-73.977332 34.129865 17.565087 8
-70.438483 34.578089 16.774013 8
-66.924908 35.125588 16.013592 8
-64.598967 37.587946 16.098026 9
-61.796458 39.292326 15.840862 9
-59.033082 41.061434 15.608189 9
-56.226691 42.771959 15.343856 9
-53.374402 44.424768 15.047336 9
-50.412485 45.935453 14.678194 9
-47.005464 46.853935 14.022007 9
-43.279714 47.389110 13.170406 9
-39.280179 47.626377 12.158988 9
-35.250121 47.900224 11.145395 9
-28.638599 44.994523 8.555833 9
-26.864091 48.270536 8.969060 9
-22.626003 48.522645 7.880784 9
-18.303097 48.754937 6.759779 9
-14.891727 50.127655 6.194483 4
-14.339709 54.787561 7.302493 4
-14.167773 59.775467 8.599917 4
-18.262646 69.308447 12.299373 1
-15.310542 71.019676 11.936102 1
-10.737641 71.057767 10.669057 1
-7.825313 72.891087 10.341502 1
-5.042813 74.876193 10.086710 1
-7.163220 81.703539 12.491694 1
-6.001549 85.186828 13.082376 1
-5.553929 89.300320 14.037299 3
-4.436375 92.724085 14.616968 3
-2.526997 95.388299 14.768474 3
1.794416 95.899807 13.665789 3
7.202534 95.544245 12.022587 3
12.266563 95.597850 10.580199 3
20.808759 92.849984 7.409116 3
25.928466 93.119600 5.998172 3
30.685764 93.778456 4.787718 3
33.354400 96.159947 4.619139 3
35.232079 99.164203 4.834933 3
37.036160 102.214456 5.079636 3
38.897911 105.211724 5.289882 3
40.774423 108.190679 5.486984 3
42.620544 111.184810 5.692614 3
-150.010415 -12.510656 26.764111 7
-149.806643 -1.043786 29.966872 7
-147.094049 1.141544 29.970149 7
-144.288210 2.938435 29.838873 7
-141.449904 4.580516 29.652967 7
-138.566517 6.046421 29.403533 7
-135.636591 7.350733 29.094359 7
-132.663061 8.518985 28.733324 7
-129.704908 9.728859 28.384108 7
-126.699196 10.809434 27.984014 7
-123.671725 11.841156 27.561654 7
-120.615184 12.811611 27.111821 7
-117.543789 13.762731 26.649599 7
-114.432528 14.638317 26.153337 8
-112.389343 18.015710 26.606088 8
-110.304968 21.190712 26.989160 8
-107.990196 23.763956 27.146077 8
-105.302684 25.478406 26.971165 8
-102.210169 26.333761 26.456542 8
-98.989131 26.957966 25.843252 8
-95.785908 27.659876 25.252342 8
-91.012983 25.370380 23.447993 8
-89.311017 29.052470 24.040262 8
-86.022115 29.715855 23.407269 8
-82.633234 30.244095 22.708915 8
-79.278306 30.883496 22.045954 8
-75.825915 31.403429 21.322470 8
-72.382942 31.993018 20.616818 8
-68.900369 32.569561 19.894099 8
-66.419018 34.799982 19.870142 9
-63.611838 36.501865 19.616715 9
-60.882600 38.328148 19.413232 9
-58.090055 40.060721 19.164733 9
-55.331653 41.849370 18.936538 9
-52.504446 43.544358 18.661919 9
-49.403364 44.865638 18.212840 9
-46.012428 45.816401 17.585992 9
-42.209566 46.257934 16.712589 9
-38.297793 46.622466 15.786670 9
-34.272466 46.911431 14.807334 9
-30.190350 47.203760 13.810318 9
-26.055539 47.507148 12.798657 9
-21.816619 47.761695 11.742900 9
-17.477907 47.978484 10.647022 9
-13.774391 49.015011 9.931206 4
-13.025191 53.458130 10.890428 4
-12.236032 57.770949 11.801248 4
-15.938060 66.898982 15.165913 1
-10.711532 66.217166 13.579645 1
-9.523964 69.882115 14.204167 1
-6.025345 71.124963 13.574765 1
-2.108522 71.993150 12.731813 1
8.583872 66.255492 8.346707 1
3.932245 75.642949 12.013538 1
1.774538 82.397487 14.322904 1
-0.560197 89.143215 16.675036 3
0.518178 92.620603 17.256260 3
4.682867 93.314415 16.279262 3
10.618679 92.538761 14.438696 3
15.624399 92.689590 13.084962 3
20.577873 92.982560 11.777615 3
25.678494 93.250257 10.419208 3
29.450892 94.680125 9.717021 3
31.482365 97.527999 9.849962 3
33.317062 100.522360 10.070551 3
35.146589 103.510615 10.287330 3
37.007788 106.466470 10.483473 3
38.824061 109.447619 10.694744 3
40.658601 112.408420 10.892133 3
42.500194 115.358416 11.081150 3
44.301932 118.330511 11.283105 3
46.173419 121.251502 11.449114 3
47.976813 124.214309 11.640876 3
49.794813 127.164638 11.821730 3
51.624969 130.105469 11.993094 3
53.465154 133.039414 12.156199 3
-134.698031 -4.239441 29.699910 7
-132.263237 -1.165716 29.978560 7
-129.592636 1.115482 29.986562 7
-126.787703 2.958279 29.842578 7
-123.934895 4.634694 29.639681 7
-121.016658 6.115349 29.365950 7
-118.057790 7.481139 29.048849 7
-114.705496 7.880794 28.378304 8
-112.991709 12.226060 29.142611 8
-111.353512 16.581664 29.924200 8
-109.270148 19.774919 30.287874 8
-106.756434 21.929960 30.270314 8
-103.675215 22.835621 29.782938 8
-100.383993 23.331627 29.133788 8
-97.059050 23.807785 28.468271 8
-93.816562 24.497074 27.875850 8
-90.630725 25.336216 27.333566 8
-87.345223 26.022495 26.723823 8
-84.073036 26.776003 26.131911 8
-80.711604 27.410256 25.483865 8
-77.349913 28.091234 24.844901 8
-73.955555 28.762377 24.192244 8
-70.592357 29.533006 23.570107 8
-67.080646 30.105169 22.856464 8
-65.245361 33.406482 23.264569 9
-62.526927 35.263604 23.075206 9
-59.776308 37.070283 22.861585 9
-57.049209 38.914088 22.660272 9
-54.344408 40.791985 22.470176 9
-51.443394 42.390589 22.155655 9
-48.309165 43.677096 21.698958 9
-44.801118 44.480173 21.020587 9
-40.965248 44.893672 20.156216 9
-37.009294 45.216873 19.235077 9
-33.066836 45.629688 18.337027 9
-29.076827 46.052472 17.426137 9
-24.948199 46.375078 16.451047 9
-20.807865 46.759669 15.485380 9
-16.551480 47.081977 14.470775 9
-12.148767 47.313678 13.392202 9
-10.165664 50.375620 13.648913 4
-9.074028 54.399645 14.375180 4
-7.920440 58.288840 15.048196 4
-6.670309 62.013561 15.651595 4
-5.280940 65.538331 16.165424 4
-2.599179 67.692893 15.996413 1
-0.534479 70.477017 16.142433 1
3.710758 71.101358 15.176330 1
12.740242 67.186990 11.823371 1
12.465968 72.319163 13.156520 1
13.633832 76.013430 13.750672 1
4.471126 89.029659 19.371342 3
5.529689 92.542442 19.943754 3
10.382924 92.710939 18.684783 3
15.446868 92.794640 17.345534 3
20.358781 93.105876 16.098874 3
25.064376 93.679515 14.967725 3
27.789960 95.924620 14.769347 3
29.626846 98.885253 14.979464 3
31.461438 101.837332 15.184832 3
33.246317 104.817488 15.407069 3
35.079331 107.752349 15.602132 3
36.904707 110.685404 15.795536 3
38.711894 113.624717 15.992075 3
40.552112 116.535051 16.169443 3
42.382123 119.448015 16.346921 3
44.176042 122.381143 16.535726 3
45.994840 125.294322 16.709728 3
47.814496 128.204659 16.879531 3
49.618784 131.123033 17.052138 3
51.446192 134.026357 17.211570 3
53.243768 136.947616 17.380097 3
55.076035 139.849152 17.531163 3
57.817704 142.240629 17.309373 3
62.007186 143.863017 16.505647 3
-114.686537 -9.063944 28.034855 8
-115.161446 1.333211 30.815636 8
-113.627812 6.323377 31.749068 8
-111.879656 10.602489 32.448451 8
-109.956217 14.318158 32.960664 8
-107.649971 17.049886 33.130628 8
-104.918609 18.782957 32.944913 8
-101.812856 19.703412 32.462729 8
-98.673032 20.579756 31.958700 8
-95.467202 21.352592 31.410277 8
-92.199052 22.038695 30.822564 8
-88.807426 22.528816 30.153528 8
-85.409198 23.058256 29.490156 8
-81.985297 23.591441 28.818934 8
-78.555222 24.165085 28.153703 8
-75.236900 24.984385 27.574081 8
-71.888169 25.792051 26.981521 8
-68.470429 26.526481 26.351322 8
-66.579033 29.794017 26.718388 9
-63.902093 31.744378 26.564582 9
-61.249710 33.726767 26.421885 9
-58.567912 35.657868 26.256503 9
-55.872550 37.565653 26.079240 9
-53.135051 39.411005 25.873445 9
-50.219424 41.004891 25.559152 9
-47.020941 42.218158 25.078836 9
-43.388154 42.869151 24.350557 9
-39.592999 43.359111 23.539929 9
-35.711574 43.800206 22.693228 9
-31.751920 44.208331 21.816291 9
-27.726091 44.603315 20.916905 9
-23.612887 44.962579 19.984235 9
-19.477693 45.369987 19.054944 9
-15.223580 45.710945 18.076909 9
-10.933810 46.088808 17.095984 9
-6.643886 46.544658 16.130957 9
-4.612400 49.586840 16.355651 4
-2.884513 52.933269 16.727201 4
-0.872405 55.938641 16.941929 4
9.260531 50.430547 13.054504 4
9.459944 55.418517 14.197952 4
21.697750 48.223496 9.366332 9
26.777398 48.461263 8.127591 9
32.034338 48.625842 6.822987 9
16.760139 68.284660 15.395045 1
42.890717 48.944265 4.113833 9
58.081944 40.409412 -1.807723 9
9.600499 88.906124 22.099296 3
10.643336 92.451550 22.661125 3
15.199433 92.959726 21.599780 3
20.191010 93.186883 20.357028 3
23.949092 94.519767 19.689435 3
26.009285 97.266809 19.789484 3
27.819368 100.206896 19.996598 3
29.622834 103.141562 20.201292 3
31.452406 106.046926 20.389505 3
33.260287 108.960479 20.582399 3
35.063615 111.869828 20.772640 3
36.842334 114.789890 20.968922 3
38.638486 117.691440 21.153507 3
40.450065 120.577535 21.327624 3
42.253763 123.465155 21.501292 3
44.031074 126.366780 21.682243 3
45.827124 129.253561 21.851997 3
47.627621 132.135953 22.016707 3
49.450406 135.004145 22.169423 3
51.247511 137.888168 22.329649 3
53.236566 140.662071 22.411192 3
56.309949 142.831095 22.065420 3
61.057989 144.113921 21.071807 3
-111.673662 -15.600612 29.937702 8
-112.690281 -3.714143 33.085150 8
-111.569079 2.388670 34.335054 8
-109.989194 7.146304 35.150368 8
-107.957344 10.682096 35.562927 8
-105.435643 13.008373 35.567341 8
-102.441323 14.257841 35.199971 8
-99.356792 15.325427 34.765492 8
-96.241200 16.348773 34.310829 8
-93.080722 17.305039 33.827275 8
