ply
format ascii 1.0
element vertex 1379
property float x
property float y
property float z
property int scalar_Label
end_header
94.895716 -37.621726 -16.443685 5
91.720748 -37.626009 -16.489724 5
88.574835 -37.609987 -16.524719 5
85.455406 -37.576703 -16.549850 5
82.338765 -37.592510 -16.589781 5
79.247382 -37.590970 -16.619891 5
76.184898 -37.556192 -16.634330 5
73.120711 -37.583077 -16.668321 5
70.085046 -37.572560 -16.685164 5
67.078036 -37.517205 -16.682144 5
64.060080 -37.555614 -16.710647 5
62.852591 -30.670699 -14.171120 5
56.918944 -42.267999 -18.475253 9
53.505969 -44.367232 -19.257520 9
50.119581 -46.602737 -20.087166 9
46.844187 -48.600318 -20.825676 9
43.793800 -49.764774 -21.252649 9
40.897368 -50.320515 -21.451233 9
38.092804 -50.495706 -21.505946 9
35.333442 -50.485799 -21.489186 9
32.575720 -50.517732 -21.485042 9
29.829901 -50.529391 -21.470508 9
27.094750 -50.521040 -21.445687 9
24.362128 -50.545186 -21.430053 9
21.642176 -50.522599 -21.394230 9
18.921030 -50.559347 -21.377567 9
16.208237 -50.574211 -21.349938 9
13.501256 -50.581697 -21.316725 9
10.798306 -50.594410 -21.282607 9
8.100754 -50.587819 -21.238469 9
5.400037 -50.684801 -21.229986 9
2.708290 -50.696992 -21.187141 9
0.020207 -50.678794 -21.130128 9
-2.668575 -50.727570 -21.095181 9
-5.353943 -50.712219 -21.033486 9
-8.039756 -50.777954 -20.999129 9
-10.724172 -50.756618 -20.929425 9
-13.408349 -50.833398 -20.893431 9
-16.093456 -50.835421 -20.826629 9
-18.778575 -50.881455 -20.773344 9
-21.467504 -50.860307 -20.692001 9
-24.157263 -50.879247 -20.622685 9
-26.847975 -50.924887 -20.560397 9
-29.543182 -50.944168 -20.485243 9
-32.241655 -50.968170 -20.408843 9
-34.940779 -51.029184 -20.343308 9
-37.645121 -51.077020 -20.269782 9
-40.370371 -50.981828 -20.139350 9
-43.154681 -50.475941 -19.850982 9
-46.006625 -49.594899 -19.417575 9
-48.997011 -47.934484 -18.686023 9
-52.062529 -46.064203 -17.870550 9
-55.188849 -44.114802 -17.020264 9
-58.371407 -42.130726 -16.151788 9
-65.034668 -21.777356 -8.311617 8
-65.684262 -34.147905 -12.874729 8
-68.641108 -34.212530 -12.767275 8
-71.605742 -34.290540 -12.661290 8
-74.591633 -34.324105 -12.534704 8
-77.583093 -34.387293 -12.415670 8
-80.591622 -34.433082 -12.286212 8
-83.620304 -34.454441 -12.143555 8
-86.659287 -34.492973 -12.003551 8
-89.705663 -34.559434 -11.870298 8
-92.774284 -34.602710 -11.724132 8
-95.861826 -34.638573 -11.571022 8
-98.966322 -34.676371 -11.414494 8
-102.083714 -34.730591 -11.260076 8
-105.276344 -34.618222 -11.036918 8
-108.883016 -33.391941 -10.377442 8
-113.625029 -29.168685 -8.548175 8
-117.895762 -26.527079 -7.323642 7
-120.226729 -29.139137 -8.137771 7
-123.535191 -29.198325 -7.954164 7
-126.857551 -29.282566 -7.775487 7
-130.216387 -29.338294 -7.580709 7
-133.637625 -29.310174 -7.347936 7
-137.064744 -29.334294 -7.130413 7
-141.787557 -26.586866 -5.814754 7
-143.975299 -29.449400 -6.705676 7
-147.480726 -29.495713 -6.480655 7
148.055672 -27.978431 -7.720491 6
144.346280 -27.965900 -7.839288 6
140.676200 -27.948962 -7.951248 6
137.046507 -27.922787 -8.054599 6
133.476969 -27.845028 -8.133016 6
129.903370 -27.840093 -8.234858 6
126.374194 -27.810033 -8.322207 6
122.867613 -27.797268 -8.411579 6
117.582323 -31.765622 -10.035321 5
111.915285 -36.880068 -12.094866 5
107.763504 -38.822352 -12.922708 5
104.440708 -38.956638 -13.047879 5
101.216306 -38.918853 -13.102492 5
98.002457 -38.913749 -13.165613 5
94.816566 -38.896594 -13.220055 5
91.655188 -38.873211 -13.268119 5
88.493859 -38.908577 -13.334851 5
85.370984 -38.896021 -13.379261 5
82.260157 -38.906535 -13.428699 5
79.172236 -38.906825 -13.470412 5
76.119244 -38.855211 -13.488441 5
73.068727 -38.850248 -13.520677 5
70.037573 -38.837095 -13.546095 5
67.014568 -38.851984 -13.578632 5
64.020680 -38.818370 -13.588956 5
62.902167 -31.634479 -10.853670 5
56.907689 -43.429619 -15.392779 9
53.482246 -45.585040 -16.231495 9
50.126060 -47.695149 -17.049264 9
46.841419 -49.738455 -17.837953 9
43.775652 -50.987483 -18.318809 9
40.894797 -51.482316 -18.507282 9
38.107337 -51.583523 -18.541618 9
35.349994 -51.578037 -18.531819 9
32.596247 -51.603084 -18.530504 9
29.858518 -51.580549 -18.507734 9
27.123113 -51.591465 -18.494593 9
24.395406 -51.599154 -18.477024 9
21.667178 -51.665181 -18.478659 9
18.955086 -51.652732 -18.447012 9
16.247118 -51.650209 -18.416001 9
13.543307 -51.654738 -18.384529 9
10.841480 -51.689059 -18.361338 9
8.147539 -51.675819 -18.316709 9
5.456142 -51.669858 -18.271707 9
2.764845 -51.713418 -18.242580 9
0.077270 -51.741664 -18.204400 9
-2.608064 -51.770787 -18.163385 9
-5.290901 -51.763177 -18.105042 9
-7.973540 -51.785442 -18.055013 9
-10.655578 -51.844616 -18.016022 9
-13.337262 -51.860505 -17.957132 9
-16.019218 -51.891467 -17.900837 9
-18.702417 -51.908191 -17.835806 9
-21.386893 -51.932953 -17.770626 9
-24.072111 -51.981471 -17.711373 9
-26.760339 -52.013767 -17.642561 9
-29.455538 -51.989251 -17.548415 9
-32.148717 -52.044447 -17.481837 9
-34.847292 -52.078717 -17.403795 9
-37.548476 -52.130508 -17.329189 9
-40.267994 -52.061381 -17.204137 9
-43.043338 -51.603785 -16.924248 9
-45.902218 -50.646013 -16.445459 9
-48.883547 -49.031717 -15.706063 9
-51.960257 -47.072092 -14.826752 9
-55.061037 -45.267087 -14.002558 9
-58.239058 -43.291997 -13.106388 9
-65.028927 -22.275398 -4.737311 8
-65.589021 -35.099606 -9.631345 8
-68.552010 -35.130126 -9.504253 8
-71.517287 -35.202625 -9.389653 8
-74.515088 -35.182417 -9.234470 8
-77.497012 -35.285971 -9.123945 8
-80.515178 -35.292602 -8.970993 8
-83.551616 -35.285481 -8.808317 8
-86.585077 -35.346617 -8.668341 8
-89.652945 -35.339044 -8.496740 8
-92.712080 -35.419030 -8.355464 8
-96.653403 -32.671727 -7.083583 8
-98.899311 -35.514523 -8.033755 8
-102.023710 -35.550254 -7.861173 8
-105.229747 -35.402446 -7.610378 8
-108.888614 -34.035636 -6.865642 8
-113.635099 -29.819862 -4.969368 8
-117.918896 -27.159729 -3.687912 7
-120.236391 -29.811070 -4.539087 7
-123.573366 -29.807901 -4.316464 7
-126.923539 -29.835348 -4.100782 7
-130.301683 -29.858064 -3.877669 7
-134.974675 -26.959041 -2.461245 7
-137.103069 -29.986651 -3.448314 7
-140.596531 -29.939283 -3.179426 7
-144.081719 -29.977211 -2.939323 7
-147.588522 -30.034268 -2.700976 7
148.341609 -28.577126 -3.839513 6
144.617607 -28.577216 -3.984074 6
140.936026 -28.568163 -4.119210 6
137.257608 -28.622585 -4.274273 6
133.635245 -28.638231 -4.408174 6
130.053805 -28.640368 -4.531214 6
126.521083 -28.609317 -4.635613 6
123.018002 -28.580788 -4.735817 6
117.731325 -32.528261 -6.423133 5
111.998644 -37.762211 -8.617309 5
107.801482 -39.797463 -9.524306 5
104.466037 -39.959819 -9.677137 5
101.228264 -39.954507 -9.758315 5
98.026864 -39.918831 -9.822823 5
94.844573 -39.892587 -9.886613 5
91.665443 -39.917075 -9.966190 5
88.530108 -39.882466 -10.017853 5
85.404700 -39.877283 -10.076920 5
82.288638 -39.903827 -10.144338 5
79.211629 -39.872302 -10.184451 5
76.144580 -39.866001 -10.230429 5
73.091931 -39.870682 -10.276648 5
70.059271 -39.866074 -10.315101 5
67.041775 -39.865550 -10.351136 5
64.045890 -39.843313 -10.374560 5
62.853185 -32.977520 -7.679693 5
56.947404 -44.387894 -12.229292 9
53.533605 -46.489190 -13.082493 9
50.149992 -48.711845 -13.979744 9
46.875320 -50.708619 -14.783510 9
43.819457 -51.910983 -15.268613 9
40.903735 -52.585431 -15.540814 9
38.123134 -52.664939 -15.573630 9
35.369707 -52.652629 -15.566482 9
32.615993 -52.693562 -15.576878 9
29.878834 -52.686059 -15.564535 9
27.148742 -52.681373 -15.549777 9
24.423382 -52.693420 -15.538133 9
21.705788 -52.697386 -15.519778 9
18.993678 -52.706343 -15.499902 9
16.286587 -52.721009 -15.478797 9
13.584705 -52.735412 -15.454101 9
10.889141 -52.729368 -15.417803 9
8.195415 -52.749061 -15.388238 9
5.507064 -52.741225 -15.344255 9
2.819299 -52.772563 -15.312350 9
0.135071 -52.787554 -15.270464 9
-2.547196 -52.804096 -15.225701 9
-5.227693 -52.808161 -15.172472 9
-7.907285 -52.795686 -15.109144 9
-10.586987 -52.843579 -15.066341 9
-13.266870 -52.817359 -14.990471 9
-15.946922 -52.852741 -14.935616 9
-18.627423 -52.896366 -14.880505 9
-21.310398 -52.905710 -14.808136 9
-23.994606 -52.935484 -14.740339 9
-26.680597 -52.975084 -14.672868 9
-29.375560 -52.928130 -14.567108 9
-32.067024 -52.984539 -14.499082 9
-34.762381 -53.036005 -14.425415 9
-37.469775 -53.010381 -14.317098 9
-40.190374 -52.923279 -14.180290 9
-42.958315 -52.519598 -13.912219 9
-45.802459 -51.662747 -13.457423 9
-48.783283 -50.038055 -12.688352 9
-51.863335 -48.045956 -11.765568 9
-54.968213 -46.208729 -10.899551 9
-58.149601 -44.210496 -9.962560 9
-65.095705 -22.388655 -0.987322 8
-66.079144 -33.094610 -5.181828 8
-68.501497 -35.863777 -6.158940 8
-71.489164 -35.840742 -5.998811 8
-74.483298 -35.847571 -5.846317 8
-77.487862 -35.866590 -5.694241 8
-80.510987 -35.866624 -5.529807 8
-83.546323 -35.876839 -5.364848 8
-86.588583 -35.917898 -5.207780 8
-89.657709 -35.918707 -5.029419 8
-92.739968 -35.932662 -4.851561 8
-95.830019 -35.978151 -4.681723 8
-98.952163 -35.977884 -4.488020 8
-102.088757 -35.992430 -4.295293 8
-105.300018 -35.846053 -4.030760 8
-108.954284 -34.511725 -3.268158 8
-113.733715 -30.230716 -1.274096 8
-117.912341 -27.874556 -0.068766 7
-120.410441 -30.061525 -0.748277 7
-123.750846 -30.071742 -0.516066 7
-127.114434 -30.087861 -0.280389 7
-130.530281 -30.042909 -0.013046 7
-133.959796 -30.032939 0.245862 7
-137.400896 -30.062055 0.494639 7
-140.864782 -30.105025 0.743963 7
-144.369729 -30.124288 1.009827 7
-147.939963 -30.073916 1.311924 7
148.821893 -28.834328 0.206702 6
145.079228 -28.845973 0.036004 6
141.376355 -28.854578 -0.127047 6
137.725531 -28.833895 -0.271640 6
134.104160 -28.823788 -0.414538 6
130.514536 -28.818012 -0.553241 6
126.951537 -28.825112 -0.691400 6
123.433248 -28.805228 -0.812565 6
119.336742 -30.114285 -1.478880 5
112.248054 -38.274913 -4.975537 5
108.024809 -40.347444 -5.941777 5
104.619496 -40.661188 -6.174320 5
101.362787 -40.692845 -6.285036 5
98.168610 -40.631089 -6.352155 5
94.968848 -40.641421 -6.444074 5
91.796206 -40.640963 -6.526649 5
88.645760 -40.639885 -6.604146 5
85.521357 -40.624817 -6.671126 5
82.410790 -40.627832 -6.740848 5
79.335849 -40.582146 -6.785913 5
76.262336 -40.587764 -6.847479 5
73.217534 -40.558845 -6.890327 5
70.174803 -40.579126 -6.948885 5
67.165160 -40.542723 -6.979743 5
64.156289 -40.558356 -7.027548 5
62.862428 -34.098054 -4.416613 5
57.031744 -45.170853 -8.987329 9
53.632939 -47.196497 -9.845103 9
50.216992 -49.542667 -10.829619 9
46.973087 -51.389157 -11.605058 9
43.886374 -52.725755 -12.167462 9
40.982250 -53.337361 -12.428945 9
38.202215 -53.409015 -12.465401 9
35.447419 -53.399604 -12.464748 9
32.704142 -53.372744 -12.453049 9
29.960028 -53.400644 -12.459883 9
27.226264 -53.414147 -12.456955 9
24.503839 -53.398329 -12.438167 9
21.785652 -53.398514 -12.422087 9
19.070110 -53.428254 -12.414278 9
16.364642 -53.419267 -12.386782 9
13.663759 -53.411770 -12.356075 9
10.966013 -53.417324 -12.326900 9
8.270987 -53.439913 -12.300898 9
5.580487 -53.450257 -12.266066 9
2.894043 -53.439807 -12.218890 9
0.208250 -53.462704 -12.181583 9
-2.475296 -53.483677 -12.139671 9
-5.156719 -53.480376 -12.083963 9
-7.837964 -53.517594 -12.041076 9
-10.518301 -53.544039 -11.989925 9
-13.198657 -53.552856 -11.927669 9
-15.880051 -53.546414 -11.855258 9
-18.561511 -53.588519 -11.798963 9
-21.245009 -53.607582 -11.729279 9
-23.932299 -53.593617 -11.642043 9
-26.620611 -53.616517 -11.566077 9
-29.310216 -53.664057 -11.496341 9
-32.002284 -53.719234 -11.425799 9
-34.702188 -53.727454 -11.331819 9
-37.401688 -53.787812 -11.255406 9
-40.114166 -53.773167 -11.143825 9
-42.884176 -53.348231 -10.857655 9
-45.732397 -52.459361 -10.374010 9
-48.727913 -50.735659 -9.537779 9
-51.791354 -48.860251 -8.632436 9
-54.935093 -46.792152 -7.640528 9
-58.125697 -44.759378 -6.656889 9
-65.073795 -22.978553 2.594366 8
-65.561747 -36.182509 -2.780040 8
-68.528626 -36.227712 -2.645142 8
-71.504565 -36.283030 -2.509706 8
-74.519304 -36.220896 -2.320041 8
-77.522649 -36.267832 -2.171276 8
-80.553997 -36.256315 -1.992883 8
-83.593144 -36.273002 -1.821292 8
-86.645684 -36.296695 -1.647513 8
-89.728090 -36.271385 -1.447750 8
-92.814899 -36.290936 -1.261666 8
-95.929190 -36.277920 -1.056351 8
-99.042646 -36.326938 -0.871941 8
-102.208016 -36.274329 -0.638650 8
-105.444687 -36.075881 -0.337250 8
-111.398002 -28.260868 3.232386 8
-114.240585 -29.527014 2.923880 8
-117.896350 -28.617383 3.554899 7
-120.724200 -29.957408 3.224527 7
-124.103974 -29.901846 3.500656 7
-127.468442 -29.949899 3.738536 7
-130.917734 -29.858965 4.043190 7
-134.363421 -29.845625 4.321039 7
-137.884496 -29.729715 4.650458 7
-141.387325 -29.725000 4.938590 7
-144.948540 -29.663129 5.258909 7
149.622929 -28.529315 4.530205 6
145.853716 -28.553028 4.332124 6
142.142093 -28.541777 4.156188 6
138.473886 -28.517610 3.992683 6
134.800198 -28.573048 3.801599 6
131.088833 -28.776536 3.553501 6
127.513214 -28.779084 3.398447 6
123.970497 -28.780143 3.250404 6
119.289177 -31.325802 2.017894 5
112.859685 -37.984394 -0.967079 5
108.347138 -40.675927 -2.243252 5
104.872655 -41.131741 -2.556057 5
101.624416 -41.126615 -2.666111 5
98.383476 -41.164930 -2.789180 5
95.198785 -41.122085 -2.872202 5
92.026143 -41.105664 -2.961148 5
88.865331 -41.116455 -3.056397 5
85.741022 -41.084865 -3.128411 5
82.632449 -41.065018 -3.200287 5
79.523157 -41.105535 -3.292718 5
76.460057 -41.063320 -3.345006 5
73.402090 -41.060205 -3.408931 5
70.352658 -41.086619 -3.480464 5
67.334055 -41.065352 -3.526931 5
64.322739 -41.073762 -3.581164 5
62.901440 -35.107093 -1.101594 5
57.234668 -45.488220 -5.536079 9
53.766351 -47.767246 -6.535981 9
50.390964 -49.913532 -7.474656 9
47.084723 -52.011239 -8.387873 9
43.995100 -53.344223 -8.973085 9
41.097750 -53.907086 -9.228299 9
38.278797 -54.170433 -9.352583 9
35.523211 -54.161486 -9.357522 9
32.775301 -54.158556 -9.360755 9
30.034885 -54.160329 -9.361746 9
27.302957 -54.157073 -9.356403 9
24.571407 -54.203403 -9.367816 9
21.856653 -54.175726 -9.343778 9
19.144188 -54.175760 -9.327280 9
16.434304 -54.203772 -9.318449 9
13.733223 -54.196699 -9.290637 9
11.034253 -54.215370 -9.269565 9
8.343765 -54.175801 -9.219715 9
5.650314 -54.223889 -9.202811 9
2.962665 -54.233215 -9.165369 9
0.279421 -54.195646 -9.103922 9
-2.404684 -54.215983 -9.062851 9
-5.087324 -54.243867 -9.020831 9
-7.768402 -54.242632 -8.962308 9
-10.449357 -54.240692 -8.899311 9
-13.130569 -54.254818 -8.838948 9
-15.812284 -54.274322 -8.776676 9
-18.496203 -54.255498 -8.693899 9
-21.180126 -54.293808 -8.631186 9
-23.869562 -54.257867 -8.532619 9
-26.556554 -54.322466 -8.472597 9
-29.250691 -54.318737 -8.379169 9
-31.947316 -54.335390 -8.290107 9
-34.648772 -54.346170 -8.194186 9
-37.352410 -54.383731 -8.105336 9
-40.074321 -54.304198 -7.961957 9
-42.843223 -53.910654 -7.679468 9
-45.705898 -52.933811 -7.141861 9
-48.691865 -51.301602 -6.317293 9
-51.776887 -49.306867 -5.330624 9
-54.917314 -47.285325 -4.325698 9
-58.128973 -45.157008 -3.267845 9
-65.077941 -23.432223 6.254667 8
-65.652191 -36.203604 0.899263 8
-68.639373 -36.195517 1.064432 8
-71.635827 -36.202166 1.228467 8
-74.636392 -36.246713 1.381355 8
-77.669373 -36.209833 1.574950 8
-80.702909 -36.230820 1.748854 8
-83.762279 -36.209313 1.946777 8
-86.829953 -36.216799 2.137674 8
-89.914886 -36.221154 2.335613 8
-93.027571 -36.189926 2.554905 8
-96.160190 -36.154814 2.781808 8
-99.291389 -36.185450 2.985815 8
-102.468487 -36.134580 3.231722 8
-105.742834 -35.862852 3.581323 8
-109.695843 -33.752558 4.750506 8
-114.962556 -28.245185 7.434620 8
-117.902094 -29.305641 7.219773 7
-121.253215 -29.307546 7.480614 7
-124.671103 -29.206138 7.794394 7
-128.104261 -29.137376 8.100808 7
-131.564272 -29.073616 8.412280 7
-135.055285 -29.007314 8.732329 7
-138.592680 -28.906822 9.075350 7
-142.124575 -28.889555 9.388676 7
-145.723689 -28.798054 9.743364 7
150.765212 -27.632823 9.170726 6
146.945419 -27.697557 8.931098 6
143.181965 -27.732675 8.712480 6
139.444018 -27.792221 8.490550 6
135.727519 -27.883452 8.261974 6
132.074150 -27.922736 8.063858 6
128.463202 -27.946091 7.879969 6
124.862063 -28.018604 7.681282 6
121.311925 -28.052511 7.506627 6
113.760012 -37.064160 3.366912 5
108.897915 -40.489692 1.711526 5
105.345638 -41.091879 1.312040 5
102.050561 -41.169164 1.150692 5
98.808662 -41.180771 1.024362 5
95.594586 -41.183460 0.907892 5
92.403392 -41.187118 0.796837 5
89.233882 -41.192738 0.690682 5
86.066692 -41.252738 0.566340 5
84.082225 -37.928960 1.931741 5
79.882199 -41.117434 0.446409 5
76.783897 -41.151883 0.349896 5
73.722751 -41.127719 0.284459 5
70.662330 -41.158084 0.200499 5
67.615090 -41.203301 0.115345 5
64.598482 -41.199188 0.056997 5
62.838377 -36.504547 2.052527 5
57.476602 -45.659863 -1.995306 9
54.009771 -47.890739 -3.012945 9
50.588406 -50.190740 -4.055134 9
47.271845 -52.297260 -5.007470 9
44.141138 -53.790688 -5.687210 9
41.229512 -54.401206 -5.977041 9
38.419085 -54.598805 -6.082127 9
35.655513 -54.610589 -6.101575 9
32.901580 -54.619634 -6.115223 9
30.164336 -54.576779 -6.101673 9
27.424770 -54.596649 -6.110897 9
24.692545 -54.618582 -6.116475 9
21.972155 -54.602757 -6.101073 9
19.255201 -54.607046 -6.089923 9
16.544487 -54.605353 -6.071664 9
13.837583 -54.615689 -6.054156 9
11.136851 -54.607771 -6.024203 9
8.439046 -54.610762 -5.994525 9
5.744857 -54.610500 -5.958950 9
3.052048 -54.637484 -5.930790 9
0.361350 -54.681791 -5.905723 9
-2.324595 -54.660240 -5.847416 9
-5.010240 -54.660683 -5.794224 9
-7.695292 -54.670503 -5.740634 9
-10.379986 -54.683535 -5.683946 9
-13.064790 -54.695794 -5.622404 9
-15.750128 -54.713694 -5.558803 9
-18.436736 -54.724773 -5.487669 9
-21.127512 -54.676344 -5.385863 9
-23.817417 -54.713211 -5.316878 9
-26.512684 -54.699875 -5.221241 9
-29.210241 -54.708148 -5.130453 9
-31.911824 -54.715353 -5.034527 9
-34.614227 -54.762158 -4.951347 9
-37.329241 -54.727879 -4.827715 9
-40.059201 -54.619206 -4.666444 9
-42.822970 -54.307952 -4.410756 9
-45.696101 -53.286174 -3.835646 9
-48.691533 -51.623847 -2.970988 9
-51.788392 -49.589354 -1.934668 9
-54.964979 -47.388435 -0.817267 9
-58.175434 -45.314050 0.251471 9
-65.052039 -24.048590 9.867273 8
-65.787786 -36.002222 4.712415 8
-68.790627 -35.975051 4.894277 8
-71.811114 -35.926941 5.091185 8
-74.840002 -35.903715 5.282748 8
-77.862551 -35.965679 5.441967 8
-80.916441 -35.955801 5.639224 8
-83.990034 -35.929749 5.849725 8
-87.092971 -35.857108 6.087286 8
-90.205941 -35.813266 6.318099 8
-93.325840 -35.807966 6.537792 8
-96.477933 -35.757771 6.784137 8
-99.646688 -35.718354 7.032101 8
-102.875033 -35.561726 7.339909 8
-106.205680 -35.177702 7.758134 8
-110.540773 -32.049873 9.435185 8
-115.952669 -26.245147 12.348238 8
-118.601621 -28.163992 11.742400 7
-122.027265 -28.040031 12.077673 7
-125.521767 -27.816031 12.466654 7
-129.015735 -27.670666 12.827444 7
-132.527565 -27.556578 13.181838 7
-136.078387 -27.425399 13.552301 7
-139.707008 -27.194859 13.977248 7
-143.351822 -27.008382 14.390457 7
-147.013256 -26.864097 14.792840 7
148.586045 -25.867546 14.050456 6
144.703512 -26.049031 13.740360 6
140.898603 -26.164223 13.469324 6
137.133586 -26.278936 13.206749 6
133.377853 -26.451651 12.925606 6
129.735219 -26.471679 12.722489 6
126.103267 -26.539638 12.505058 6
122.510012 -26.596427 12.300298 6
115.578402 -34.126636 8.689137 5
109.671264 -39.808626 5.937003 5
105.927840 -40.807262 5.332085 5
102.603407 -40.916711 5.139590 5
99.341607 -40.939801 4.993002 5
96.120810 -40.921582 4.871630 5
92.900620 -40.962368 4.729807 5
89.719623 -40.960405 4.613643 5
86.573894 -40.920109 4.520998 5
83.418575 -40.965460 4.395645 5
80.304125 -40.951308 4.303228 5
77.196418 -40.974938 4.199657 5
74.109579 -40.992450 4.104718 5
71.041940 -41.006150 4.017297 5
68.005449 -40.971475 3.957419 5
64.966890 -40.999937 3.874734 5
62.847683 -37.629439 5.328624 5
57.788564 -45.566266 1.696021 9
54.278014 -47.922453 0.583419 9
50.858623 -50.164194 -0.471513 9
47.510653 -52.359142 -1.499433 9
44.361632 -53.891941 -2.223905 9
41.404215 -54.688025 -2.611812 9
38.570506 -54.976073 -2.766243 9
35.814647 -54.917340 -2.759836 9
33.060902 -54.892025 -2.763482 9
30.306057 -54.923562 -2.787723 9
27.562256 -54.937809 -2.799278 9
24.831430 -54.912386 -2.788118 9
22.105931 -54.893512 -2.775019 9
19.385953 -54.876433 -2.757860 9
16.670798 -54.863045 -2.737506 9
13.962226 -54.830131 -2.703534 9
11.248295 -54.905834 -2.713537 9
8.543554 -54.931507 -2.696239 9
5.848576 -54.864731 -2.632555 9
3.149584 -54.901304 -2.610517 9
0.455748 -54.888560 -2.561475 9
-2.237469 -54.903337 -2.519991 9
-4.927951 -54.862842 -2.448788 9
-7.619161 -54.874227 -2.396102 9
-10.309967 -54.882806 -2.337305 9
-13.000928 -54.895122 -2.275333 9
-15.692479 -54.910132 -2.209704 9
-18.385872 -54.901502 -2.128509 9
-21.080694 -54.910551 -2.050382 9
-23.777671 -54.922797 -1.968767 9
-26.479875 -54.895485 -1.864288 9
-29.180705 -54.944940 -1.789576 9
-31.886538 -54.971301 -1.699408 9
-34.598168 -54.979682 -1.596048 9
-37.316583 -54.971319 -1.479999 9
-40.053409 -54.853762 -1.309160 9
-42.839595 -54.410809 -0.984916 9
-45.703190 -53.515574 -0.448911 9
-48.736636 -51.636727 0.542032 9
-51.858020 -49.502920 1.656773 9
-55.060818 -47.206697 2.853585 9
-58.295244 -45.062102 3.989138 9
-65.149447 -24.013490 13.800191 8
-66.010377 -35.369745 8.765666 8
-69.038925 -35.298469 8.976657 8
-72.067002 -35.293153 9.163460 8
-75.123866 -35.221298 9.387115 8
-78.173906 -35.241396 9.574650 8
-81.269046 -35.139789 9.824775 8
-84.375246 -35.062896 10.070016 8
-87.483410 -35.043387 10.295252 8
-90.617368 -34.994252 10.540894 8
-93.791689 -34.872598 10.827087 8
-96.993756 -34.729627 11.130237 8
-100.196632 -34.653994 11.409077 8
-103.435804 -34.534614 11.715570 8
-106.933390 -33.733158 12.349479 8
-112.044417 -28.511403 15.070491 8
-117.790430 -21.956066 18.437434 7
-119.804101 -25.709436 16.957940 7
-123.291015 -25.534523 17.337522 7
-126.798475 -25.383756 17.714083 7
-132.930625 -18.986156 21.068486 7
-134.032212 -24.788466 18.632973 7
-137.750069 -24.384360 19.157024 7
-141.379920 -24.264108 19.554866 7
-145.203994 -23.799883 20.127027 7
151.013747 -22.646127 19.935543 6
147.039579 -22.887499 19.568904 6
143.135182 -23.082172 19.233892 6
139.257150 -23.308050 18.893196 6
135.436737 -23.502686 18.576308 6
131.661579 -23.686173 18.273463 6
127.950618 -23.815313 18.004880 6
124.251803 -23.994988 17.720780 6
118.403371 -29.000984 15.170127 5
110.936583 -38.027584 10.741178 5
106.793101 -39.875448 9.705445 5
103.410143 -40.067717 9.456417 5
100.112834 -40.122739 9.279044 5
96.852958 -40.148390 9.122450 5
93.614739 -40.180951 8.969508 5
90.402169 -40.207837 8.826009 5
87.190170 -40.296217 8.660481 5
84.023059 -40.321628 8.530980 5
80.875817 -40.349892 8.406656 5
77.747556 -40.381535 8.287182 5
74.660541 -40.342910 8.206759 5
71.556375 -40.417955 8.079696 5
68.495220 -40.409194 7.997812 5
65.441834 -40.430612 7.908020 5
62.818609 -38.900475 8.544526 5
58.258685 -44.866745 5.708279 9
54.690240 -47.377331 4.483198 9
51.207739 -49.812061 3.300097 9
47.797858 -52.214989 2.138313 9
44.615931 -53.844542 1.341110 9
41.636325 -54.698887 0.908818 9
38.812500 -54.886595 0.790758 9
36.035079 -54.892533 0.762240 9
33.267456 -54.894943 0.740697 9
30.507641 -54.901934 0.722349 9
27.753364 -54.925875 0.701448 9
25.011161 -54.918891 0.700119 9
22.277479 -54.896747 0.711048 9
19.547305 -54.893587 0.718422 9
16.818166 -54.933163 0.711234 9
14.100188 -54.917402 0.734849 9
11.384864 -54.919617 0.755336 9
8.671844 -54.944763 0.770388 9
5.964259 -54.946418 0.801491 9
3.262625 -54.890863 0.864267 9
0.556970 -54.956340 0.876154 9
-2.142739 -54.935661 0.933135 9
-4.842224 -54.941923 0.982813 9
-7.540653 -54.929494 1.046353 9
-10.239134 -54.887129 1.128998 9
-12.938026 -54.934614 1.175148 9
-15.638191 -54.913106 1.258568 9
-18.338206 -54.959131 1.315844 9
-21.042923 -54.914419 1.420590 9
-23.749417 -54.902537 1.515369 9
-26.459722 -54.882537 1.619262 9
-29.168418 -54.940789 1.692016 9
-31.888274 -54.899326 1.816661 9
-34.611064 -54.886295 1.933469 9
-37.338313 -54.883673 2.050871 9
-40.082136 -54.787321 2.217658 9
-42.871391 -54.394197 2.529182 9
-45.763490 -53.354037 3.150316 9
-48.814979 -51.425059 4.195758 9
-51.971914 -49.137695 5.417625 9
-55.189273 -46.834517 6.655398 9
-58.510058 -44.281637 8.019603 9
-65.134500 -24.578407 17.490523 8
-66.362153 -34.097330 13.177021 8
-69.425680 -33.971756 13.423776 8
-72.485828 -33.931189 13.636939 8
-75.578520 -33.812060 13.894094 8
-78.677984 -33.733826 14.138685 8
-81.796897 -33.644215 14.395617 8
-84.924438 -33.588192 14.643560 8
-88.080278 -33.493340 14.917148 8
-91.256958 -33.392758 15.200737 8
-94.469470 -33.239640 15.516906 8
-97.699469 -33.101402 15.833515 8
-100.954137 -32.956760 16.160899 8
-104.253409 -32.749155 16.526493 8
-116.131757 -7.757477 28.881253 8
-116.893903 -15.619110 25.379090 7
-119.463098 -18.143748 24.460251 7
-121.736437 -21.355689 23.210293 7
-125.484709 -20.678511 23.858336 7
-129.776469 -18.763120 25.121763 7
-133.054618 -19.460374 25.118697 7
131.337708 -17.914463 25.180050 6
127.302951 -18.623219 24.612177 6
123.467820 -19.002413 24.214297 6
113.704432 -32.875626 17.276469 5
108.021229 -38.119166 14.548093 5
104.471259 -38.628676 14.125743 5
101.140487 -38.692326 13.927209 5
97.824804 -38.784844 13.722334 5
94.556412 -38.822197 13.551576 5
91.310138 -38.864585 13.385731 5
88.051632 -39.005757 13.179583 5
84.865839 -39.008459 13.047236 5
81.681643 -39.067686 12.894740 5
78.543124 -39.050954 12.785655 5
75.402577 -39.099836 12.651916 5
72.279785 -39.153523 12.522655 5
69.177988 -39.198737 12.404152 5
66.095115 -39.239136 12.294574 5
63.017204 -39.323430 12.170555 5
58.853758 -43.698776 10.002565 9
55.195591 -46.470100 8.609294 9
51.638066 -49.129215 7.277125 9
48.202335 -51.560504 6.060909 9
44.931124 -53.523831 5.074822 9
41.927096 -54.431761 4.598501 9
39.059575 -54.783651 4.393301 9
36.277852 -54.756795 4.374435 9
33.498892 -54.764158 4.344987 9
30.734224 -54.736529 4.337902 9
27.971842 -54.743182 4.320153 9
25.218355 -54.739946 4.312755 9
22.472227 -54.731876 4.313278 9
19.731208 -54.732028 4.315484 9
16.994773 -54.742451 4.318380 9
14.269041 -54.696772 4.353565 9
11.544143 -54.683452 4.378898 9
8.818135 -54.734796 4.378970 9
6.102941 -54.688187 4.431259 9
3.385597 -54.717392 4.452955 9
0.673643 -54.690510 4.506930 9
-2.038039 -54.693367 4.552268 9
-4.747611 -54.661007 4.619960 9
-7.457859 -54.689679 4.664078 9
-10.167256 -54.668376 4.737624 9
-12.877212 -54.674294 4.803748 9
-15.589367 -54.607444 4.910270 9
-18.300945 -54.654634 4.967865 9
-21.016546 -54.627138 5.066837 9
-23.733951 -54.625276 5.159202 9
-26.454039 -54.630540 5.253839 9
-29.180658 -54.593976 5.374271 9
-31.896405 -54.749278 5.408294 9
-34.629027 -54.738956 5.527622 9
-37.368033 -54.720271 5.656810 9
-40.127477 -54.577415 5.851719 9
-42.944386 -54.049989 6.238200 9
-45.867479 -52.873269 6.944771 9
-48.939884 -50.898648 8.044451 9
-52.133777 -48.471369 9.371643 9
-55.430686 -45.793441 10.829455 9
-58.782639 -43.184187 12.263629 9
-65.190708 -24.770285 21.387891 8
-66.864687 -32.080737 18.025560 8
-69.929769 -32.098919 18.213809 8
-73.055250 -31.901130 18.514463 8
-76.208389 -31.661577 18.842941 8
-79.361690 -31.501734 19.139973 8
-82.540692 -31.314014 19.458239 8
-85.734372 -31.146231 19.774434 8
-88.907904 -31.124383 20.026627 8
-92.152056 -30.919612 20.376660 8
-95.430853 -30.675230 20.754372 8
-98.735045 -30.428012 21.141815 8
-102.046727 -30.236420 21.510158 8
-105.549359 -29.548613 22.133508 8
110.153177 -34.296368 20.518900 5
105.970575 -36.169345 19.390197 5
102.497454 -36.477783 19.051510 5
99.143481 -36.567931 18.829925 5
95.813154 -36.665683 18.612668 5
92.502385 -36.780225 18.395070 5
89.237207 -36.838389 18.213304 5
85.951658 -37.021134 17.977566 5
82.732676 -37.080796 17.810437 5
79.535924 -37.137837 17.652105 5
76.358096 -37.199858 17.498716 5
73.224583 -37.180896 17.392590 5
70.079887 -37.259180 17.245691 5
66.956475 -37.327856 17.110680 5
63.850186 -37.398342 16.981848 5
62.878037 -29.263720 20.896053 5
55.862990 -44.926953 13.113302 9
52.194846 -47.928798 11.566917 9
48.644508 -50.756630 10.114015 9
45.325255 -52.849679 9.029480 9
42.282986 -53.859133 8.483793 9
40.213363 -49.981223 10.342021 9
36.584547 -54.283199 8.194109 9
33.789430 -54.301760 8.153415 9
31.000593 -54.337625 8.110334 9
28.227082 -54.329956 8.094652 9
25.456461 -54.354090 8.069415 9
22.695932 -54.357182 8.060494 9
19.944289 -54.338866 8.068046 9
17.192422 -54.372662 8.056026 9
14.453206 -54.336155 8.084403 9
11.711627 -54.371895 8.083310 9
8.986504 -54.252621 8.164123 9
6.254552 -54.254007 8.191719 9
3.527420 -54.221105 8.242046 9
0.800366 -54.225168 8.280163 9
-1.924902 -54.233216 8.322241 9
-4.648031 -54.211033 8.385079 9
-7.370739 -54.176648 8.459851 9
-10.094089 -54.208489 8.508034 9
-12.817786 -54.165608 8.598895 9
-15.542256 -54.176074 8.669506 9
-18.269002 -54.151466 8.763367 9
-20.996626 -54.167554 8.843210 9
-23.732254 -54.069703 8.985254 9
-26.464103 -54.117589 9.061532 9
-29.203145 -54.102318 9.175061 9
-31.946820 -54.085929 9.295289 9
-34.695897 -54.066584 9.423167 9
-37.452861 -54.026683 9.567455 9
-40.219024 -53.965484 9.728599 9
-43.050825 -53.441287 10.125857 9
-46.014469 -52.079519 10.946123 9
-49.147014 -49.815080 12.223318 9
-52.411317 -47.074229 13.746980 9
-55.758416 -44.245444 15.324557 9
-59.213510 -41.208730 17.016398 9
-65.189547 -25.269547 25.169163 8
-67.619412 -28.817989 23.595934 8
-70.776936 -28.614887 23.905850 8
-73.955615 -28.395750 24.231683 8
-77.153322 -28.175157 24.566247 8
-80.410173 -27.792262 24.990677 8
-83.661413 -27.524760 25.365396 8
-86.942962 -27.226507 25.764102 8
-90.353696 -26.548421 26.363745 8
-93.736659 -26.080607 26.866216 8
-103.187664 -5.524212 37.586101 8
-100.537198 -25.317710 27.811156 8
-104.047007 -24.731007 28.402391 8
108.691734 -30.843336 26.245895 5
104.671995 -32.296502 25.295650 5
101.143240 -32.667471 24.910494 5
97.704991 -32.891448 24.609675 5
94.307815 -33.084024 24.333704 5
90.946820 -33.252976 24.078414 5
87.604386 -33.443578 23.820554 5
84.274347 -33.673582 23.550997 5
81.028557 -33.724656 23.380724 5
77.780213 -33.849631 23.180886 5
74.540610 -34.016953 22.967504 5
71.327782 -34.167141 22.770701 5
68.157931 -34.237686 22.622036 5
64.984898 -34.386518 22.441345 5
62.853382 -30.589699 24.265123 5
56.758340 -42.491164 18.154103 9
52.951184 -45.909794 16.345461 9
49.288521 -49.079684 14.671405 9
45.821806 -51.718230 13.274134 9
42.689956 -53.054504 12.542116 9
39.763493 -53.533683 12.249732 9
36.939549 -53.562644 12.191181 9
34.132738 -53.549972 12.160169 9
31.334082 -53.539312 12.134641 9
28.534562 -53.587163 12.086086 9
25.751246 -53.580335 12.071529 9
22.977186 -53.554590 12.072912 9
20.200700 -53.598761 12.045446 9
17.435964 -53.596348 12.047817 9
14.671616 -53.643377 12.031615 9
11.920466 -53.603003 12.065787 9
9.169582 -53.601919 12.086478 9
6.424247 -53.569507 12.129273 9
3.678221 -53.591652 12.150868 9
0.937124 -53.567352 12.202188 9
-1.803688 -53.574702 12.243849 9
-4.541894 -53.532329 12.316917 9
-7.280872 -53.540510 12.370789 9
-10.019392 -53.505499 12.452808 9
-12.758840 -53.489405 12.531623 9
-15.499304 -53.485239 12.610774 9
-18.242831 -53.429865 12.722226 9
-20.986836 -53.441828 12.806013 9
-23.734971 -53.418048 12.914338 9
-26.486330 -53.400941 13.025757 9
-29.242933 -53.367253 13.152101 9
-32.004782 -53.330208 13.286711 9
-34.774472 -53.269190 13.440120 9
-37.540636 -53.306734 13.550025 9
-40.340836 -53.091899 13.795171 9
-43.204449 -52.459065 14.260512 9
-46.206602 -50.958223 15.176672 9
-49.422273 -48.272876 16.707154 9
-52.746984 -45.315496 18.387209 9
-56.247867 -41.744410 20.392796 9
-64.694702 -11.016926 36.349643 8
-65.856345 -22.253182 30.787971 8
-69.265480 -21.131844 31.578996 8
-72.935404 -18.955233 32.923821 8
90.904769 -25.222297 32.250175 5
87.394690 -25.663725 31.848353 5
83.907878 -26.130060 31.442800 5
80.317099 -27.022545 30.823687 5
76.939398 -27.347867 30.510184 5
73.606740 -27.608295 30.239278 5
70.267888 -27.974195 29.921953 5
66.973844 -28.267726 29.650857 5
63.666648 -28.699001 29.316433 5
58.168733 -38.022992 24.365244 9
53.943117 -42.932420 21.722725 9
52.163428 -37.604778 24.408669 9
46.489711 -49.817240 17.992342 9
43.243391 -51.556595 17.024594 9
40.235542 -52.319158 16.571438 9
37.396532 -52.306455 16.527622 9
34.556896 -52.350802 16.461204 9
31.732522 -52.361547 16.419145 9
28.914240 -52.388191 16.375746 9
26.105267 -52.407140 16.343200 9
23.308284 -52.391150 16.335583 9
20.510842 -52.430596 16.306056 9
17.725653 -52.418911 16.309792 9
14.948211 -52.379602 16.334596 9
12.169010 -52.405319 16.332464 9
9.394353 -52.433082 16.336000 9
6.627227 -52.409667 16.372770 9
3.861793 -52.401310 16.408456 9
1.099487 -52.373796 16.460789 9
-1.661054 -52.332820 16.526825 9
-4.422104 -52.333459 16.578007 9
-7.182299 -52.328531 16.638803 9
-9.942364 -52.312729 16.711985 9
-12.703187 -52.287928 16.796603 9
-15.466352 -52.214938 16.913053 9
-18.230594 -52.207697 17.002142 9
-20.997971 -52.176700 17.110416 9
-23.771610 -52.086228 17.256538 9
-26.546897 -52.051832 17.380376 9
-29.326889 -52.014038 17.512930 9
-32.113743 -51.954962 17.663582 9
-34.910022 -51.860573 17.839742 9
-37.709445 -51.807910 18.001210 9
-40.524036 -51.685390 18.206412 9
-43.442941 -50.803458 18.817044 9
-46.490435 -49.168071 19.831399 9
-49.794706 -46.075979 21.620567 9
-53.290669 -42.245186 23.809814 9
-57.005383 -37.663259 26.407519 9
55.724387 -36.694818 28.972746 9
51.277190 -42.739104 25.653628 9
47.367340 -46.981182 23.307898 9
43.918776 -49.494680 21.894218 9
40.835335 -50.475446 21.306489 9
37.913854 -50.749070 21.103515 9
35.050509 -50.777219 21.038841 9
32.202492 -50.770206 21.000289 9
29.356828 -50.801953 20.948444 9
26.523302 -50.807594 20.917810 9
23.697757 -50.807907 20.897288 9
20.878908 -50.807213 20.884547 9
18.063587 -50.828866 20.867134 9
15.258004 -50.810858 20.878024 9
12.457318 -50.787332 20.899032 9
9.658712 -50.785157 20.915844 9
6.866128 -50.746292 20.959342 9
4.075160 -50.718686 21.004004 9
1.285469 -50.705163 21.048318 9
-1.501494 -50.659892 21.116696 9
-4.156271 -45.059837 24.152563 9
-7.074738 -50.564827 21.277378 9
-9.862382 -50.567160 21.341905 9
-12.650794 -50.511211 21.444720 9
-15.441002 -50.471543 21.546079 9
-18.233776 -50.423650 21.659086 9
-21.029507 -50.378573 21.777874 9
-23.830166 -50.306886 21.918219 9
-26.635349 -50.238499 22.064172 9
-29.448333 -50.134349 22.236707 9
-32.263798 -50.079956 22.390047 9
-35.088494 -49.992010 22.568899 9
-37.912566 -49.981530 22.713705 9
-40.777636 -49.668589 23.028786 9
-43.743305 -48.660105 23.726429 9
-48.233624 -36.660068 30.359368 9
-50.407590 -42.251661 27.519203 9
-54.236907 -36.635761 30.737268 9
53.724736 -33.290405 34.795518 9
48.775701 -41.751591 30.063904 9
44.898672 -45.995596 27.656475 9
41.626328 -47.688553 26.656565 9
38.633512 -48.128430 26.351418 9
35.728458 -48.175979 26.269067 9
32.835441 -48.212336 26.200738 9
29.952579 -48.243305 26.143206 9
28.032864 -41.536225 29.777140 9
25.095583 -41.554464 29.741501 9
22.163288 -41.591586 29.703467 9
18.510876 -48.275742 26.040726 9
15.666508 -48.279837 26.036556 9
12.829570 -48.256094 26.055254 9
9.991928 -48.290543 26.049788 9
7.613307 -41.504351 29.780404 9
4.339211 -48.184287 26.157476 9
1.512600 -48.189963 26.190606 9
-1.310508 -48.154857 26.253659 9
-4.133225 -48.130170 26.318642 9
-6.954878 -48.047556 26.422976 9
-9.778169 -48.005227 26.512925 9
-12.602731 -47.959441 26.612447 9
-15.429873 -47.876623 26.739977 9
-18.260185 -47.797023 26.873495 9
-21.093648 -47.733195 27.006140 9
-23.932695 -47.638451 27.163579 9
-26.775534 -47.567961 27.315559 9
-29.625967 -47.466113 27.492694 9
-32.484631 -47.344604 27.688638 9
-35.350884 -47.223571 27.892372 9
-38.221772 -47.137128 28.085134 9
-41.150827 -46.613865 28.527339 9
-44.224850 -45.079247 29.537573 9
-47.587790 -41.722279 31.566881 9
-51.757116 -33.432726 36.343166 9
46.549015 -39.321187 35.355660 9
42.819282 -42.902890 33.259591 9
39.617141 -44.129504 32.497805 9
36.638028 -44.293081 32.342352 9
33.683987 -44.382919 32.236820 9
30.741975 -44.464097 32.144567 9
27.818427 -44.484924 32.094552 9
24.898994 -44.534720 32.036584 9
21.986842 -44.589842 31.983899 9
19.089903 -44.574152 31.979179 9
16.194935 -44.591774 31.963973 9
13.307702 -44.582891 31.971818 9
10.423145 -44.593768 31.976739 9
7.545259 -44.565418 32.011821 9
4.670750 -44.523293 32.062778 9
1.798520 -44.468749 32.128853 9
-1.072796 -44.412517 32.204028 9
-3.943479 -44.339670 32.296696 9
-6.814404 -44.232302 32.416944 9
-9.687608 -44.199970 32.503220 9
-12.562345 -44.101494 32.634897 9
-15.439846 -44.017942 32.766436 9
-18.322746 -43.862104 32.946964 9
-21.213853 -43.636586 33.175131 9
-24.110182 -43.457211 33.385750 9
-27.013379 -43.282599 33.602171 9
-29.922161 -43.137037 33.810726 9
-32.844892 -42.915097 34.071035 9
-35.778035 -42.687818 34.343084 9
-38.722988 -42.449457 34.630207 9
-41.752958 -41.570486 35.289459 9
-45.079104 -38.539598 37.180006 9
41.562076 -35.042707 41.747515 9
38.180598 -36.867281 40.622971 9
35.128225 -36.998590 40.484475 9
32.083534 -37.157515 40.339190 9
29.054597 -37.289291 40.218616 9
26.043983 -37.362787 40.140615 9
23.039491 -37.457431 40.059379 9
20.050733 -37.486768 40.024651 9
17.068894 -37.511443 40.001469 9
14.095537 -37.505169 40.004942 9
11.124756 -37.522545 40.003611 9
8.163128 -37.468449 40.052234 9
5.203237 -37.421865 40.105328 9
2.248390 -37.303199 40.208739 9
-0.706205 -37.164887 40.332290 9
-3.659823 -36.927779 40.521627 9
-6.618347 -36.740712 40.691013 9
-9.580349 -36.477516 40.913229 9
-12.548841 -36.144366 41.184810 9
-15.527295 -35.707065 41.525615 9
-18.515444 -35.313298 41.850474 9
-21.513852 -34.929059 42.179069 9
-24.525802 -34.495316 42.545620 9
-149.981988 -11.111656 -27.864467 7
-148.985836 -16.709807 -24.904043 7
-144.396903 -18.426119 -25.896318 7
-149.722086 2.712145 -29.873796 7
-145.982906 0.202215 -29.986393 7
-142.444530 -2.502977 -29.897440 7
-139.216332 -5.537991 -29.473926 7
-136.393994 -9.034439 -28.590928 7
-134.318123 -13.415195 -26.832162 7
-132.145870 -17.759235 -25.150507 7
-149.232627 10.184820 -28.223824 7
-145.013584 8.183435 -28.881655 7
-140.963736 6.049925 -29.387238 7
-137.059604 3.797290 -29.759586 7
-133.334849 1.378259 -29.953028 7
-129.789711 -1.221397 -29.958388 7
-126.467139 -4.065391 -29.715353 7
-123.457534 -7.278485 -29.102981 7
-120.970983 -11.140181 -27.846884 7
-119.785720 -16.653216 -24.951258 7
-106.855496 -7.544784 -36.773616 8
-103.636675 -10.353191 -36.552086 8
-101.314204 -14.355681 -35.168785 8
-99.980869 -19.769539 -32.444295 8
-145.510855 14.616747 -26.210215 7
-141.120506 12.817217 -27.103746 7
-136.843841 10.952995 -27.910773 7
-132.704177 8.992014 -28.599307 7
-128.683073 6.944660 -29.184737 7
-124.840370 4.735825 -29.589879 7
-121.091914 2.447240 -29.907638 7
-117.544818 -0.053752 -30.001152 7
-108.911161 3.536686 -36.466111 8
-104.407781 2.380900 -37.902170 8
-100.998796 -0.076176 -37.984160 8
-97.741361 -2.722097 -37.880729 8
-94.635736 -5.572801 -37.581586 8
-91.760976 -8.752022 -36.969353 8
-89.209582 -12.414363 -35.900499 8
-87.212473 -16.926985 -34.028686 8
-146.030207 21.003805 -23.552530 7
-141.212052 19.604054 -24.938841 7
-137.788125 16.876214 -24.775980 7
-133.335290 15.214813 -25.829011 7
-129.001109 13.486424 -26.788672 7
-124.788521 11.680041 -27.646124 7
-120.708808 9.774666 -28.381873 7
-116.897793 7.606047 -28.820969 7
-108.359967 10.971689 -35.233592 8
-103.834889 9.850287 -36.729569 8
-100.149422 7.776438 -37.194376 8
-96.551152 5.619006 -37.569542 8
-93.024598 3.389776 -37.870416 8
-89.665471 0.955187 -37.962142 8
-86.381303 -1.576868 -37.961184 8
-83.245074 -4.316657 -37.759274 8
-80.309523 -7.356856 -37.269770 8
-77.585165 -10.737489 -36.461487 8
-75.309295 -14.843232 -34.965654 8
-73.986657 -20.512780 -31.984713 8
-53.296889 -18.526428 -43.882398 9
-48.544239 -18.361226 -46.448745 9
-45.770900 -21.668709 -45.778095 9
-44.360460 -27.601558 -42.731651 9
-41.637096 -31.216114 -41.855535 9
-38.059228 -33.211917 -42.464878 9
-143.823321 23.939019 -19.933183 7
-138.814170 22.717573 -21.575957 7
-133.998419 21.385715 -23.056088 7
-129.223223 20.088427 -24.547724 7
-125.822646 17.419666 -24.433847 7
-121.476953 15.777335 -25.494022 7
-117.218058 14.095607 -26.492223 7
-109.129688 16.812779 -32.384473 8
-104.217010 16.109970 -34.386169 8
-100.287714 14.332120 -35.177629 8
-96.442366 12.493339 -35.893537 8
-92.714302 10.544852 -36.484271 8
-89.059387 8.532876 -37.003096 8
-85.478637 6.449217 -37.443980 8
-82.016477 4.226235 -37.739120 8
-78.626379 1.916007 -37.946975 8
-75.358541 -0.561568 -37.988544 8
-72.224004 -3.237440 -37.837618 8
-69.209464 -6.108696 -37.503026 8
-63.320846 -4.556185 -41.589826 9
-58.209995 -4.023902 -44.606460 9
-53.196789 -3.491686 -47.579554 9
-48.747581 -3.749131 -49.745471 9
-45.235441 -5.514675 -50.436368 9
-42.218185 -8.136223 -50.312680 9
-39.464122 -11.266426 -49.724277 9
-36.890184 -14.794579 -48.787642 9
-34.564942 -18.890023 -47.355850 9
-32.752149 -24.133016 -44.910013 9
-31.337267 -30.392908 -41.596717 9
-27.800252 -32.389910 -42.202596 9
-147.549019 27.327912 -13.644669 7
-142.098174 26.414254 -15.763886 7
-136.909279 25.347510 -17.651672 7
-131.850629 24.243190 -19.454934 7
-126.955239 23.060427 -21.128364 7
-122.258549 21.752023 -22.621051 7
-117.918671 20.134303 -23.725080 7
-112.524124 19.739684 -26.220942 8
-105.309795 21.525865 -31.161185 8
-101.124426 20.021081 -32.285775 8
-97.089478 18.394141 -33.256087 8
-93.161770 16.685621 -34.122192 8
-89.318735 14.914970 -34.909032 8
-85.519325 13.127840 -35.669087 8
-81.844787 11.213387 -36.284301 8
-78.227110 9.251619 -36.844684 8
-74.680372 7.217246 -37.325614 8
-71.254766 5.030823 -37.646718 8
-67.880455 2.780897 -37.904830 8
-61.710166 4.758930 -42.510523 9
-56.776691 5.058783 -45.333027 9
-51.927252 5.370483 -48.125760 9
-47.742119 4.738485 -49.935050 9
-44.181262 3.144358 -50.769738 9
-41.011951 0.904961 -50.967528 9
-37.945907 -1.523459 -50.989700 9
-35.000264 -4.190398 -50.793849 9
-32.093331 -6.963424 -50.512857 9
-29.317012 -10.032339 -49.969999 9
-26.647866 -13.377907 -49.190932 9
-24.172972 -17.207332 -47.990009 9
-22.035412 -21.873913 -46.053636 9
-20.902665 -28.937928 -41.977210 9
-17.705311 -31.608957 -41.964826 9
-14.205104 -33.603838 -42.575806 9
-234.750451 143.688870 -48.461401 0
-228.703620 141.690053 -49.896636 0
-224.889719 138.916437 -49.658394 0
-146.662766 29.051767 -8.435106 7
-140.940870 28.352805 -10.905506 7
-135.463912 27.531109 -13.168753 7
-130.161026 26.642814 -15.301343 7
-125.105182 25.603472 -17.205237 7
-120.202608 24.495302 -18.987409 7
-117.867632 20.713025 -17.543992 7
-107.738100 25.474234 -26.221012 8
-102.758371 24.797229 -28.368272 8
-98.455177 23.437330 -29.685681 8
-94.243065 22.034119 -30.931279 8
-90.186815 20.501999 -32.010684 8
-86.244204 18.880849 -32.974122 8
-82.365636 17.224807 -33.885733 8
-78.592519 15.473919 -34.681537 8
-74.862501 13.702822 -35.446807 8
-71.223611 11.840781 -36.106542 8
-67.660167 9.900722 -36.678102 8
-64.698235 7.100332 -36.335376 8
-56.633855 11.990962 -44.082779 9
-51.794831 12.273918 -46.902514 9
-47.561665 11.732799 -48.830319 9
-43.931686 10.296215 -49.818241 9
-40.617860 8.368301 -50.301320 9
-37.412632 6.265022 -50.610549 9
-34.266253 4.058433 -50.822739 9
-31.152816 1.785791 -50.977722 9
-28.115079 -0.641499 -50.991172 9
-25.133686 -3.200866 -50.889268 9
-22.217428 -5.923421 -50.645879 9
-19.374324 -8.842259 -50.233967 9
-16.642058 -12.058371 -49.563625 9
-14.073331 -15.719121 -48.504953 9
-11.728604 -20.008939 -46.898494 9
-9.912220 -25.718520 -44.035105 9
-7.772416 -30.892242 -41.724898 9
-4.280100 -32.833604 -42.381681 9
-236.556594 145.251481 -41.871325 0
-222.853249 145.998067 -49.360842 0
-219.396490 143.123508 -48.893788 0
-216.003018 140.250243 -48.402198 0
-212.619911 137.397255 -47.927360 0
-146.601338 30.023927 -2.180814 7
-140.390657 29.723529 -5.266281 7
-134.582888 29.171361 -7.961346 7
-129.030888 28.488147 -10.431713 7
-123.677341 27.716758 -12.738827 7
-118.535462 26.831515 -14.856892 7
-113.343962 26.099176 -17.118294 8
-105.199666 28.723034 -23.390226 8
-100.563211 27.663922 -25.130450 8
-96.166992 26.409611 -26.607049 8
-91.839098 25.145498 -28.045846 8
-87.629123 23.806969 -29.373586 8
-83.472327 22.466043 -30.676848 8
-79.520512 20.924139 -31.731078 8
-75.635244 19.345054 -32.728556 8
-71.841312 17.689541 -33.627704 8
-68.099487 16.003594 -34.482684 8
-64.710555 13.851272 -34.818497 8
-56.981810 18.104919 -42.095168 9
-52.291959 18.127057 -44.701874 9
-47.924993 17.776582 -46.872052 9
-44.163201 16.564460 -48.103306 9
-40.741962 14.847993 -48.794905 9
-37.436838 12.961037 -49.307306 9
-34.167109 11.027609 -49.772936 9
-30.936297 9.035585 -50.181276 9
-27.759643 6.949803 -50.499043 9
-24.636230 4.761881 -50.720863 9
-21.507829 2.575804 -50.952521 9
-18.481946 0.171679 -50.979150 9
-15.492244 -2.333430 -50.920315 9
-12.551651 -4.978470 -50.741458 9
-9.687477 -7.839644 -50.373807 9
-6.907845 -10.958659 -49.783650 9
-4.240825 -14.430421 -48.888778 9
-1.734131 -18.411689 -47.552636 9
0.419298 -23.456425 -45.278570 9
2.033521 -30.181800 -41.530048 9
5.481220 -32.173462 -42.138695 9
8.940472 -34.136720 -42.779833 9
-242.880570 145.281866 -31.582830 0
-230.611509 145.330762 -38.008128 0
-218.372690 145.611493 -44.605029 0
-210.737419 144.357605 -47.610125 0
-207.376246 141.528190 -47.163084 0
-204.101006 138.687682 -46.668322 0
-148.142024 29.540581 6.134263 7
-141.005011 30.008255 1.894896 7
-134.503800 30.044535 -1.684251 7
-128.454217 29.790400 -4.807861 7
-122.775095 29.298904 -7.559347 7
-117.978584 28.011145 -9.245387 7
-109.416234 30.835557 -16.035656 8
-103.310111 31.256451 -19.711406 8
-98.614359 30.251918 -21.567772 8
-94.138241 29.080485 -23.185999 8
-89.708297 27.931079 -24.800459 8
-85.426023 26.678123 -26.262844 8
-81.174703 25.456039 -27.736188 8
-77.037002 24.157741 -29.096184 8
-73.016128 22.769554 -30.330988 8
-69.094913 21.304383 -31.459522 8
-65.282013 19.740943 -32.461384 8
-58.165675 22.963889 -38.801388 9
-52.853517 23.839936 -42.428311 9
-48.724594 23.100980 -44.222562 9
-44.800186 22.129349 -45.738035 9
-41.260384 20.612006 -46.646211 9
-37.854239 18.912701 -47.352284 9
-34.482283 17.182356 -48.021730 9
-31.172508 15.367181 -48.599777 9
-27.871772 13.553627 -49.179037 9
-24.641588 11.625530 -49.640673 9
-21.428038 9.674036 -50.081140 9
-18.271917 7.614482 -50.416156 9
-15.147730 5.487083 -50.689270 9
-12.056898 3.280802 -50.891748 9
-9.024144 0.932397 -50.963975 9
-6.005339 -1.474034 -50.991772 9
-3.060174 -4.085232 -50.835485 9
-0.180611 -6.904483 -50.497472 9
2.667270 -9.869867 -50.041812 9
5.398065 -13.220705 -49.247750 9
8.003514 -17.023708 -48.062916 9
10.370677 -21.649473 -46.156833 9
12.066828 -28.463314 -42.302080 9
15.147138 -31.468692 -41.981294 9
