ply
format ascii 1.0
element vertex 1377
property float x
property float y
property float z
property int scalar_Label
end_header
-69.966681 -30.428885 -20.601364 8
-72.887917 -30.480010 -20.563287 8
-75.824679 -30.506989 -20.520220 8
-78.776254 -30.519026 -20.474280 8
-81.740429 -30.530146 -20.428716 8
-84.711318 -30.567042 -20.389727 8
-87.690459 -30.623013 -20.355763 8
-90.698122 -30.622049 -20.309128 8
-93.710192 -30.660194 -20.272171 8
-96.732056 -30.716700 -20.240068 8
-99.774620 -30.755276 -20.204355 8
-102.832814 -30.796454 -20.169815 8
-105.908197 -30.837297 -20.135759 8
-109.257946 -30.101670 -19.920719 8
-113.320497 -27.381995 -19.241827 8
-118.115822 -22.810220 -18.129100 7
-121.364224 -22.831965 -18.091606 7
-124.645198 -22.825234 -18.047995 7
-127.945810 -22.828193 -18.007205 7
-131.262897 -22.850147 -17.971421 7
-134.606653 -22.866709 -17.934923 7
-137.996996 -22.833042 -17.887174 7
-141.383190 -22.872862 -17.857235 7
-144.832025 -22.831876 -17.808845 7
-148.281531 -22.854643 -17.775990 7
149.442671 -21.154208 -20.529923 6
145.666617 -21.234796 -20.433932 6
141.921160 -21.331488 -20.343307 6
138.246010 -21.366343 -20.240421 6
134.591891 -21.429910 -20.145639 6
130.956980 -21.525651 -20.059734 6
127.366592 -21.601038 -19.970782 6
123.795303 -21.706300 -19.890133 6
120.255785 -21.813714 -19.811470 6
116.793008 -21.820235 -19.711269 6
110.387453 -28.668772 -21.174362 5
106.109394 -30.922987 -21.593007 5
102.682952 -31.294501 -21.583344 5
99.407687 -31.370630 -21.507409 5
96.177405 -31.396446 -21.421148 5
92.940254 -31.502580 -21.354519 5
89.747352 -31.554509 -21.276595 5
86.573182 -31.616683 -21.202157 5
83.428702 -31.655922 -21.123526 5
80.305070 -31.694165 -21.045725 5
77.190373 -31.765900 -20.976711 5
74.095250 -31.838083 -20.908830 5
71.024719 -31.891649 -20.837634 5
67.961834 -31.980457 -20.775595 5
64.928449 -32.027854 -20.704890 5
64.475530 -22.544516 -18.415243 5
58.615679 -33.261374 -20.831767 9
55.136667 -35.342862 -21.238985 9
51.712553 -37.431829 -21.649922 9
48.362448 -39.441220 -22.044176 9
45.197046 -40.845420 -22.298497 9
42.241643 -41.427624 -22.361514 9
39.346337 -41.818502 -22.380641 9
36.541901 -41.817913 -22.308657 9
33.739234 -41.860636 -22.247559 9
30.948343 -41.890936 -22.184234 9
28.163376 -41.940390 -22.126103 9
25.390782 -41.964942 -22.062764 9
22.621453 -42.022188 -22.007794 9
19.866717 -42.025538 -21.940716 9
17.114691 -42.059145 -21.881406 9
14.372028 -42.063645 -21.815797 9
11.629996 -42.115769 -21.762066 9
8.897544 -42.121672 -21.697937 9
6.164686 -42.188157 -21.648763 9
3.440388 -42.198678 -21.586830 9
0.718797 -42.219061 -21.527771 9
-2.001131 -42.267379 -21.475890 9
-4.717303 -42.294699 -21.419512 9
-7.430927 -42.304179 -21.359366 9
-10.143989 -42.354375 -21.309433 9
-12.855282 -42.367944 -21.251212 9
-15.566178 -42.406587 -21.199452 9
-18.277371 -42.399995 -21.137295 9
-20.988120 -42.459204 -21.091358 9
-23.700966 -42.463722 -21.032718 9
-26.415379 -42.475193 -20.976155 9
-29.130524 -42.514931 -20.926795 9
-31.847097 -42.566532 -20.880693 9
-34.569063 -42.577591 -20.825208 9
-37.294228 -42.595357 -20.771709 9
-40.012487 -42.732142 -20.747322 9
-42.776646 -42.444218 -20.620648 9
-45.599072 -41.739514 -20.393333 9
-48.511111 -40.469285 -20.029085 9
-51.513676 -38.759405 -19.558061 9
-54.560361 -37.032068 -19.082414 9
-57.645171 -35.334386 -18.613567 9
-63.757793 -15.340517 -13.698240 8
-63.860725 -32.418398 -17.791285 8
-66.760671 -32.412384 -17.733112 8
-69.673320 -32.394159 -17.672232 8
-72.582337 -32.448537 -17.629309 8
-75.508696 -32.469999 -17.578628 8
-78.452694 -32.464458 -17.521606 8
-81.399098 -32.502901 -17.475567 8
-84.371732 -32.485267 -17.416054 8
-87.342445 -32.530855 -17.372227 8
-90.336188 -32.541036 -17.319954 8
-93.342616 -32.559544 -17.269928 8
-96.361726 -32.587802 -17.222493 8
-99.402317 -32.597585 -17.170717 8
-102.460168 -32.606719 -17.118960 8
-105.508445 -32.701290 -17.088385 8
-108.812273 -32.074401 -16.880443 8
-112.699557 -29.839159 -16.276272 8
-117.804135 -24.354293 -14.870398 7
-121.055230 -24.350594 -14.814690 7
-124.316696 -24.379241 -14.767093 7
-127.602321 -24.403937 -14.718652 7
-130.913328 -24.424093 -14.669208 7
-134.242860 -24.458973 -14.623516 7
-137.591996 -24.506947 -14.581173 7
-140.980813 -24.522689 -14.530946 7
-144.398011 -24.536289 -14.480268 7
-147.845016 -24.546927 -14.428926 7
148.889217 -23.246824 -17.107153 6
145.136514 -23.305276 -17.027136 6
141.427639 -23.353995 -16.945953 6
137.766106 -23.383122 -16.861204 6
134.160506 -23.371927 -16.767880 6
130.583330 -23.370624 -16.677939 6
126.994633 -23.460314 -16.610807 6
123.473222 -23.478398 -16.527497 6
119.957174 -23.551767 -16.458419 6
115.483236 -25.834775 -16.922122 5
109.521326 -31.718996 -18.255841 5
105.535698 -33.330586 -18.562941 5
102.164758 -33.604927 -18.548746 5
98.917624 -33.647709 -18.479481 5
95.690038 -33.703660 -18.414177 5
92.492762 -33.743282 -18.345672 5
89.315215 -33.791582 -18.280000 5
86.152702 -33.860264 -18.219987 5
83.034666 -33.863735 -18.144815 5
79.925458 -33.899823 -18.078226 5
76.824329 -33.971803 -18.021026 5
73.763941 -33.976606 -17.948075 5
70.707277 -34.027185 -17.886891 5
67.670450 -34.070846 -17.824605 5
64.660403 -34.079571 -17.754338 5
64.467003 -23.717087 -15.143424 5
59.259714 -31.887641 -17.073480 9
54.948257 -37.208064 -18.308367 9
51.562829 -39.169868 -18.720922 9
48.251468 -41.041231 -19.112655 9
45.111042 -42.360625 -19.369815 9
42.147010 -43.015439 -19.464212 9
39.269444 -43.353931 -19.481276 9
36.459365 -43.422157 -19.432137 9
33.680309 -43.376140 -19.355159 9
30.890727 -43.440876 -19.305927 9
28.119185 -43.451868 -19.243758 9
25.356094 -43.459704 -19.181144 9
22.594822 -43.508373 -19.128988 9
19.845820 -43.520606 -19.068108 9
17.103353 -43.531720 -19.007249 9
14.365063 -43.558656 -18.950614 9
11.629619 -43.614756 -18.901523 9
8.902634 -43.639029 -18.844778 9
6.183365 -43.621941 -18.777965 9
3.465511 -43.632232 -18.718215 9
0.749569 -43.666557 -18.664697 9
-1.962619 -43.689781 -18.608624 9
-4.671030 -43.678291 -18.544063 9
-7.379265 -43.709994 -18.490509 9
-10.085651 -43.731367 -18.434550 9
-12.790938 -43.733887 -18.374026 9
-15.496038 -43.764197 -18.320640 9
-18.201572 -43.750104 -18.256233 9
-20.906181 -43.829466 -18.215482 9
-23.614261 -43.799836 -18.147411 9
-26.321493 -43.849204 -18.099361 9
-29.030120 -43.900085 -18.051809 9
-31.744188 -43.895359 -17.990310 9
-34.459584 -43.921311 -17.936641 9
-37.180668 -43.920329 -17.876226 9
-39.896620 -44.023284 -17.842195 9
-42.655854 -43.733744 -17.708713 9
-45.464693 -43.104975 -17.489029 9
-48.370486 -41.839340 -17.107297 9
-51.355010 -40.223121 -16.635875 9
-54.382842 -38.582662 -16.157567 9
-57.468742 -36.830859 -15.650162 9
-63.695549 -16.122349 -10.309530 8
-63.695314 -33.775949 -14.747418 8
-66.579366 -33.827124 -14.698083 8
-69.476364 -33.858905 -14.643750 8
-72.983713 -30.954045 -13.838156 8
-75.318989 -33.840852 -14.513992 8
-78.249569 -33.870752 -14.458939 8
-81.194688 -33.890009 -14.401057 8
-84.144933 -33.940793 -14.351153 8
-87.113258 -33.971217 -14.295903 8
-90.099888 -33.985270 -14.236308 8
-93.097708 -34.012822 -14.180031 8
-96.107470 -34.052094 -14.126610 8
-99.144884 -34.051613 -14.062769 8
-102.188165 -34.088048 -14.008252 8
-105.246765 -34.130423 -13.955070 8
-108.476989 -33.709349 -13.781880 8
-112.219431 -31.878298 -13.243462 8
-116.762067 -27.958570 -12.163077 8
-120.824232 -25.652444 -11.498828 7
-124.101206 -25.629621 -11.425538 7
-127.387218 -25.645030 -11.361853 7
-130.700627 -25.651577 -11.295544 7
-134.044030 -25.645829 -11.225697 7
-137.400431 -25.671215 -11.163592 7
-140.794252 -25.671079 -11.094472 7
-144.209178 -25.686198 -11.028935 7
-147.653752 -25.698863 -10.962352 7
148.644049 -24.779861 -13.574766 6
144.930969 -24.773735 -13.499296 6
141.233688 -24.807578 -13.434450 6
137.583811 -24.821334 -13.365099 6
133.967577 -24.838185 -13.297055 6
130.408001 -24.809724 -13.218075 6
126.848390 -24.847118 -13.156206 6
123.333665 -24.858121 -13.088137 6
119.864488 -24.836927 -13.012358 6
114.647426 -28.771103 -13.939713 5
108.979202 -34.012448 -15.201038 5
105.128608 -35.335463 -15.470034 5
101.819572 -35.486955 -15.442186 5
98.585577 -35.521938 -15.385101 5
95.399394 -35.497488 -15.313218 5
92.205642 -35.551734 -15.261691 5
89.046525 -35.575239 -15.202636 5
85.914728 -35.583277 -15.139920 5
82.813422 -35.562938 -15.070214 5
79.710737 -35.604045 -15.016467 5
76.617572 -35.676940 -14.971112 5
73.564277 -35.685887 -14.909619 5
70.520165 -35.722835 -14.855519 5
67.497229 -35.747440 -14.798457 5
64.493871 -35.761481 -14.738871 5
64.457579 -24.890408 -11.879819 5
58.315911 -36.624886 -14.835232 9
54.874126 -38.607824 -15.283588 9
51.513898 -40.479644 -15.704300 9
48.210585 -42.328771 -16.120103 9
45.063197 -43.695409 -16.412195 9
42.104091 -44.348430 -16.520486 9
39.272602 -44.478904 -16.493929 9
36.475000 -44.496678 -16.438308 9
33.689335 -44.502595 -16.379674 9
30.909749 -44.526105 -16.325648 9
28.136791 -44.563606 -16.275295 9
25.372612 -44.599625 -16.224592 9
22.627428 -44.555236 -16.153001 9
19.875567 -44.609387 -16.107036 9
17.497575 -41.524370 -15.243248 9
14.731686 -41.545785 -15.188062 9
11.660225 -44.785345 -15.972678 9
8.936081 -44.820619 -15.921757 9
6.219000 -44.826435 -15.863093 9
3.505080 -44.840358 -15.806481 9
0.794812 -44.849035 -15.748422 9
-1.912416 -44.851364 -15.688611 9
-4.618394 -44.877052 -15.634825 9
-7.323068 -44.931333 -15.588443 9
-10.024821 -44.939306 -15.529792 9
-12.725752 -44.932036 -15.467000 9
-15.426697 -44.950225 -15.410759 9
-18.127984 -44.948463 -15.349110 9
-20.828619 -45.018161 -15.306130 9
-23.532308 -44.996708 -15.238949 9
-26.235527 -45.041822 -15.189144 9
-28.941589 -45.062558 -15.132710 9
-31.649128 -45.100380 -15.080590 9
-34.361234 -45.112719 -15.021510 9
-37.080581 -45.082691 -14.950967 9
-39.804211 -45.061428 -14.882482 9
-42.552884 -44.849509 -14.763106 9
-45.357917 -44.225142 -14.533760 9
-48.254940 -43.004488 -14.145248 9
-51.223274 -41.483151 -13.675819 9
-54.256094 -39.777065 -13.156130 9
-57.324546 -38.115458 -12.647154 9
-60.438359 -36.434869 -12.131967 9
-63.541149 -35.067201 -11.699199 8
-66.423888 -35.099705 -11.639767 8
-69.325355 -35.085167 -11.567363 8
-72.226386 -35.127210 -11.509693 8
-75.150764 -35.109889 -11.435699 8
-78.085769 -35.100540 -11.363391 8
-81.025788 -35.124524 -11.299571 8
-83.967256 -35.194615 -11.247684 8
-86.957095 -35.125087 -11.157765 8
-89.943441 -35.128704 -11.087005 8
-92.922317 -35.213783 -11.037684 8
-95.934521 -35.232464 -10.969942 8
-98.966166 -35.240485 -10.898767 8
-102.006509 -35.275794 -10.834396 8
-105.081333 -35.257685 -10.754984 8
-108.297337 -34.872829 -10.575575 8
-111.930532 -33.355618 -10.088210 8
-116.468899 -29.439428 -8.948072 8
-120.743202 -26.542487 -8.082093 7
-124.007152 -26.556299 -8.005627 7
-127.317861 -26.509306 -7.911865 7
-130.612367 -26.566284 -7.845650 7
-133.957112 -26.559255 -7.761208 7
-137.338006 -26.528912 -7.669577 7
-140.732576 -26.530983 -7.585949 7
-144.143573 -26.558917 -7.508535 7
-147.595109 -26.560281 -7.422959 7
-227.906917 136.700572 37.454432 0
-233.071621 136.023963 37.405869 0
148.678133 -25.811480 -9.924925 6
144.938383 -25.850415 -9.881285 6
141.247992 -25.869078 -9.832288 6
137.603648 -25.869943 -9.778571 6
134.002570 -25.854790 -9.720586 6
130.401942 -25.905903 -9.680175 6
126.864238 -25.897609 -9.623953 6
123.335646 -25.936381 -9.580205 6
119.861038 -25.926602 -9.523492 6
114.080467 -31.096175 -10.846546 5
108.690043 -35.719437 -12.025811 5
104.899020 -36.916763 -12.292740 5
101.693040 -36.835748 -12.218748 5
98.484875 -36.816617 -12.161163 5
95.272652 -36.867355 -12.122145 5
92.108918 -36.854270 -12.065957 5
88.934978 -36.927752 -12.032818 5
85.814786 -36.915570 -11.976626 5
82.700269 -36.945319 -11.931532 5
79.603525 -36.982930 -11.888411 5
76.529364 -37.012109 -11.842885 5
74.402775 -34.094869 -11.005573 5
70.407987 -37.165834 -11.777004 5
67.409471 -37.126573 -11.712596 5
64.442741 -37.028961 -11.632271 5
64.414404 -26.185418 -8.656236 5
58.304968 -37.765509 -11.722150 9
54.882492 -39.674477 -12.182725 9
51.495187 -41.659918 -12.664477 9
48.228008 -43.359092 -13.069423 9
45.084743 -44.710006 -13.380624 9
42.825580 -42.024182 -12.599656 9
39.282440 -45.567637 -13.504436 9
36.480776 -45.621184 -13.464504 9
33.692045 -45.661681 -13.420785 9
30.925027 -45.631126 -13.357518 9
28.158539 -45.646342 -13.306385 9
25.402648 -45.644930 -13.250443 9
22.648104 -45.686475 -13.205881 9
19.908778 -45.668174 -13.144729 9
17.165754 -45.731159 -13.105394 9
14.437893 -45.717635 -13.044890 9
11.711693 -45.737288 -12.993091 9
8.991786 -45.742479 -12.936999 9
6.276633 -45.740816 -12.878675 9
3.562924 -45.770863 -12.828651 9
0.851542 -45.824863 -12.784815 9
-1.852352 -45.797788 -12.718398 9
-4.556442 -45.817381 -12.664363 9
-7.257918 -45.813024 -12.603350 9
-9.958998 -45.842738 -12.551268 9
-12.658758 -45.849971 -12.492586 9
-15.358199 -45.898132 -12.444718 9
-18.058254 -45.857068 -12.371850 9
-20.758083 -45.903690 -12.322655 9
-23.459645 -45.913104 -12.262738 9
-26.161559 -45.955618 -12.211469 9
-28.865999 -45.980715 -12.154902 9
-31.574911 -45.973782 -12.088974 9
-34.286580 -45.978652 -12.025776 9
-37.001128 -45.995776 -11.965431 9
-39.720809 -46.002418 -11.901631 9
-42.463422 -45.833681 -11.788607 9
-45.268518 -45.191074 -11.543329 9
-48.154043 -44.050003 -11.158592 9
-51.141572 -42.366712 -10.621830 9
-54.173470 -40.662892 -10.077863 9
-57.237446 -39.027147 -9.551342 9
-60.353974 -37.326087 -9.005083 9
-63.459627 -35.939811 -8.545132 8
-66.350743 -35.924370 -8.466849 8
-69.249125 -35.926089 -8.392622 8
-72.148301 -35.976859 -8.331376 8
-75.073442 -35.955559 -8.249185 8
-77.998999 -35.987980 -8.181262 8
-80.932208 -36.039012 -8.117773 8
-83.893191 -36.027351 -8.035857 8
-86.862151 -36.040076 -7.959945 8
-89.841653 -36.067179 -7.887219 8
-92.832724 -36.105712 -7.816836 8
-95.834694 -36.159052 -7.749740 8
-99.721164 -33.320672 -6.864643 8
-101.933377 -36.113595 -7.569768 8
-104.995681 -36.136264 -7.491150 8
-108.221422 -35.723777 -7.288178 8
-111.891008 -34.106173 -6.741922 8
-116.421596 -30.226130 -5.550830 8
-120.810485 -27.028230 -4.550182 7
-124.079807 -27.041965 -4.460807 7
-127.386884 -27.018502 -4.359652 7
-130.691443 -27.063645 -4.276846 7
-134.042824 -27.054221 -4.177232 7
-137.408751 -27.072961 -4.084389 7
-140.816619 -27.056921 -3.980285 7
-144.233393 -27.084794 -3.887414 7
-147.687187 -27.094188 -3.787873 7
-228.410577 136.608560 43.375832 0
-233.814720 136.389712 43.477405 0
-238.837284 135.310657 43.333248 0
148.827399 -26.638556 -6.219068 6
145.081571 -26.680043 -6.196737 6
141.395494 -26.682570 -6.163005 6
139.116270 -24.078287 -5.402372 6
135.474522 -24.071143 -5.364512 6
131.880526 -24.036973 -5.318554 6
127.012724 -26.676058 -6.017885 6
123.497845 -26.677574 -5.981098 6
120.014972 -26.676500 -5.943035 6
113.980155 -32.379875 -7.498228 5
108.660639 -36.831266 -8.704430 5
104.898480 -37.959249 -8.981850 5
101.630645 -38.027647 -8.962569 5
98.409358 -38.046380 -8.928870 5
95.201044 -38.093979 -8.902727 5
92.048407 -38.059285 -8.853001 5
88.888572 -38.101651 -8.824333 5
85.762687 -38.111900 -8.786129 5
82.650733 -38.141951 -8.752943 5
79.568201 -38.145657 -8.711824 5
76.486453 -38.205509 -8.685936 5
73.455888 -38.165684 -8.631493 5
70.416123 -38.210759 -8.600366 5
67.414284 -38.187774 -8.549542 5
64.460218 -38.051834 -8.466340 5
64.454897 -27.171271 -5.354961 5
58.360015 -38.652765 -8.544187 9
54.945338 -40.523371 -9.025354 9
51.571805 -42.442857 -9.520376 9
48.278144 -44.246344 -9.982715 9
45.156015 -45.497744 -10.289070 9
42.200436 -46.134743 -10.421534 9
39.357246 -46.329044 -10.428367 9
36.555527 -46.379123 -10.393846 9
33.772363 -46.384722 -10.346146 9
30.998916 -46.386676 -10.296816 9
28.234317 -46.386223 -10.246198 9
25.472580 -46.419476 -10.204537 9
22.719106 -46.450856 -10.161737 9
19.977823 -46.444991 -10.107734 9
17.236705 -46.489691 -10.067480 9
14.508598 -46.475127 -10.009729 9
11.781728 -46.497963 -9.961978 9
9.059507 -46.526244 -9.915129 9
6.343991 -46.528877 -9.860308 9
3.631976 -46.534185 -9.805576 9
0.921025 -46.576980 -9.760871 9
-1.784911 -46.587091 -9.706144 9
-4.486354 -46.538667 -9.633968 9
-7.189770 -46.584423 -9.588026 9
-9.890070 -46.566111 -9.523017 9
-12.590840 -46.638305 -9.483222 9
-15.290339 -46.613705 -9.414929 9
-17.990538 -46.607338 -9.351104 9
-20.690923 -46.640181 -9.297778 9
-23.393021 -46.644657 -9.235522 9
-26.095974 -46.672850 -9.179302 9
-28.802276 -46.673448 -9.114335 9
-31.511408 -46.676140 -9.049150 9
-34.224115 -46.676867 -8.982563 9
-36.933150 -46.770177 -8.941879 9
-39.654675 -46.757326 -8.869675 9
-42.408241 -46.484612 -8.721365 9
-45.206424 -45.915261 -8.486076 9
-48.093109 -44.770752 -8.082787 9
-51.085082 -43.061124 -7.513928 9
-54.115804 -41.374764 -6.949952 9
-57.177588 -39.761539 -6.405342 9
-60.301209 -38.024459 -5.822785 9
-63.417494 -36.586447 -5.325360 8
-66.308477 -36.581928 -5.244132 8
-69.208255 -36.585777 -5.164267 8
-72.116563 -36.600941 -5.086613 8
-75.034448 -36.623751 -5.010085 8
-77.970278 -36.618891 -4.924326 8
-80.909483 -36.654212 -4.849177 8
-83.867202 -36.665961 -4.765944 8
-86.840456 -36.671093 -4.679561 8
-89.829795 -36.670799 -4.590348 8
-92.836369 -36.663998 -4.497953 8
-95.845335 -36.704912 -4.418326 8
-98.872637 -36.737764 -4.335027 8
-101.918246 -36.765754 -4.248966 8
-105.002748 -36.727881 -4.142068 8
-108.261082 -36.228977 -3.897234 8
-113.877536 -28.988171 -1.652085 8
-116.469311 -30.746832 -2.071243 8
-120.921265 -27.397735 -0.972341 7
-124.212720 -27.370756 -0.857801 7
-127.508808 -27.394251 -0.756648 7
-130.838501 -27.394019 -0.646768 7
-134.199139 -27.380661 -0.531262 7
-137.574331 -27.395994 -0.422577 7
-141.000911 -27.355605 -0.295429 7
-144.444052 -27.343669 -0.174946 7
-147.911511 -27.343347 -0.056062 7
-228.836126 136.344142 49.282798 0
-234.423095 136.468061 49.512243 0
-239.668970 135.797724 49.505466 0
149.244378 -26.994150 -2.369945 6
145.503956 -27.006336 -2.359833 6
141.810543 -27.002446 -2.343897 6
138.154059 -26.998031 -2.326690 6
134.519624 -27.019569 -2.315962 6
130.931772 -27.017829 -2.297344 6
127.366147 -27.038361 -2.284156 6
123.841518 -27.041290 -2.264758 6
120.345470 -27.049541 -2.245859 6
114.274741 -32.791966 -3.903012 5
111.667134 -31.079628 -3.379126 5
104.996689 -38.771735 -5.606052 5
101.760021 -38.759988 -5.578195 5
98.536571 -38.776368 -5.557597 5
95.354576 -38.749771 -5.523446 5
92.189079 -38.739032 -5.492975 5
89.025547 -38.782310 -5.477377 5
85.892530 -38.803491 -5.454356 5
82.792709 -38.790507 -5.420370 5
79.707689 -38.791855 -5.389643 5
76.636482 -38.809660 -5.362805 5
73.583590 -38.829101 -5.335512 5
70.540973 -38.874164 -5.314815 5
67.527656 -38.880926 -5.281937 5
64.545490 -38.836047 -5.232941 5
64.488013 -28.183707 -2.062465 5
58.526689 -39.116813 -5.241166 9
55.102576 -40.999637 -5.757013 9
51.715903 -42.948353 -6.291874 9
48.400933 -44.820316 -6.803753 9
45.268688 -46.099266 -7.140390 9
42.307650 -46.747716 -7.290472 9
39.445818 -47.022758 -7.329608 9
36.654609 -47.010125 -7.282945 9
33.861516 -47.059923 -7.253810 9
31.089910 -47.042366 -7.203850 9
28.327439 -47.018405 -7.151064 9
25.565382 -47.041493 -7.111265 9
22.814851 -47.038046 -7.062678 9
20.070270 -47.040850 -7.015000 9
17.331928 -47.044533 -6.966636 9
14.944641 -43.864019 -5.972374 9
11.874288 -47.030602 -6.860721 9
9.147475 -47.081329 -6.823454 9
6.430376 -47.074231 -6.768039 9
3.716919 -47.065231 -6.711072 9
1.003838 -47.100726 -6.666358 9
-1.705416 -47.126027 -6.617622 9
-4.412643 -47.166973 -6.572552 9
-7.116038 -47.157332 -6.511386 9
-9.819040 -47.176149 -6.457685 9
-12.520641 -47.138424 -6.386057 9
-15.222806 -47.152703 -6.328912 9
-17.924685 -47.202066 -6.281213 9
-20.627843 -47.191789 -6.214598 9
-23.331223 -47.225789 -6.160163 9
-26.039149 -47.182643 -6.081501 9
-28.746160 -47.220528 -6.026033 9
-31.454737 -47.268881 -5.972602 9
-34.170868 -47.247929 -5.897208 9
-36.892206 -47.217674 -5.817844 9
-39.615931 -47.217165 -5.746253 9
-42.371558 -46.956045 -5.594879 9
-45.169027 -46.421280 -5.359557 9
-48.068053 -45.200715 -4.915517 9
-51.046926 -43.618547 -4.360188 9
-54.083335 -41.911694 -3.764935 9
-57.172394 -40.141273 -3.148121 9
-60.308235 -38.359340 -2.525433 9
-63.438373 -36.872862 -1.990003 8
-66.324002 -36.927731 -1.920667 8
-69.235020 -36.899973 -1.824808 8
-72.147227 -36.922679 -1.742854 8
-75.087891 -36.865263 -1.635018 8
-78.019113 -36.908756 -1.556441 8
-80.972181 -36.910537 -1.463627 8
-83.940194 -36.906361 -1.367440 8
-86.919071 -36.915282 -1.273679 8
-89.923947 -36.882005 -1.165379 8
-92.929899 -36.902805 -1.072011 8
-95.955556 -36.910003 -0.972805 8
-98.998739 -36.914606 -0.871100 8
-102.068866 -36.889068 -0.758376 8
-105.147262 -36.896415 -0.653999 8
-108.399095 -36.442337 -0.405339 8
-112.186033 -34.528339 0.296887 8
-116.809627 -30.450406 1.672429 8
-121.226468 -27.242454 2.783568 7
-124.524673 -27.231306 2.907122 7
-127.834569 -27.252040 3.022858 7
-131.181927 -27.240174 3.150851 7
-134.557089 -27.223940 3.282392 7
-137.956613 -27.213984 3.414213 7
-141.387332 -27.196408 3.550701 7
-144.858246 -27.154025 3.697300 7
-148.359419 -27.112488 3.846059 7
-229.409183 136.384036 55.319995 0
-234.964013 136.399135 55.544924 0
-240.014651 135.299673 55.422825 0
149.784076 -27.139126 1.563180 6
145.999674 -27.206106 1.535929 6
142.305167 -27.181171 1.538483 6
138.622274 -27.203063 1.528409 6
134.996947 -27.183959 1.532523 6
131.391524 -27.193077 1.529646 6
127.822648 -27.196384 1.530157 6
124.275232 -27.222512 1.525284 6
120.783415 -27.197937 1.537476 6
114.939347 -32.397038 -0.045369 5
109.185330 -37.737725 -1.670240 5
105.301145 -39.108366 -2.080310 5
102.012601 -39.201227 -2.098370 5
98.782037 -39.219026 -2.092063 5
95.601491 -39.172958 -2.064819 5
92.414585 -39.201160 -2.058894 5
89.263036 -39.196788 -2.041625 5
86.128436 -39.205187 -2.026893 5
83.024430 -39.186528 -2.002520 5
79.927392 -39.205141 -1.988205 5
76.858664 -39.197754 -1.964590 5
73.804769 -39.201568 -1.943072 5
70.769998 -39.201443 -1.919022 5
67.747665 -39.217026 -1.898467 5
64.735935 -39.254035 -1.883172 5
64.492388 -29.300261 1.197353 5
58.776993 -39.268707 -1.830481 9
55.317027 -41.254342 -2.409312 9
51.919678 -43.212088 -2.978742 9
48.602816 -45.057439 -3.512837 9
45.424696 -46.508440 -3.924956 9
42.459995 -47.150144 -4.087425 9
39.603361 -47.375881 -4.120898 9
36.810364 -47.346821 -4.074793 9
34.013089 -47.391640 -4.050170 9
31.233286 -47.392758 -4.010851 9
28.466004 -47.369111 -3.962649 9
25.695714 -47.415526 -3.934783 9
22.941485 -47.406852 -3.888683 9
20.195571 -47.385652 -3.837454 9
17.452457 -47.390446 -3.792979 9
14.715245 -47.395148 -3.747207 9
11.984310 -47.390516 -3.697278 9
9.254791 -47.422201 -3.657299 9
6.528627 -47.472877 -3.621922 9
3.812357 -47.447798 -3.561813 9
1.100326 -47.395644 -3.492004 9
-1.615452 -47.454035 -3.455142 9
-4.325928 -47.460304 -3.400814 9
-7.034609 -47.464735 -3.344592 9
-9.742038 -47.466057 -3.286069 9
-12.449225 -47.514384 -3.240816 9
-15.155526 -47.477514 -3.167715 9
-17.862052 -47.519015 -3.117633 9
-20.569885 -47.506038 -3.049211 9
-23.278528 -47.521087 -2.988129 9
-25.989509 -47.520085 -2.920635 9
-28.703951 -47.500657 -2.845961 9
-31.419360 -47.519965 -2.781949 9
-34.136569 -47.557497 -2.722196 9
-36.861208 -47.544751 -2.645246 9
-39.584376 -47.599712 -2.588025 9
-42.346861 -47.311467 -2.421648 9
-45.164861 -46.634200 -2.131413 9
-48.050451 -45.571063 -1.717943 9
-51.068527 -43.729440 -1.057330 9
-54.106439 -42.063214 -0.449234 9
-57.207581 -40.260430 0.204581 9
-60.359586 -38.426358 0.871078 9
-63.490548 -36.982166 1.417304 8
-66.396967 -36.965230 1.514891 8
-69.310558 -36.966886 1.608376 8
-72.231407 -36.986848 1.697858 8
-75.170715 -36.973590 1.799693 8
-78.124427 -36.952353 1.905929 8
-81.085925 -36.954724 2.006563 8
-84.070481 -36.918806 2.121304 8
-87.060110 -36.921303 2.225782 8
-90.069163 -36.906948 2.337624 8
-93.096282 -36.884953 2.453941 8
-96.122414 -36.923944 2.552828 8
-99.183446 -36.900999 2.673619 8
-102.252513 -36.910642 2.786116 8
-105.398001 -36.741069 2.958334 8
-110.067004 -32.100086 4.570720 8
-112.605488 -33.960340 4.096086 8
-117.466467 -29.275872 5.732406 8
-121.658812 -26.748410 6.678883 7
-124.980660 -26.719069 6.822392 7
-128.309435 -26.735307 6.953716 7
-131.665864 -26.744134 7.090027 7
-135.070910 -26.697942 7.246854 7
-138.478597 -26.711073 7.387145 7
-141.933062 -26.680481 7.544441 7
-145.387334 -26.715949 7.683049 7
-149.002069 -26.467780 7.917227 7
-229.963207 136.375255 61.385951 0
-235.560520 136.435976 61.654450 0
146.852600 -26.771708 5.659123 6
143.116343 -26.785366 5.629517 6
139.424169 -26.787170 5.605962 6
135.789492 -26.747996 5.597713 6
132.150593 -26.784268 5.567576 6
128.559516 -26.793991 5.548070 6
125.013078 -26.779351 5.538462 6
121.495357 -26.769989 5.529262 6
116.049354 -31.039804 4.157442 5
109.871394 -37.246686 2.170195 5
105.791437 -39.021823 1.598311 5
102.453795 -39.199975 1.537587 5
99.204768 -39.234115 1.524661 5
96.005276 -39.207302 1.533022 5
92.816458 -39.212138 1.533127 5
89.655901 -39.202478 1.539668 5
86.498672 -39.243052 1.531987 5
83.391720 -39.203517 1.551629 5
80.298279 -39.181097 1.567578 5
77.203701 -39.219440 1.565895 5
74.135430 -39.236723 1.572661 5
71.087462 -39.247696 1.583159 5
68.066251 -39.227565 1.605291 5
65.049608 -39.247540 1.616321 5
64.429670 -30.658679 4.377467 5
59.110092 -39.115618 1.698309 9
55.622082 -41.159548 1.067900 9
52.216141 -43.102234 0.471147 9
49.880362 -40.700214 1.264213 9
45.653793 -46.594695 -0.592941 9
42.695248 -47.167407 -0.747812 9
39.797046 -47.555304 -0.842090 9
36.993214 -47.547457 -0.808221 9
34.191189 -47.582456 -0.786481 9
31.407421 -47.568586 -0.747515 9
28.628568 -47.575833 -0.713729 9
25.860818 -47.563687 -0.672146 9
23.095070 -47.588800 -0.640926 9
20.344545 -47.554049 -0.588921 9
17.589800 -47.601864 -0.561823 9
14.851084 -47.565572 -0.506139 9
12.110342 -47.595574 -0.470153 9
9.381118 -47.556771 -0.410458 9
6.652325 -47.556193 -0.361444 9
3.927238 -47.555565 -0.310805 9
1.206054 -47.542614 -0.254583 9
-1.513129 -47.538073 -0.199444 9
-4.231313 -47.561039 -0.151544 9
-6.947058 -47.572088 -0.098168 9
-9.661344 -47.576842 -0.041117 9
-12.347949 -44.346567 1.062942 9
-15.088312 -47.594120 0.075455 9
-17.801575 -47.631247 0.127032 9
-20.516881 -47.583831 0.207665 9
-23.231655 -47.628277 0.260257 9
-25.951123 -47.586744 0.342435 9
-28.670249 -47.615447 0.403573 9
-31.395555 -47.583965 0.486002 9
-34.122906 -47.581756 0.560701 9
-36.853016 -47.595761 0.631911 9
-39.592214 -47.558171 0.721726 9
-42.351748 -47.380286 0.859129 9
-45.180977 -46.668973 1.172555 9
-48.603726 -41.319479 3.003263 9
-51.115851 -43.649690 2.328394 9
-54.192159 -41.781851 3.027873 9
-57.279531 -40.143540 3.655359 9
-63.335041 -20.741859 10.111243 8
-63.611245 -36.702630 4.973664 8
-66.541076 -36.622109 5.098792 8
-69.478792 -36.563706 5.218830 8
-72.409734 -36.598080 5.310513 8
-75.370257 -36.547081 5.432515 8
-78.331157 -36.553710 5.537758 8
-81.316526 -36.511837 5.661288 8
-84.300316 -36.535004 5.765627 8
-87.316215 -36.487954 5.895546 8
-90.337841 -36.479162 6.015187 8
-93.385574 -36.434205 6.149263 8
-96.431292 -36.455825 6.263692 8
-99.512211 -36.416390 6.400936 8
-102.606317 -36.394732 6.534833 8
-105.719606 -36.372918 6.671395 8
-117.075668 -11.902659 14.986854 7
-113.293747 -32.626187 8.192754 8
-118.293673 -27.636841 10.005374 8
-123.476804 -22.519155 11.868931 7
-125.583008 -25.830837 10.904939 7
-128.969483 -25.755254 11.081824 7
-132.368787 -25.714819 11.250012 7
-135.797691 -25.668609 11.423346 7
-139.263978 -25.601198 11.607125 7
-142.750524 -25.555466 11.786916 7
-146.280447 -25.480862 11.979928 7
-224.758201 135.880749 67.060206 0
-230.071869 135.423489 67.175830 0
147.919990 -25.965908 9.949860 6
144.172185 -25.953476 9.908165 6
140.459152 -25.946251 9.867594 6
136.765769 -25.971224 9.819115 6
133.140579 -25.932901 9.794464 6
129.526611 -25.938959 9.757761 6
125.937718 -25.961796 9.718153 6
122.383303 -25.980387 9.682592 6
117.203560 -29.604814 8.451467 5
111.077691 -35.604666 6.434383 5
106.491111 -38.463151 5.464009 5
103.067671 -38.799153 5.334026 5
99.813924 -38.804559 5.316184 5
96.588692 -38.800679 5.303736 5
93.384724 -38.803058 5.291495 5
90.192251 -38.835855 5.271414 5
87.046828 -38.802480 5.275527 5
83.903036 -38.822293 5.264195 5
80.777979 -38.848401 5.252960 5
77.688049 -38.829752 5.258740 5
74.608693 -38.835717 5.258495 5
71.531050 -38.895066 5.242660 5
68.505075 -38.844311 5.265470 5
65.479150 -38.847393 5.272504 5
64.459344 -31.681864 7.661101 5
59.569739 -38.497557 5.410969 9
56.036740 -40.645611 4.712019 9
52.570430 -42.765718 4.024137 9
49.195977 -44.742764 3.385507 9
45.974308 -46.280599 2.894492 9
43.692211 -43.627712 3.797792 9
40.046608 -47.466428 2.545745 9
37.214419 -47.555692 2.541574 9
34.409774 -47.557983 2.568238 9
31.615545 -47.553734 2.598998 9
28.830743 -47.544249 2.633420 9
26.055868 -47.521388 2.674213 9
23.283898 -47.528090 2.707079 9
20.522437 -47.508868 2.750494 9
17.763481 -47.519014 2.786039 9
15.015219 -47.487430 2.837412 9
12.265501 -47.517480 2.870147 9
9.526367 -47.490053 2.923979 9
6.786851 -47.514196 2.962520 9
4.052107 -47.530675 3.005540 9
1.324332 -47.489569 3.069744 9
-1.402898 -47.475332 3.126913 9
-4.129127 -47.483829 3.178426 9
-6.853284 -47.483855 3.234729 9
-9.576326 -47.484984 3.292628 9
-12.298677 -47.480140 3.354506 9
-15.021021 -47.479735 3.416882 9
-17.743746 -47.483265 3.479936 9
-20.468647 -47.426616 3.565228 9
-23.194354 -47.426423 3.633584 9
-25.921447 -47.440406 3.699209 9
-28.652013 -47.430310 3.774996 9
-31.384337 -47.443808 3.844907 9
-34.123053 -47.414330 3.931406 9
-36.865319 -47.398513 4.015418 9
-39.609538 -47.414794 4.090720 9
-42.385363 -47.171196 4.256102 9
-45.658691 -42.631896 5.878741 9
-48.161064 -45.134903 5.119053 9
-51.188908 -43.379875 5.804931 9
-54.301333 -41.340756 6.590776 9
-57.448717 -39.400319 7.346799 9
-63.215228 -21.876201 13.411253 8
-63.824086 -35.901383 8.740006 8
-66.768942 -35.832398 8.868930 8
-69.717574 -35.805735 8.985949 8
-72.678865 -35.775023 9.106904 8
-75.651163 -35.751375 9.228034 8
-78.642572 -35.701082 9.360921 8
-81.633127 -35.714111 9.474765 8
-84.658965 -35.640060 9.621202 8
-87.700280 -35.568463 9.769588 8
-90.733832 -35.587375 9.889632 8
-93.797737 -35.553583 10.030656 8
-96.885634 -35.497137 10.182402 8
-101.060170 -31.924173 11.553446 8
-103.104857 -35.425836 10.480446 8
-106.248896 -35.373790 10.639711 8
-109.820305 -34.115635 11.221102 8
-114.473301 -29.892724 12.838448 8
-119.725175 -24.330496 14.930220 7
-123.079734 -24.283473 15.106562 7
-126.499806 -24.130263 15.323522 7
-129.922777 -24.041375 15.521651 7
-133.383334 -23.928179 15.731997 7
-136.874586 -23.811560 15.947344 7
-140.385566 -23.719674 16.157870 7
-143.939972 -23.599177 16.382419 7
-147.527346 -23.477740 16.611359 7
149.483241 -24.292253 14.597664 6
145.657821 -24.353415 14.509393 6
141.901310 -24.360611 14.443347 6
138.138808 -24.450616 14.352016 6
134.472847 -24.426230 14.303704 6
130.802987 -24.478084 14.232282 6
127.171735 -24.522061 14.166845 6
123.586388 -24.539695 14.113722 6
120.044299 -24.532213 14.072424 6
116.725872 -24.093521 14.183247 6
107.537429 -37.124119 9.643472 5
103.914899 -37.861023 9.355706 5
100.640148 -37.861683 9.325126 5
97.385394 -37.874740 9.293051 5
94.154420 -37.889310 9.263202 5
90.922223 -37.969202 9.213532 5
87.755605 -37.936381 9.205430 5
84.591593 -37.954522 9.182397 5
81.442916 -37.989368 9.156224 5
78.324311 -37.996040 9.142358 5
75.227186 -37.995830 9.133430 5
72.152119 -37.983703 9.131149 5
69.088558 -37.990988 9.124694 5
66.034367 -38.024746 9.111609 5
64.433284 -32.905518 10.877247 5
60.170253 -37.367019 9.342844 9
56.572704 -39.672452 8.554011 9
53.042577 -41.962054 7.772925 9
49.633778 -44.000785 7.080558 9
46.365304 -45.664478 6.519690 9
43.250810 -46.829855 6.132840 9
40.357411 -47.086734 6.061552 9
37.525122 -47.110121 6.073078 9
34.711184 -47.090151 6.101839 9
31.898386 -47.115234 6.117318 9
29.098538 -47.117688 6.142868 9
26.310481 -47.096720 6.178764 9
23.525227 -47.106680 6.206230 9
20.752123 -47.079391 6.248819 9
17.984165 -47.058646 6.291401 9
15.217439 -47.076671 6.322825 9
12.457594 -47.083669 6.360307 9
9.703363 -47.083935 6.402367 9
6.955261 -47.061721 6.454466 9
4.209497 -47.053815 6.503870 9
1.465617 -47.066222 6.548493 9
-1.271867 -47.009709 6.619289 9
-4.010635 -47.012572 6.671769 9
-6.747607 -47.013380 6.727243 9
-9.483465 -47.017037 6.784016 9
-12.218297 -46.984590 6.855645 9
-14.953606 -47.013080 6.908393 9
-17.688902 -47.028523 6.967994 9
-20.422097 -47.170545 6.985811 9
-23.159752 -47.127046 7.070610 9
-25.898073 -47.136230 7.139410 9
-28.640271 -47.115640 7.220988 9
-31.385494 -47.102075 7.302522 9
-34.135105 -47.081089 7.389081 9
-36.890409 -47.046108 7.482994 9
-39.651809 -47.003202 7.582168 9
-42.446772 -46.693666 7.777396 9
-45.306589 -45.918858 8.138723 9
-48.269354 -44.491606 8.732448 9
-51.331480 -42.594002 9.495235 9
-54.463866 -40.533455 10.319389 9
-57.665554 -38.353720 11.189747 9
-63.119654 -22.863709 16.762412 8
-64.134481 -34.550090 12.747249 8
-67.089446 -34.550625 12.859516 8
-70.063483 -34.508824 12.989653 8
-73.052310 -34.454868 13.127048 8
-76.053426 -34.404976 13.266002 8
-79.065015 -34.369393 13.402911 8
-82.097862 -34.303879 13.553545 8
-85.133022 -34.290825 13.688631 8
-88.197673 -34.222091 13.846731 8
-91.273857 -34.173059 14.001041 8
-94.377136 -34.088889 14.171206 8
-97.499744 -34.002473 14.345549 8
-100.651382 -33.884655 14.534593 8
-103.812514 -33.803102 14.714131 8
-107.030519 -33.611466 14.936841 8
-110.845757 -31.723770 15.774663 8
-116.862726 -23.712001 18.829241 8
-120.878002 -21.817807 19.684594 7
-124.320608 -21.641904 19.923670 7
-127.783586 -21.486527 20.159469 7
-131.287173 -21.301094 20.410421 7
-134.786046 -21.202002 20.634293 7
-138.327535 -21.071335 20.874015 7
-141.934403 -20.861217 21.147235 7
-145.551806 -20.704419 21.405607 7
-149.204054 -20.545660 21.669398 7
147.644702 -21.864725 19.510761 6
143.796085 -21.954755 19.393367 6
140.007458 -22.006865 19.293744 6
136.242501 -22.086599 19.188172 6
132.501728 -22.192505 19.077121 6
128.832890 -22.226111 18.995967 6
127.417889 -17.586990 20.598716 6
121.585642 -22.314061 18.837493 6
118.000245 -22.380049 18.755876 6
109.269390 -34.241601 14.443643 5
105.095390 -36.158123 13.707270 5
101.740346 -36.274697 13.620381 5
98.447676 -36.306223 13.567288 5
95.181948 -36.333152 13.519078 5
91.939962 -36.361125 13.473687 5
88.721235 -36.389189 13.431413 5
85.517029 -36.439407 13.384319 5
82.362832 -36.409046 13.369145 5
79.212146 -36.426365 13.339938 5
76.094206 -36.403600 13.328076 5
72.998225 -36.368500 13.323595 5
69.899999 -36.397450 13.299146 5
66.831046 -36.386763 13.291789 5
64.483193 -33.856875 14.188127 5
64.445949 -22.590795 18.210913 5
57.278165 -38.059406 12.677452 9
53.671645 -40.539490 11.790946 9
50.148094 -42.950450 10.931890 9
46.797882 -44.878345 10.248212 9
43.663781 -46.048870 9.837965 9
40.714222 -46.494679 9.689490 9
37.860328 -46.551392 9.682797 9
35.029434 -46.544033 9.701652 9
32.200671 -46.577879 9.708384 9
29.392225 -46.545694 9.741356 9
26.585387 -46.552751 9.762889 9
23.790748 -46.529180 9.797987 9
20.998065 -46.541134 9.822957 9
18.213260 -46.544342 9.853649 9
15.437179 -46.523790 9.895444 9
12.666508 -46.499573 9.941144 9
9.900973 -46.467448 9.992274 9
7.135965 -46.474915 10.031793 9
4.376046 -46.466697 10.079532 9
1.616529 -46.503831 10.113575 9
-1.136395 -46.479431 10.172320 9
-3.887678 -46.457304 10.232862 9
-6.637917 -46.442138 10.293520 9
-9.387211 -46.422676 10.358354 9
-12.136070 -46.382602 10.433253 9
-14.885567 -46.406437 10.487775 9
-17.635810 -46.357013 10.571368 9
-20.386188 -46.392558 10.626983 9
-23.139369 -46.362897 10.708819 9
-25.895242 -46.331173 10.794117 9
-28.655255 -46.280972 10.888836 9
-31.416738 -46.272971 10.971042 9
-34.185623 -46.214764 11.074206 9
-36.953542 -46.232810 11.152529 9
-39.725789 -46.250735 11.233686 9
-42.548527 -45.826437 11.478353 9
-45.428975 -45.021589 11.864580 9
-48.413038 -43.565350 12.491423 9
-51.543541 -41.293937 13.419341 9
-54.736438 -38.969208 14.371395 9
-57.984451 -36.653909 15.324837 9
-63.040710 -23.751105 20.154118 8
-64.531047 -32.716095 16.993073 8
-67.536669 -32.596441 17.156799 8
-70.549380 -32.508978 17.312088 8
-73.581150 -32.394235 17.480790 8
-76.622293 -32.303631 17.644078 8
-79.680951 -32.201140 17.815235 8
-82.759500 -32.081291 17.996347 8
-85.840272 -32.019681 18.159579 8
-88.962577 -31.861265 18.362227 8
-92.085456 -31.770851 18.543475 8
-95.224235 -31.689028 18.725308 8
-98.400948 -31.542427 18.935018 8
-101.592099 -31.417620 19.140581 8
-104.810998 -31.272716 19.357633 8
-116.824190 -4.333997 29.574059 8
-113.094577 -25.735479 21.764777 8
-119.213024 -17.677142 24.959239 7
-122.710851 -17.440885 25.235665 7
-128.093067 -12.229694 27.385054 7
146.748082 -17.618721 25.170472 6
143.303964 -16.882245 25.343472 6
139.105439 -17.648861 24.958149 6
135.270290 -17.801833 24.807322 6
131.476576 -17.949203 24.663159 6
127.722923 -18.090821 24.525625 6
123.997613 -18.248860 24.386365 6
120.309485 -18.402539 24.253060 6
117.259057 -17.185805 24.634569 6
106.878867 -33.070414 18.652260 5
103.304651 -33.595270 18.396449 5
99.951095 -33.669539 18.312226 5
96.634523 -33.717367 18.241596 5
93.350091 -33.746620 18.181568 5
90.090587 -33.772626 18.126389 5
86.847840 -33.815433 18.068571 5
83.622864 -33.871327 18.009452 5
80.437220 -33.875041 17.973207 5
77.265620 -33.896460 17.933860 5
74.108554 -33.933408 17.892186 5
70.971619 -33.966550 17.855319 5
67.863252 -33.963954 17.835059 5
64.766308 -33.979817 17.811285 5
64.423433 -23.858203 21.546768 5
58.186584 -35.685661 17.153405 9
54.460662 -38.493902 16.105100 9
50.832327 -41.203129 15.096768 9
47.372341 -43.482976 14.250662 9
44.159679 -44.900447 13.727066 9
41.180832 -45.383430 13.552640 9
38.295454 -45.495114 13.518759 9
35.448052 -45.468878 13.538969 9
32.597123 -45.514537 13.535527 9
29.766100 -45.499161 13.557675 9
26.947578 -45.454739 13.593555 9
24.127924 -45.466284 13.611648 9
21.321993 -45.430561 13.650217 9
18.516003 -45.443696 13.673611 9
15.714795 -45.470937 13.694707 9
12.927092 -45.425225 13.745813 9
10.138758 -45.430654 13.780874 9
7.671737 -41.527797 15.270744 9
4.852432 -41.525285 15.315243 9
2.035031 -41.546433 15.353926 9
-0.977845 -45.516557 13.926590 9
-3.745591 -45.455705 14.000999 9
-6.514650 -45.454867 14.056037 9
-9.281512 -45.402074 14.133397 9
-12.048748 -45.344254 14.215629 9
-14.816975 -45.378556 14.266505 9
-17.585881 -45.324287 14.353426 9
-20.356656 -45.278773 14.440117 9
-23.130250 -45.220233 14.534729 9
-25.904979 -45.211680 14.613719 9
-28.682979 -45.192710 14.699678 9
-31.466245 -45.145034 14.799489 9
-34.254809 -45.087930 14.905972 9
-37.048087 -45.038621 15.012696 9
-39.840800 -45.057263 15.097080 9
-42.685161 -44.623038 15.354922 9
-45.592550 -43.764273 15.776077 9
-48.640539 -41.966175 16.555015 9
-51.838308 -39.382972 17.634714 9
-55.100210 -36.780995 18.726889 9
-58.442983 -34.061397 19.869051 9
-63.026724 -24.247111 23.701375 8
-65.140644 -29.681502 21.769551 8
-68.203549 -29.475383 21.975737 8
-71.266692 -29.346415 22.156509 8
-74.349123 -29.194385 22.349910 8
-77.449033 -29.034041 22.550413 8
-80.564227 -28.879136 22.752846 8
-83.696496 -28.724411 22.959266 8
-86.860092 -28.515884 23.190365 8
-90.035999 -28.335709 23.414854 8
-93.222032 -28.191257 23.629926 8
-96.452388 -27.960491 23.882437 8
-99.685342 -27.797357 24.113426 8
-102.946136 -27.614563 24.356461 8
-106.288766 -27.246351 24.675581 8
-110.924921 -23.021489 26.489363 8
113.097839 -11.277866 30.853199 5
102.230164 -29.154872 23.885326 5
98.830329 -29.249028 23.780995 5
95.484943 -29.270831 23.708790 5
92.148053 -29.334662 23.624590 5
88.822057 -29.435410 23.530330 5
85.540860 -29.477003 23.462909 5
82.188427 -29.794633 23.293441 5
78.956419 -29.827023 23.237599 5
75.727265 -29.914091 23.164686 5
72.536558 -29.942173 23.118310 5
69.373739 -29.937950 23.088170 5
66.236355 -29.903652 23.073363 5
64.499056 -24.763443 25.020726 5
59.522569 -31.698175 22.340501 9
55.543207 -35.298077 20.943520 9
51.767503 -38.428562 19.730482 9
48.106655 -41.407681 18.579251 9
44.797235 -43.119486 17.917450 9
41.701732 -44.028730 17.566767 9
38.791230 -44.148535 17.522097 9
35.917647 -44.138422 17.530607 9
33.048517 -44.156942 17.531503 9
30.193147 -44.149341 17.545761 9
27.339936 -44.181743 17.548014 9
24.508333 -44.123381 17.588400 9
21.676836 -44.110016 17.614847 9
18.850312 -44.108777 17.639950 9
16.032658 -44.083332 17.677645 9
13.214997 -44.107699 17.699519 9
10.413218 -44.019587 17.767877 9
7.606358 -44.026607 17.803003 9
4.807310 -43.981323 17.861523 9
2.011167 -43.928743 17.926157 9
-0.787236 -43.955501 17.963589 9
-3.577986 -43.863558 18.049999 9
-6.371701 -43.865402 18.103642 9
-9.162995 -43.808730 18.183148 9
-11.913051 -39.478216 19.913557 9
-14.749631 -39.394823 20.011101 9
-17.539765 -43.844236 18.362520 9
-20.333364 -43.825179 18.440948 9
-23.129282 -43.792155 18.528169 9
-25.930080 -43.706870 18.639025 9
-28.730996 -43.703040 18.721823 9
-31.538769 -43.640346 18.830872 9
-34.353381 -43.551775 18.953460 9
-37.172100 -43.486808 19.070441 9
-39.997744 -43.413291 19.194307 9
-42.874841 -42.908049 19.489619 9
-45.841670 -41.757376 20.040062 9
-48.956602 -39.657681 20.964700 9
-52.240881 -36.676444 22.238443 9
-55.616941 -33.544895 23.577068 9
-59.199668 -29.559476 25.255869 9
-63.070314 -24.398009 27.402195 8
-66.217510 -24.010687 27.687251 8
-69.384275 -23.619844 27.978161 8
-73.987213 -16.060070 31.088439 8
-75.666367 -23.372257 28.363697 8
-78.807941 -23.350029 28.523055 8
-81.986089 -23.229228 28.725625 8
-85.151060 -23.232930 28.883572 8
-88.346822 -23.172989 29.071126 8
-91.574864 -23.054420 29.286474 8
-94.803745 -23.002113 29.480277 8
-98.062807 -22.907836 29.695463 8
-101.354009 -22.772312 29.931899 8
-104.637859 -22.731538 30.135573 8
105.637185 -21.921616 30.701474 5
102.013420 -22.334751 30.451971 5
98.570467 -22.368920 30.358579 5
95.134101 -22.452914 30.250122 5
91.721338 -22.541899 30.144420 5
88.332035 -22.634170 30.042089 5
84.982530 -22.679232 29.963149 5
81.649607 -22.740410 29.882344 5
78.309561 -22.891664 29.770247 5
75.026155 -22.931313 29.706941 5
71.757044 -22.987862 29.641311 5
68.502018 -23.061239 29.573346 5
65.279711 -23.082196 29.530481 5
64.688869 -13.098217 33.460082 5
57.298510 -29.453056 26.947806 9
53.074238 -34.137016 25.069353 9
49.130515 -38.095148 23.483240 9
45.616358 -40.531732 22.504529 9
42.424267 -41.724408 22.022843 9
39.442577 -42.034029 21.894982 9
36.542473 -41.997168 21.908216 9
33.646961 -41.985690 21.915150 9
30.744980 -42.067695 21.888777 9
27.868646 -42.050821 21.905316 9
25.002076 -42.019433 21.931322 9
22.140235 -42.003367 21.954956 9
19.285173 -41.985176 21.983127 9
16.431756 -42.004564 22.000076 9
13.589091 -41.978713 22.038647 9
10.751042 -41.952660 22.080974 9
7.914940 -41.951981 22.116903 9
5.087356 -41.888226 22.181550 9
2.258979 -41.872140 22.230947 9
-0.566878 -41.856883 22.283691 9
-3.390338 -41.832591 22.343710 9
-6.058883 -36.787143 24.405054 9
-9.034272 -41.800399 22.468308 9
-11.854864 -41.728484 22.558393 9
-14.676783 -41.704821 22.632996 9
-17.499857 -41.656266 22.721263 9
-20.324881 -41.607942 22.813204 9
-23.152641 -41.552097 22.911933 9
-25.984074 -41.485034 23.018956 9
-28.820920 -41.390482 23.140811 9
-31.660192 -41.339418 23.249143 9
-34.510840 -41.197124 23.397900 9
-37.362570 -41.129300 23.520774 9
-40.218933 -41.079011 23.640566 9
-43.123134 -40.628341 23.925141 9
-46.174132 -39.021908 24.678690 9
-49.426073 -36.119485 25.959104 9
-52.868774 -32.303793 27.613940 9
-56.632074 -26.883338 29.923428 9
-63.549353 -1.974844 40.110161 9
63.620636 -5.512600 40.554839 9
56.036498 -23.014326 33.352725 9
50.814212 -31.951253 29.666440 9
46.748415 -36.548809 27.762957 9
43.352930 -38.461855 26.963515 9
40.273139 -39.042790 26.713865 9
37.300447 -39.174547 26.652338 9
34.355764 -39.220253 26.630219 9
31.436575 -39.174833 26.649561 9
28.517197 -39.180943 26.651946 9
25.613545 -39.135878 26.679405 9
22.713481 -39.113446 26.701708 9
19.816815 -39.116134 26.717822 9
16.933388 -39.059119 26.762476 9
14.049851 -39.047952 26.792433 9
11.173032 -39.018309 26.834036 9
8.300345 -38.987620 26.880142 9
5.432093 -38.943318 26.935905 9
2.566808 -38.893158 26.998149 9
-0.297865 -38.868343 27.054076 9
-3.157907 -38.776837 27.141465 9
-6.019144 -38.722092 27.217867 9
-8.879839 -38.647974 27.306341 9
-11.741856 -38.622668 27.378875 9
-14.604243 -38.574248 27.465039 9
-17.468254 -38.504496 27.564133 9
-20.335224 -38.407896 27.678463 9
-23.204269 -38.358156 27.777690 9
-26.078459 -38.259192 27.901430 9
-28.955807 -38.190196 28.017062 9
-31.838257 -38.113901 28.139981 9
-34.726032 -38.038267 28.266932 9
-37.626525 -37.880483 28.432218 9
-40.556727 -37.491530 28.697692 9
-43.556397 -36.562288 29.191833 9
-46.702772 -34.567865 30.133195 9
-50.229865 -29.898852 32.191833 9
-54.388734 -21.321345 35.884559 9
-58.671135 -13.190182 39.403866 9
58.912981 -12.351127 41.772723 9
53.157579 -23.013683 37.228372 9
52.115612 -13.371418 41.275408 9
44.883245 -32.365342 33.221833 9
41.507256 -34.058047 32.487551 9
38.427007 -34.428333 32.316946 9
35.429205 -34.436227 32.304135 9
32.441549 -34.442081 32.296803 9
29.458284 -34.478280 32.281245 9
26.488190 -34.486890 32.281919 9
23.527227 -34.486777 32.290836 9
20.573616 -34.485122 32.304947 9
17.625393 -34.493406 32.319388 9
14.691112 -34.426539 32.370117 9
11.760260 -34.365519 32.422898 9
8.830043 -34.339108 32.465561 9
5.903290 -34.315212 32.511671 9
2.979598 -34.292238 32.561900 9
0.062347 -34.194585 32.648258 9
-2.856787 -34.152615 32.715572 9
-5.771592 -34.004770 32.832280 9
-8.689253 -33.909726 32.931187 9
-11.607605 -33.764260 33.056056 9
-14.528804 -33.628082 33.181600 9
-17.453228 -33.491911 33.311773 9
-20.381771 -33.340101 33.453246 9
-23.320109 -33.022355 33.669971 9
-26.259680 -32.886900 33.813940 9
-29.207037 -32.707477 33.981374 9
-32.158271 -32.579025 34.131884 9
-35.118456 -32.417388 34.301350 9
-38.085639 -32.265961 34.471319 9
-41.086690 -31.838765 34.764023 9
-44.276459 -29.727712 35.782104 9
-47.610977 -26.788467 37.161406 9
-50.979708 -24.125487 38.429821 9
-54.294060 -22.337386 39.330339 9
53.423527 -23.122440 41.119671 9
49.460679 -26.691861 39.525482 9
46.225606 -27.227490 39.260288 9
42.651605 -29.579040 38.208775 9
39.551395 -29.748261 38.114041 9
36.505052 -29.694621 38.121580 9
33.457466 -29.700564 38.108246 9
30.422065 -29.688539 38.107813 9
27.390347 -29.708371 38.098547 9
24.374182 -29.675493 38.117278 9
21.362042 -29.663595 38.131879 9
18.350626 -29.701782 38.129646 9
15.355423 -29.650975 38.171188 9
12.357924 -29.671881 38.186444 9
9.366568 -29.683198 38.210843 9
6.380331 -29.686609 38.243650 9
3.398802 -29.675239 38.287863 9
