ply
format ascii 1.0
element vertex 1360
property float x
property float y
property float z
property int scalar_Label
end_header
-130.617078 12.484465 27.275107 7
-127.906693 12.937293 27.043538 7
-125.200853 13.431836 26.815654 7
-122.436937 13.836031 26.600327 7
-119.661753 14.252894 26.390609 7
-114.371263 9.699038 26.510757 8
-114.273827 15.508816 25.963432 8
-112.671901 18.255055 25.624902 8
-111.292483 21.350781 25.273643 8
-109.856069 24.264441 24.943408 8
-108.321934 26.934912 24.637530 8
-106.460327 28.976860 24.379184 8
-104.227012 30.354265 24.169488 8
-101.390131 30.721275 24.028337 8
-98.321387 30.749615 23.913969 8
-95.276418 30.871523 23.800224 8
-92.174697 30.956540 23.695029 8
-89.045395 31.053528 23.595548 8
-85.936851 31.236516 23.497555 8
-82.654297 31.213990 23.418184 8
-79.353832 31.226241 23.343438 8
-76.068345 31.319957 23.270774 8
-72.665866 31.308240 23.211085 8
-69.279398 31.381061 23.153570 8
-58.565857 21.679369 23.659681 9
-58.581060 26.537117 23.343436 9
-57.386724 29.716039 23.131248 9
-57.799373 34.879378 22.815197 9
-55.591059 36.656270 22.698878 9
-53.420197 38.479193 22.587873 9
-51.210490 40.254917 22.487443 9
-49.037113 42.075162 22.392411 9
-46.831196 43.858735 22.307366 9
-44.335881 45.317413 22.248651 9
-41.548184 46.466564 22.215540 9
-38.032032 46.848271 22.234336 9
-34.084006 46.823913 22.284961 9
-30.062160 46.794591 22.344881 9
-25.966033 46.762677 22.414212 9
-21.780778 46.715908 22.493933 9
-17.490996 46.642494 22.585027 9
-13.142567 46.591543 22.684930 9
-8.642936 46.475945 22.799090 9
-4.120165 46.422842 22.920327 9
0.552715 46.314541 23.055993 9
5.337924 46.191528 23.204083 9
10.178014 46.109119 23.361604 9
15.145579 46.005022 23.532766 9
20.248567 45.877114 23.718183 9
-2.054764 68.935924 22.433316 1
-2.097904 72.823929 22.364706 1
-2.023902 76.557172 22.311526 1
-3.013771 81.083446 22.210645 1
-3.191447 84.890878 22.161907 1
3.218782 83.589720 22.470393 1
88.720033 22.936128 26.964762 5
95.850142 22.505469 27.321369 5
103.021441 22.181042 27.690739 5
131.493806 6.873629 29.194926 6
-114.969565 -0.963172 31.003338 8
-114.342626 4.146807 30.427081 8
-112.937165 7.536787 29.997073 8
-112.100253 11.935336 29.500112 8
-111.103349 15.892500 29.048418 8
-109.807286 19.177811 28.658484 8
-106.399143 18.540990 28.573746 8
-106.859675 24.864368 27.974311 8
-104.846965 26.673678 27.722899 8
-102.190736 27.366792 27.562084 8
-99.175993 27.489030 27.450358 8
-96.109775 27.578572 27.347757 8
-93.012506 27.671798 27.251684 8
-89.877692 27.760030 27.162863 8
-86.698543 27.834878 27.081991 8
-83.488810 27.919638 27.007488 8
-80.221184 27.975191 26.942270 8
-76.937715 28.066002 26.881832 8
-73.565247 28.087970 26.833726 8
-70.161176 28.126936 26.791952 8
-66.706837 28.158384 26.758392 8
-58.557267 21.957128 27.173912 9
-57.487341 25.367147 26.916785 9
-58.097454 30.883838 26.519252 9
-56.097946 32.955813 26.373651 9
-53.986974 34.878285 26.246867 9
-51.874802 36.794576 26.128755 9
-49.812115 38.766326 26.014931 9
-47.609575 40.568637 25.921350 9
-45.401530 42.366410 25.836345 9
-42.704523 43.613301 25.798980 9
-39.521273 44.343385 25.807261 9
-35.719540 44.442006 25.870000 9
-31.739024 44.416519 25.951283 9
-27.671103 44.372209 26.043842 9
-23.486454 44.282419 26.149929 9
-19.195153 44.162515 26.268774 9
-14.850158 44.069633 26.396499 9
-10.270197 43.828077 26.546529 9
-5.740158 43.722199 26.698059 9
-1.097205 43.594411 26.863189 9
3.674583 43.434329 27.043154 9
8.533135 43.285161 27.235092 9
13.484525 43.144283 27.439622 9
18.604634 42.948348 27.662205 9
23.805330 42.779644 27.896885 9
-1.414711 68.345887 26.056500 1
-1.409987 72.193996 25.963131 1
-1.424589 75.999727 25.878317 1
70.487872 22.445798 30.652321 5
77.247811 21.916249 31.022651 5
84.225622 21.350274 31.416396 5
91.459643 20.726512 31.836466 5
99.032900 19.992632 32.288764 5
-111.771886 -0.335514 34.213771 8
-111.926753 6.226365 33.469211 8
-111.285864 11.012571 32.897586 8
-110.239832 14.877650 32.419770 8
-108.799949 17.901356 32.027084 8
-106.903078 20.022800 31.723517 8
-104.459693 21.140497 31.516646 8
-101.522166 21.409070 31.391705 8
-98.494016 21.568700 31.283500 8
-95.429212 21.717580 31.183503 8
-92.359554 21.909921 31.087119 8
-89.292516 22.156730 30.993537 8
-86.187332 22.392565 30.908497 8
-83.043304 22.618681 30.831980 8
-79.800626 22.747352 30.771558 8
-76.426476 22.737604 30.730777 8
-73.112181 22.876153 30.685367 8
-69.774969 23.038921 30.646038 8
-66.353563 23.141120 30.620117 8
-58.553550 17.325855 31.103785 9
-57.182187 20.404849 30.842733 9
-57.958846 26.256846 30.355477 9
-56.048738 28.492089 30.183125 9
-54.102262 30.664097 30.024686 9
-52.072149 32.718088 29.884796 9
-50.075978 34.804340 29.750675 9
-48.056627 36.853269 29.628225 9
-45.944895 38.786193 29.524196 9
-43.362323 40.173849 29.475589 9
-40.408169 41.159142 29.470624 9
-36.716946 41.359289 29.543029 9
-32.676344 41.241545 29.653226 9
-28.587075 41.147500 29.771985 9
-24.410798 41.038178 29.903009 9
-20.132165 40.901234 30.047738 9
-15.745433 40.735103 30.206696 9
-11.233714 40.527422 30.381410 9
-6.695809 40.379925 30.563124 9
-2.061328 40.224902 30.758295 9
2.661655 40.073474 30.966331 9
7.584292 39.825885 31.196952 9
12.611537 39.576965 31.441968 9
17.803879 39.276386 31.706670 9
23.097184 38.986704 31.985737 9
28.559443 38.652718 32.285067 9
34.187849 38.283134 32.604559 9
40.217265 37.689673 32.963754 9
76.366893 12.754057 35.800997 5
84.606516 11.088632 36.342301 5
93.975289 8.713921 36.982608 5
-107.787609 4.913018 36.855562 8
-107.017880 9.414527 36.277610 8
-105.350448 12.119324 35.892737 8
-102.718149 13.020273 35.699275 8
-99.751025 13.347231 35.571675 8
-96.754406 13.666599 35.452714 8
-93.697983 13.928983 35.347389 8
-90.597072 14.164938 35.252694 8
-87.441535 14.361213 35.170017 8
-84.244080 14.542164 35.097020 8
-80.989470 14.686609 35.035899 8
-77.686711 14.812281 34.985004 8
-74.346991 14.938911 34.942510 8
-70.921730 14.996713 34.915427 8
-67.441087 15.035141 34.899018 8
-57.363099 5.787471 35.805766 9
-57.656446 11.372830 35.261340 9
-58.327463 17.328359 34.689414 9
-56.850923 20.253061 34.424881 9
-55.287526 23.020221 34.184719 9
-53.448280 25.395149 33.992096 9
-51.691972 27.853243 33.800022 9
-49.840088 30.168717 33.630812 9
-47.951661 32.421572 33.476546 9
-45.957102 34.532427 33.345171 9
-43.524050 36.119543 33.275114 9
-40.680241 37.244123 33.260834 9
-36.994965 37.445441 33.349652 9
-32.903602 37.258666 33.488647 9
-23.045933 30.864814 34.273802 9
-24.513165 36.895005 33.800111 9
-20.205695 36.714238 33.973646 9
-15.749377 36.461421 34.167108 9
-11.186659 36.186313 34.375816 9
-6.543874 35.919307 34.597019 9
-1.794024 35.636687 34.833662 9
3.069095 35.336523 35.086448 9
8.008304 35.058056 35.351653 9
13.131485 34.703761 35.640401 9
18.363793 34.349177 35.945115 9
23.786111 33.925899 36.274016 9
29.385934 33.452401 36.625873 9
35.025056 33.054115 36.987190 9
40.989437 32.489948 37.386248 9
-60.166365 -11.582810 41.439249 9
-63.348860 -1.163387 40.261913 9
-62.856990 3.513179 39.738046 9
-61.098289 6.247784 39.441366 9
-59.082068 8.579160 39.199412 9
-59.406574 14.137134 38.604751 9
-57.402933 16.380515 38.391121 9
-55.358375 18.550714 38.194999 9
-54.059712 21.683850 37.899500 9
-51.560332 23.221896 37.793064 9
-49.528459 25.359983 37.628116 9
-47.266553 27.201252 37.506073 9
-45.596303 29.762237 37.311251 9
-43.709978 32.039415 37.157681 9
-34.702780 25.953455 37.975087 9
-36.666199 32.785649 37.317379 9
-32.589121 32.614952 37.476973 9
-28.516008 32.525830 37.639108 9
-24.317891 32.375941 37.820676 9
-20.090227 32.273271 38.009397 9
-15.734946 32.114955 38.217769 9
-11.277046 31.932517 38.442537 9
-6.781506 31.795919 38.675738 9
-2.151633 31.609472 38.929312 9
2.562235 31.428017 39.197138 9
7.406494 31.209915 39.484829 9
12.378535 30.962810 39.792060 9
17.480076 30.690021 40.119056 9
22.624168 30.475337 40.455825 9
27.940170 30.203896 40.817508 9
33.392930 29.913197 41.200096 9
39.146692 29.467015 41.622250 9
46.764431 27.559657 42.259040 9
-59.475105 -1.056430 44.014288 9
-60.346276 5.540967 43.218151 9
-59.847170 10.016456 42.697683 9
-58.816797 13.651449 42.292029 9
-57.460016 16.771005 41.960406 9
-55.715841 19.322154 41.709729 9
-53.453246 21.164898 41.558148 9
-51.981491 24.021758 41.287120 9
-50.444555 26.757216 41.040395 9
-47.540828 27.766135 41.023671 9
-45.444799 29.786817 40.887202 9
-41.889514 30.059963 40.985881 9
-37.980542 29.977000 41.142256 9
-33.956599 29.833995 41.318661 9
-29.807522 29.625149 41.516305 9
-25.485990 29.304079 41.741801 9
-21.043462 28.935537 41.987204 9
-16.484260 28.529514 42.251715 9
-11.830544 28.114216 42.532085 9
-7.070526 27.681015 42.829978 9
-2.112065 27.140699 43.158106 9
2.961595 26.585030 43.504724 9
8.179171 25.990205 43.873748 9
13.586499 25.317911 44.271273 9
19.278524 24.486608 44.709731 9
25.079326 23.671380 45.165508 9
31.220015 22.665688 45.668995 9
37.613382 21.561845 46.208411 9
-25.207956 136.698687 -206.198847 0
-29.124481 136.718710 -206.298183 0
-33.053481 136.754561 -206.412177 0
-37.001771 136.842565 -206.544491 0
-40.946529 136.832557 -206.680417 0
-44.905947 136.839859 -206.831375 0
-48.857344 136.735454 -206.984627 0
-52.835685 136.711836 -207.159372 0
-56.636523 135.751173 -207.253590 0
-21.582076 138.685407 -201.521775 0
-25.260061 136.699207 -201.429594 0
-29.189395 136.727107 -201.523813 0
-33.123727 136.718795 -201.627611 0
-37.084165 136.810724 -201.752924 0
-41.038862 136.790604 -201.881343 0
-45.016754 136.836928 -202.028518 0
-48.986606 136.767198 -202.178510 0
-52.972943 136.720595 -202.343605 0
-21.271861 135.764831 -196.525157 0
-25.309640 136.680950 -196.667822 0
-29.249238 136.699771 -196.755440 0
-33.202072 136.738789 -196.856924 0
-37.168167 136.790213 -196.971765 0
-41.138762 136.795249 -197.095567 0
-45.127142 136.832778 -197.234403 0
-49.105505 136.744191 -197.376197 0
-53.102235 136.689732 -197.533274 0
-21.332339 135.933924 -191.798982 0
-25.367613 136.728207 -191.918366 0
-29.317378 136.733004 -191.999258 0
-33.279306 136.752046 -192.093015 0
-37.252403 136.772123 -192.198858 0
-41.231263 136.756505 -192.314472 0
-45.229970 136.786767 -192.445220 0
-49.224502 136.722826 -192.582044 0
-53.056667 135.764816 -192.672210 0
-21.464306 136.697601 -187.106847 0
-25.419812 136.731375 -187.172054 0
-29.381109 136.735063 -187.247182 0
-33.361380 136.798596 -187.337053 0
-37.341513 136.785729 -187.434496 0
-41.335553 136.789183 -187.544494 0
-45.342008 136.793877 -187.666319 0
-49.344856 136.709696 -187.795160 0
-53.231222 135.968954 -187.900021 0
-17.903290 139.875455 -182.455613 0
-21.504044 136.694227 -182.371217 0
-25.471793 136.733305 -182.430973 0
-29.450123 136.775598 -182.501993 0
-33.434273 136.783778 -182.582770 0
-37.428424 136.785986 -182.674529 0
-41.422531 136.719001 -182.774650 0
-45.448396 136.769702 -182.891116 0
-49.466368 136.703525 -183.014026 0
-17.483265 135.835495 -177.571945 0
-21.546291 136.711985 -177.640511 0
-25.521379 136.717134 -177.693481 0
-29.511196 136.759431 -177.758317 0
-33.504603 136.752201 -177.832426 0
-37.514825 136.783482 -177.918559 0
-41.532571 136.787083 -178.014742 0
-45.562486 136.789603 -178.121855 0
-49.595835 136.740529 -178.238369 0
-17.507498 135.796988 -172.857551 0
-21.587935 136.724928 -172.912359 0
-25.577912 136.754703 -172.960398 0
-29.573877 136.755116 -173.018216 0
-33.582369 136.770955 -173.086723 0
-37.597113 136.755352 -173.165058 0
-41.630987 136.786089 -173.254807 0
-45.656348 136.695802 -173.352695 0
-49.525440 135.708956 -173.442882 0
-17.637419 136.708786 -168.153382 0
-21.629620 136.738317 -168.185801 0
-25.628807 136.749015 -168.227978 0
-29.629310 136.699047 -168.279609 0
-33.652069 136.735743 -168.341936 0
-37.682471 136.746862 -168.414100 0
-41.723849 136.752270 -168.496317 0
-45.774810 136.740944 -168.588546 0
-49.744424 136.225972 -168.686397 0
-14.221595 142.083498 -163.396986 0
-17.663849 136.689688 -163.432694 0
-21.667072 136.716688 -163.459776 0
-25.682650 136.766038 -163.496301 0
-29.696363 136.726334 -163.542656 0
-33.723232 136.710480 -163.598526 0
-37.767654 136.737356 -163.663916 0
-41.822012 136.750107 -163.739045 0
-45.887106 136.751372 -163.823958 0
-13.617812 135.988986 -158.708844 0
-17.694888 136.711967 -158.711421 0
-21.710035 136.740660 -158.733134 0
-25.730039 136.733469 -158.764478 0
-29.763298 136.752670 -158.804597 0
-33.801700 136.734114 -158.854446 0
-37.857855 136.759369 -158.912917 0
-41.923822 136.769499 -158.980893 0
-45.980816 136.657374 -159.059883 0
-13.605007 135.695869 -154.006319 0
-17.724567 136.721930 -153.988394 0
-21.748876 136.730398 -154.005228 0
-25.782036 136.736144 -154.030847 0
-29.827598 136.759976 -154.064758 0
-33.873953 136.715962 -154.109181 0
-37.938225 136.719359 -154.161232 0
-42.014817 136.724552 -154.222118 0
-45.924407 135.722219 -154.317011 0
-13.725072 136.705635 -149.259719 0
-17.754503 136.734039 -149.262332 0
-21.788202 136.723970 -149.274644 0
-25.838644 136.773894 -149.293068 0
-29.886031 136.725130 -149.323459 0
-33.951771 136.734709 -149.360095 0
-38.028284 136.739913 -149.405316 0
-42.114403 136.730185 -149.459549 0
-10.501855 145.241256 -144.135120 0
-13.737893 136.663390 -144.537149 0
-17.782758 136.730861 -144.532832 0
-21.826680 136.710272 -144.540619 0
-25.884455 136.728637 -144.554449 0
-29.945957 136.700614 -144.578439 0
-34.025695 136.727013 -144.607800 0
-38.110278 136.709414 -144.647276 0
-42.207718 136.698250 -144.694495 0
-9.700480 136.517465 -139.829919 0
-13.761403 136.725708 -139.804308 0
-17.812675 136.742297 -139.797473 0
-21.865634 136.700162 -139.801587 0
-25.933977 136.711395 -139.810048 0
-30.016762 136.753116 -139.824240 0
-34.103383 136.743861 -139.849006 0
-38.200618 136.730616 -139.881604 0
-42.288466 136.591617 -139.929234 0
-9.629415 135.687827 -135.158864 0
-13.779692 136.736643 -135.067480 0
-17.838982 136.721063 -135.057916 0
-21.904138 136.685927 -135.056796 0
-25.989311 136.738054 -135.056633 0
-30.071582 136.691222 -135.070545 0
-34.171304 136.695010 -135.088045 0
-38.285808 136.718840 -135.111317 0
-42.235002 135.693769 -135.215348 0
-9.673163 136.098815 -130.397997 0
-13.794122 136.709524 -130.326123 0
-17.860498 136.656582 -130.314940 0
-21.949872 136.730742 -130.300053 0
-26.037360 136.708448 -130.299709 0
-30.136373 136.699581 -130.304971 0
-34.254096 136.744309 -130.312593 0
-38.375792 136.736147 -130.331286 0
-9.963910 139.177852 -125.372199 3
-14.062892 139.170877 -125.346088 3
-18.173222 139.195490 -125.323313 3
-21.983379 136.674256 -125.543058 0
-26.093410 136.739165 -125.529165 0
-30.201030 136.706135 -125.530645 0
-34.322540 136.697325 -125.536183 0
-38.457472 136.700641 -125.546929 0
-9.969625 139.177166 -120.587439 3
-14.081452 139.182558 -120.555598 3
-18.201890 139.192508 -120.529128 3
-22.333760 139.222987 -120.506380 3
-26.469492 139.206082 -120.494439 3
-30.617392 139.205085 -120.486738 3
-34.775088 139.196120 -120.485782 3
-9.978579 139.211321 -115.787687 3
-14.098443 139.178493 -115.755628 3
-18.229729 139.181517 -115.724864 3
-22.374141 139.219655 -115.695484 3
-26.519885 139.189618 -115.679419 3
-30.681640 139.204061 -115.663687 3
-34.851862 139.199290 -115.655659 3
-6.074685 141.838324 -110.692826 3
-9.981953 139.185056 -110.982589 3
-14.119006 139.208910 -110.939134 3
-18.262285 139.211985 -110.903306 3
-22.415015 139.219519 -110.871921 3
-26.572454 139.188692 -110.850418 3
-30.745025 139.195761 -110.829147 3
-34.927167 139.191430 -110.814370 3
-5.850097 139.199872 -106.208616 3
-9.991438 139.224596 -106.155572 3
-14.136346 139.207338 -106.112877 3
-18.290739 139.205091 -106.072684 3
-22.456955 139.227185 -106.033710 3
-26.626391 139.197030 -106.006535 3
-30.805121 139.162938 -105.984506 3
-35.001195 139.173716 -105.960889 3
-5.845595 139.215896 -101.374040 3
-9.998581 139.238650 -101.316764 3
-14.154118 139.209464 -101.271369 3
-18.318387 139.190229 -101.228632 3
-22.494955 139.201513 -101.185480 3
-26.682149 139.217936 -101.145707 3
-30.879850 139.232082 -101.110430 3
-5.835843 139.168820 -96.533302 3
-10.000188 139.192743 -96.471304 3
-14.167230 139.165533 -96.421215 3
-18.348560 139.197008 -96.365398 3
-22.537798 139.214427 -96.315539 3
-26.731929 139.192159 -96.275772 3
-30.939401 139.192518 -96.236078 3
-5.831970 139.192925 -91.664217 3
-10.007434 139.207477 -91.599235 3
-14.187696 139.192781 -91.542543 3
-18.376231 139.180577 -91.488686 3
-22.577546 139.200786 -91.432506 3
-26.783362 139.177510 -91.387082 3
-31.003784 139.185435 -91.339543 3
-1.646442 139.185999 -86.851441 3
-5.825210 139.182461 -86.782429 3
-10.014136 139.216099 -86.709422 3
-14.204097 139.179707 -86.652078 3
-18.406332 139.184787 -86.589941 3
-22.624028 139.240947 -86.521223 3
-26.844183 139.232356 -86.467215 3
-31.071650 139.201113 -86.420192 3
-1.629769 139.200373 -81.949175 3
-5.820747 139.200004 -81.875629 3
-10.021980 139.236776 -81.797220 3
-14.224482 139.204779 -81.734587 3
-18.434517 139.170879 -81.674701 3
-22.662555 139.214651 -81.602008 3
-26.891259 139.181572 -81.546687 3
-1.611347 139.191825 -77.030210 3
-5.815665 139.210395 -76.948769 3
-10.027075 139.227527 -76.869546 3
-14.241599 139.197237 -76.802036 3
-18.465940 139.184615 -76.732793 3
-22.699621 139.174986 -76.664838 3
-26.940718 139.147113 -76.602564 3
-1.592558 139.179365 -72.089850 3
-5.810694 139.222454 -71.998819 3
-10.032836 139.225158 -71.918053 3
-14.258828 139.189987 -71.847018 3
-18.498640 139.208460 -71.765725 3
-22.742973 139.185106 -71.695015 3
-27.001923 139.199449 -71.617495 3
2.452372 142.251626 -66.505599 3
-1.575247 139.188340 -67.121041 3
-5.801989 139.189762 -67.034999 3
-10.039041 139.227271 -66.941676 3
-14.281271 139.232678 -66.856722 3
-18.531214 139.229872 -66.774644 3
-22.790458 139.227241 -66.693502 3
-27.054343 139.183492 -66.622807 3
2.811427 137.023511 -62.740951 3
-1.450092 137.717755 -62.483597 3
-5.717889 138.246638 -62.266423 3
-9.990546 138.639291 -62.082483 3
-14.262834 138.876517 -61.936490 3
-18.545599 139.088559 -61.797010 3
-22.827957 139.186200 -61.685654 3
-27.111645 139.202227 -61.594530 3
3.220432 130.990991 -59.275916 3
-1.008617 131.900743 -58.953530 3
-5.257223 132.753752 -58.645201 3
-9.529282 133.601416 -58.337926 3
-13.831749 134.504804 -58.016207 3
-18.159440 135.395544 -57.697344 3
-22.513951 136.282678 -57.379030 3
3.616139 125.159369 -55.872679 3
-0.561561 126.001542 -55.555084 3
-4.760731 126.826443 -55.241313 3
-8.985003 127.669951 -54.921839 3
-13.231171 128.487341 -54.608503 3
-17.504552 129.325207 -54.288920 3
-21.810014 130.211135 -53.955717 3
4.007690 119.383483 -52.563971 3
-0.121897 120.198479 -52.241585 3
-4.270444 120.972492 -51.929339 3
-8.447757 121.815741 -51.596688 3
-12.649138 122.654198 -51.264093 3
-16.872931 123.467049 -50.937310 3
-21.123733 124.291036 -50.606119 3
4.389497 113.752817 -49.321765 3
0.307170 114.535840 -48.996588 3
-3.796795 115.318071 -48.669986 3
-7.924544 116.114174 -48.337689 3
-12.074400 116.895814 -48.007859 3
-16.250462 117.695766 -47.670980 3
-20.458068 118.545995 -47.317737 3
4.763744 108.232981 -46.150968 3
0.728675 108.972094 -45.827330 3
-3.333548 109.787879 -45.478528 3
-7.409951 110.506866 -45.156733 3
-11.513699 111.277572 -44.817200 3
-15.641922 112.053417 -44.473911 3
-19.800038 112.870298 -44.115981 3
5.130815 102.818207 -43.049189 3
1.137495 103.578017 -42.707908 3
-2.873345 104.293002 -42.378125 3
-6.910670 105.065843 -42.027651 3
-10.965125 105.780741 -41.692731 3
-15.047082 106.537728 -41.341961 3
-19.153343 107.293726 -40.988804 3
5.489555 97.527400 -40.006298 3
1.540986 98.252504 -39.664842 3
-2.425047 98.940650 -39.332451 3
-6.414712 99.661899 -38.986294 3
-10.430928 100.426990 -38.622799 3
-14.464252 101.133509 -38.275303 3
-18.518418 101.819544 -37.931372 3
5.837254 92.404522 -37.002778 3
1.933233 93.077292 -36.667890 3
-1.985916 93.697776 -36.347296 3
-5.936661 94.452081 -35.978080 3
-9.901404 95.122011 -35.633909 3
-13.894019 95.845719 -35.268019 3
-17.904366 96.521155 -34.914907 3
6.058915 89.297990 -33.386075 3
2.206558 89.539257 -33.191114 3
-1.669671 89.940372 -32.936624 3
-5.554635 90.277337 -32.700930 3
-9.457319 90.648863 -32.449423 3
-13.385889 91.110666 -32.162458 3
-17.334192 91.584054 -31.867559 3
-21.307102 92.096664 -31.554939 3
9.846130 90.881908 -28.222972 3
6.155209 88.204385 -29.081700 3
2.316388 88.257219 -28.948711 3
-1.529559 88.313643 -28.810530 3
-5.389868 88.442221 -28.642229 3
-9.258809 88.558486 -28.474393 3
-13.143178 88.718884 -28.286465 3
-17.042450 88.901841 -28.086210 3
10.016988 88.358938 -24.412712 3
6.172425 88.385521 -24.289485 3
2.325294 88.370543 -24.177534 3
-1.523512 88.309576 -24.078529 3
-5.384110 88.318641 -23.948897 3
-9.246752 88.274951 -23.834700 3
-13.119225 88.254713 -23.707276 3
-16.999642 88.230582 -23.576860 3
41.668995 14.917864 -48.753612 9
38.555518 14.144843 -48.991152 9
35.462165 13.519314 -49.168523 9
32.383536 13.013829 -49.296224 9
29.315411 12.489185 -49.427876 9
26.258142 11.912198 -49.576306 9
23.212008 11.318133 -49.727938 9
20.171028 10.896719 -49.809458 9
17.136875 10.465504 -49.891291 9
14.113542 9.941830 -50.005439 9
11.096304 9.438488 -50.108285 9
8.086370 8.922111 -50.212741 9
5.075008 8.496290 -50.278613 9
2.069689 8.044239 -50.351160 9
-0.933258 7.603782 -50.415691 9
-3.931466 7.145800 -50.483510 9
-6.927627 6.691702 -50.546282 9
-9.917657 6.205877 -50.617870 9
-12.914021 5.777183 -50.663608 9
-15.907768 5.332677 -50.711906 9
-18.902935 4.896124 -50.753465 9
-21.897982 4.453998 -50.793545 9
-24.888010 3.977823 -50.843293 9
-27.888410 3.547922 -50.871192 9
-30.891643 3.118083 -50.895308 9
-33.895541 2.675573 -50.920622 9
-36.908494 2.255981 -50.933086 9
-39.914743 1.788083 -50.960741 9
-42.933353 1.351434 -50.972179 9
-46.261760 2.073991 -50.520793 9
-50.491256 5.978415 -48.802602 9
50.397122 5.162263 -48.925680 9
47.170423 1.580029 -50.303178 9
44.122827 -0.002490 -50.883179 9
41.159137 -0.388480 -50.984106 9
38.213250 -0.512930 -50.977290 9
35.271110 -0.642340 -50.968654 9
32.331704 -0.835697 -50.981690 9
29.396406 -0.986795 -50.974112 9
26.464572 -1.212736 -50.992580 9
23.534662 -1.355726 -50.974178 9
20.607297 -1.536445 -50.967018 9
17.682034 -1.729803 -50.961094 9
14.758124 -1.924759 -50.951987 9
11.836091 -2.138146 -50.946422 9
8.914309 -2.347452 -50.935382 9
5.991619 -2.547114 -50.916616 9
3.070652 -2.774799 -50.905207 9
0.153175 -3.044748 -50.906884 9
-2.769861 -3.270860 -50.887059 9
-5.696505 -3.484532 -50.858289 9
-8.616039 -3.772636 -50.855530 9
-11.540766 -4.038283 -50.839773 9
-14.468052 -4.306726 -50.821156 9
-17.398456 -4.577621 -50.799512 9
-20.337266 -4.823984 -50.763890 9
-23.285419 -5.048190 -50.715181 9
-26.224244 -5.351244 -50.694289 9
-29.164110 -5.674292 -50.677388 9
-32.122994 -5.935259 -50.631085 9
-35.074258 -6.261327 -50.607038 9
-38.043945 -6.538289 -50.558727 9
-41.012954 -6.850890 -50.520634 9
-44.033793 -6.997343 -50.410223 9
-47.314689 -6.239421 -49.924663 9
-51.121091 -3.752759 -48.723855 9
-56.219629 2.855757 -45.820630 9
56.512191 4.426665 -45.532968 9
53.038100 -1.119782 -47.771372 9
49.823394 -4.723364 -49.210342 9
46.786808 -6.710904 -49.983308 9
43.847640 -7.663330 -50.328021 9
40.959917 -7.903495 -50.376556 9
38.083597 -7.994613 -50.359865 9
35.210075 -8.102849 -50.346146 9
32.339830 -8.178726 -50.315061 9
29.471297 -8.304177 -50.300286 9
26.605345 -8.469255 -50.297757 9
23.741223 -8.605070 -50.279115 9
20.877556 -8.714462 -50.245498 9
18.015967 -8.870296 -50.226925 9
15.153798 -9.003930 -50.195088 9
12.291793 -9.147564 -50.163251 9
9.429640 -9.300381 -50.131067 9
6.568420 -9.478830 -50.105332 9
3.705938 -9.656800 -50.075236 9
0.836708 -9.786837 -50.021081 9
-2.024117 -10.020293 -50.005596 9
-4.897786 -10.164673 -49.948911 9
-7.762331 -10.408078 -49.929109 9
-10.636088 -10.606776 -49.886451 9
-13.512386 -10.816392 -49.844027 9
-16.392424 -11.031172 -49.799416 9
-19.275561 -11.257164 -49.755115 9
-22.170708 -11.448148 -49.691768 9
-25.067036 -11.667440 -49.635795 9
-27.965829 -11.907488 -49.584033 9
-30.875376 -12.130334 -49.520527 9
-33.788288 -12.373151 -49.460833 9
-36.712333 -12.603698 -49.391356 9
-39.639479 -12.857937 -49.327190 9
-42.574385 -13.117687 -49.260641 9
-45.649320 -12.902535 -48.988396 9
-48.993423 -11.817686 -48.342111 9
-52.841208 -9.173000 -47.026907 9
-57.247786 -4.962950 -45.036919 9
-62.154311 0.457977 -42.519425 9
-87.050239 13.373080 -35.555575 8
-89.476560 10.564820 -36.501355 8
-92.344008 8.922795 -36.940861 8
-95.357772 7.652105 -37.215522 8
-98.433540 6.527218 -37.422248 8
-101.537957 5.460316 -37.598804 8
-104.759676 4.637573 -37.663685 8
62.666368 3.799659 -42.050115 9
59.098257 -1.386566 -44.219451 9
55.758540 -5.343746 -45.865437 9
52.555718 -8.701452 -47.254197 9
49.486712 -11.234788 -48.290547 9
46.538637 -12.727905 -48.882940 9
43.664904 -13.442854 -49.141947 9
40.829878 -13.640868 -49.177877 9
38.007203 -13.633372 -49.122430 9
35.183063 -13.748640 -49.114653 9
32.362265 -13.840337 -49.092550 9
29.543527 -13.904019 -49.054209 9
26.725888 -13.985646 -49.019119 9
23.909502 -14.092605 -48.990422 9
21.094933 -14.235704 -48.972721 9
18.278328 -14.307190 -48.920183 9
15.464487 -14.454506 -48.895512 9
12.648687 -14.571980 -48.853728 9
9.831209 -14.684103 -48.805228 9
7.017164 -14.861548 -48.780154 9
4.195443 -14.968912 -48.720697 9
1.377990 -15.148328 -48.687542 9
-1.444443 -15.303700 -48.639607 9
-4.271319 -15.449985 -48.583242 9
-7.096000 -15.642765 -48.542248 9
-9.930804 -15.791174 -48.477629 9
-12.764868 -15.977588 -48.424707 9
-15.601663 -16.177428 -48.372918 9
-18.452430 -16.328167 -48.295292 9
-21.297091 -16.548192 -48.242800 9
-24.159081 -16.711339 -48.160991 9
-27.011711 -16.956745 -48.109927 9
-29.883151 -17.147157 -48.030230 9
-32.767378 -17.319066 -47.937583 9
-35.645182 -17.556996 -47.868626 9
-38.542325 -17.753031 -47.776461 9
-41.435121 -18.004627 -47.703427 9
-44.397082 -18.040081 -47.530942 9
-47.544875 -17.479043 -47.092130 9
-50.999972 -15.982541 -46.237086 9
-54.911884 -13.170950 -44.796948 9
-59.051703 -9.902994 -43.145965 9
-63.627945 -5.600236 -41.027988 9
-69.031572 0.770143 -37.984383 8
-72.164908 0.254460 -37.968060 8
-75.266741 -0.377140 -37.997393 8
-78.399235 -0.951232 -37.995632 8
-81.562155 -1.475591 -37.965997 8
-84.738216 -1.999680 -37.930312 8
-87.908006 -2.572494 -37.910367 8
-91.104665 -3.113903 -37.870336 8
-94.324224 -3.637525 -37.816136 8
-97.539530 -4.207141 -37.776291 8
-100.812311 -4.687376 -37.689804 8
-104.067002 -5.246458 -37.632300 8
-108.191819 -4.056508 -36.775743 8
-137.947840 9.469528 -28.459281 7
-140.606062 7.143061 -29.136375 7
-143.658960 5.514485 -29.486694 7
-146.873030 4.150132 -29.708757 7
106.856509 5.789100 -37.083730 5
103.299437 4.406091 -37.741023 5
100.159721 4.556415 -37.723218 5
97.028239 4.695322 -37.705054 5
93.905736 4.827627 -37.684460 5
90.785055 4.921544 -37.675327 5
87.677042 5.028598 -37.655211 5
84.573968 5.113652 -37.639459 5
81.475281 5.173363 -37.629550 5
78.374652 5.169070 -37.642354 5
75.290704 5.210566 -37.630044 5
72.205737 5.191331 -37.639061 5
69.134498 5.210422 -37.626260 5
66.061417 5.158427 -37.639340 5
61.759104 -5.657142 -42.338803 9
58.482420 -8.881522 -43.725414 9
55.311567 -11.753930 -44.954233 9
52.229796 -14.333980 -46.051329 9
49.245177 -16.377027 -46.910025 9
46.359561 -17.576192 -47.396322 9
43.534452 -18.152296 -47.606333 9
40.742680 -18.276164 -47.614397 9
37.957198 -18.339701 -47.591501 9
35.175440 -18.349452 -47.540472 9
32.393497 -18.459498 -47.528647 9
29.614004 -18.557285 -47.506842 9
26.835866 -18.625866 -47.467619 9
24.058480 -18.707540 -47.429475 9
21.281672 -18.801212 -47.391926 9
18.504911 -18.898158 -47.351142 9
15.727196 -18.987590 -47.302371 9
12.951370 -19.128278 -47.271408 9
10.172556 -19.238056 -47.222155 9
7.391745 -19.347325 -47.167935 9
4.609193 -19.464980 -47.112639 9
1.828230 -19.626060 -47.071701 9
-0.956528 -19.776256 -47.021175 9
-3.750922 -19.875904 -46.943492 9
-6.546489 -20.003729 -46.873366 9
-9.337323 -20.198122 -46.827800 9
-12.138732 -20.351199 -46.759030 9
-14.947853 -20.491493 -46.679615 9
-17.754555 -20.681691 -46.617349 9
-20.574043 -20.835647 -46.533937 9
-23.395263 -21.017784 -46.457973 9
-26.224607 -21.196180 -46.375213 9
-29.057790 -21.393576 -46.295758 9
-31.900813 -21.584044 -46.207988 9
-34.757288 -21.756209 -46.106731 9
-37.612999 -21.971065 -46.019265 9
-40.484222 -22.164161 -45.916642 9
-43.370262 -22.343026 -45.802136 9
-46.414706 -22.010751 -45.451522 9
-49.665868 -21.065192 -44.817374 9
-53.292382 -19.030630 -43.682778 9
-58.176873 -13.271993 -40.849996 9
-65.085684 -1.868757 -35.436782 8
-66.701304 -6.700180 -37.386703 8
-69.801035 -7.098036 -37.316360 8
-72.908698 -7.510195 -37.246371 8
-76.042952 -7.888092 -37.154444 8
-79.170848 -8.321315 -37.081495 8
-82.346583 -8.672227 -36.964284 8
-85.504501 -9.108513 -36.879748 8
-88.685028 -9.530098 -36.781807 8
-91.882756 -9.952523 -36.677495 8
-95.102544 -10.366913 -36.562577 8
-98.349251 -10.765396 -36.433236 8
-101.611903 -11.174272 -36.301555 8
-104.917775 -11.538871 -36.141864 8
-109.246173 -9.910418 -35.040009 8
-117.936525 0.055664 -30.005116 7
-121.273685 -0.694932 -29.988358 7
-124.644160 -1.417934 -29.951138 7
-128.029539 -2.150455 -29.910795 7
-131.437614 -2.879961 -29.861256 7
-134.903302 -3.548405 -29.774659 7
-138.365422 -4.264881 -29.702766 7
-141.883164 -4.930733 -29.598260 7
-145.458346 -5.548414 -29.461904 7
-149.021724 -6.231963 -29.348361 7
107.986122 -2.984226 -36.978056 5
104.458922 -4.456579 -37.708055 5
101.375725 -4.373383 -37.731331 5
98.307798 -4.279721 -37.744236 5
95.255048 -4.171541 -37.744996 5
92.193067 -4.153558 -37.780746 5
89.160310 -4.054394 -37.774444 5
86.133136 -3.975534 -37.771768 5
83.105433 -3.949195 -37.787217 5
80.095889 -3.876782 -37.776515 5
77.078619 -3.899439 -37.803100 5
74.084053 -3.839476 -37.787175 5
71.086965 -3.846134 -37.795800 5
68.100126 -3.836835 -37.791906 5
65.115545 -3.866036 -37.799971 5
63.824902 10.699374 -31.246975 5
58.073425 -14.338995 -42.478864 9
54.992888 -16.748181 -43.541177 9
51.983596 -18.965299 -44.512536 9
49.062347 -20.671537 -45.249702 9
46.224209 -21.681886 -45.669416 9
43.435666 -22.207376 -45.866383 9
40.680747 -22.253897 -45.843068 9
37.926212 -22.374975 -45.848400 9
35.177360 -22.407865 -45.809129 9
32.429537 -22.473478 -45.779675 9
29.683267 -22.513874 -45.733931 9
26.937646 -22.573592 -45.691958 9
24.192441 -22.638029 -45.647169 9
21.449106 -22.768160 -45.627093 9
18.705073 -22.864003 -45.586586 9
15.960471 -22.959635 -45.541011 9
13.213070 -23.027830 -45.478024 9
10.468484 -23.166044 -45.441723 9
7.718415 -23.253757 -45.377517 9
4.970235 -23.393222 -45.331724 9
2.211345 -23.452327 -45.244365 9
-0.539266 -23.624737 -45.203368 9
-3.298573 -23.749932 -45.135785 9
-6.063160 -23.868432 -45.059979 9
-8.833184 -23.984517 -44.977852 9
-11.604875 -24.126464 -44.902274 9
-14.383261 -24.262699 -44.818805 9
-17.160018 -24.444366 -44.750807 9
-19.951651 -24.579268 -44.656039 9
-22.747592 -24.731010 -44.563568 9
-25.544963 -24.913560 -44.479791 9
-28.351303 -25.091027 -44.388188 9
-31.169040 -25.256306 -44.285413 9
-33.993839 -25.431480 -44.181578 9
-36.826150 -25.615985 -44.076375 9
-39.673865 -25.781305 -43.956546 9
-42.514264 -26.014416 -43.862337 9
-45.479876 -25.848417 -43.576790 9
-48.602326 -25.224771 -43.071585 9
-52.025211 -23.732687 -42.153803 9
-55.782557 -21.361341 -40.815965 9
-65.159086 -2.322071 -31.661646 8
-65.060921 -12.137603 -36.004730 8
-68.150168 -12.418217 -35.875982 8
-71.227072 -12.774912 -35.776350 8
-74.324397 -13.116351 -35.662832 8
-77.434149 -13.466399 -35.546567 8
-80.572509 -13.786206 -35.409047 8
-83.713170 -14.143776 -35.282383 8
-86.905285 -14.422921 -35.111219 8
-90.084075 -14.779536 -34.969615 8
-93.268913 -15.166458 -34.835125 8
-96.491372 -15.515260 -34.674880 8
-99.720818 -15.895143 -34.521898 8
-102.987191 -16.244551 -34.346448 8
-106.482327 -16.186073 -33.965672 8
-112.000000 -12.272703 -31.705553 8
-118.080051 -7.555225 -29.034206 7
-121.500311 -8.045133 -28.880617 7
-124.927023 -8.569713 -28.735359 7
-128.378355 -9.096569 -28.582499 7
-131.865090 -9.609028 -28.413650 7
-135.381549 -10.119638 -28.234744 7
-138.924284 -10.636230 -28.049444 7
-142.499314 -11.150823 -27.853597 7
-146.120948 -11.643224 -27.636892 7
-149.753496 -12.171684 -27.428137 7
149.015679 0.491093 -29.995871 6
145.726674 0.855877 -29.983844 6
142.469535 1.258163 -29.947328 6
139.193740 1.570988 -29.945872 6
135.936215 1.888173 -29.935564 6
132.699238 2.218860 -29.912216 6
129.479643 2.557618 -29.878454 6
126.268775 2.881779 -29.844920 6
123.059065 3.168782 -29.822169 6
119.852768 3.424285 -29.807586 6
116.903865 4.492990 -29.408345 6
110.259890 -7.199036 -34.933944 5
106.371697 -9.977389 -36.306049 5
103.198731 -10.366484 -36.561369 5
100.175543 -10.262684 -36.581747 5
97.166620 -10.149951 -36.592028 5
94.156102 -10.091909 -36.621754 5
91.158685 -10.027661 -36.642719 5
88.170591 -9.970914 -36.661319 5
85.186361 -9.946703 -36.689181 5
82.223056 -9.867631 -36.685872 5
79.254752 -9.864400 -36.711935 5
76.305260 -9.806925 -36.707184 5
73.356314 -9.795489 -36.718058 5
70.415149 -9.786924 -36.724605 5
67.487199 -9.737811 -36.706762 5
64.651841 -9.006916 -36.367899 5
63.690014 7.923628 -28.528664 5
58.308437 -13.655833 -38.500639 9
54.743984 -20.966161 -41.866310 9
51.793120 -22.897335 -42.738047 9
48.920246 -24.377412 -43.396030 9
46.115465 -25.329564 -43.804638 9
43.362031 -25.746091 -43.960168 9
40.634035 -25.826741 -43.954973 9
37.909290 -25.914574 -43.947916 9
35.189145 -25.933740 -43.903825 9
32.469774 -25.982347 -43.868171 9
29.751548 -26.068210 -43.844595 9
27.034315 -26.107527 -43.794190 9
24.317586 -26.176870 -43.752495 9
21.601132 -26.255334 -43.709798 9
18.884486 -26.337776 -43.663699 9
16.164679 -26.374179 -43.590887 9
13.449638 -26.525710 -43.566413 9
10.726881 -26.576364 -43.489617 9
8.007047 -26.700178 -43.441613 9
5.283396 -26.805816 -43.379779 9
2.557429 -26.918645 -43.315926 9
-0.171952 -27.031903 -43.246868 9
-2.908609 -27.118979 -43.160094 9
-5.640564 -27.278729 -43.101914 9
-8.384254 -27.386526 -43.013853 9
-11.130323 -27.516356 -42.930584 9
-13.882479 -27.645288 -42.841298 9
-16.632855 -27.820935 -42.768395 9
-19.400580 -27.937112 -42.661775 9
-22.172517 -28.072245 -42.558350 9
-24.946403 -28.237019 -42.463158 9
-27.731721 -28.386989 -42.355125 9
-30.516833 -28.576976 -42.260190 9
-33.321881 -28.721355 -42.137650 9
-36.129433 -28.897069 -42.023988 9
-38.948142 -29.070027 -41.902935 9
-41.780495 -29.233932 -41.771399 9
-44.666060 -29.254728 -41.565089 9
-48.007596 -27.804915 -40.646759 9
-51.901394 -24.738161 -38.942051 9
-57.155008 -17.722154 -35.323281 9
-65.119454 -3.119090 -28.023848 8
-65.015297 -12.934591 -32.493018 8
-66.830656 -16.790552 -34.087021 8
-69.904735 -17.045578 -33.933136 8
-72.965441 -17.379985 -33.810627 8
-76.091987 -17.586683 -33.618657 8
-79.174141 -17.951766 -33.496499 8
-82.321464 -18.200370 -33.309918 8
-85.442137 -18.558687 -33.169447 8
-88.604056 -18.865567 -32.996017 8
-91.791709 -19.161434 -32.809247 8
-94.982677 -19.497322 -32.634196 8
-98.218092 -19.786086 -32.427635 8
-101.465094 -20.100296 -32.225314 8
-104.731112 -20.425283 -32.019850 8
-108.684598 -19.469229 -31.164935 8
-116.901164 -10.584014 -26.319702 7
-119.299751 -12.906575 -27.077158 7
-122.742605 -13.311178 -26.863133 7
-126.191848 -13.754988 -26.659437 7
-129.680010 -14.181617 -26.437409 7
-133.197675 -14.610070 -26.206430 7
-136.766335 -15.007190 -25.949332 7
-140.333782 -15.460613 -25.710665 7
-143.951740 -15.887941 -25.448064 7
-147.610792 -16.307430 -25.170561 7
149.816129 -6.852481 -29.203339 6
146.530649 -6.607615 -29.263226 6
143.263606 -6.367722 -29.318042 6
140.025640 -6.103971 -29.353959 6
136.785720 -5.893029 -29.408087 6
133.565799 -5.678370 -29.453199 6
130.356629 -5.483037 -29.500481 6
127.172110 -5.266556 -29.530529 6
123.987812 -5.097097 -29.576196 6
120.841819 -4.859740 -29.582349 6
117.678912 -4.721048 -29.629007 6
113.361503 -8.461824 -31.527570 5
108.726229 -13.648591 -34.108942 5
105.313770 -14.930539 -34.812022 5
102.284080 -14.949471 -34.903949 5
99.285562 -14.906891 -34.960079 5
96.317951 -14.792714 -34.975707 5
93.344653 -14.749753 -35.019109 5
90.393014 -14.663382 -35.035590 5
87.444141 -14.612476 -35.062843 5
84.498939 -14.595041 -35.099938 5
81.570495 -14.545034 -35.115423 5
78.651818 -14.491772 -35.123316 5
75.736272 -14.469964 -35.140189 5
72.832188 -14.429760 -35.142317 5
69.931087 -14.420075 -35.153030 5
67.037885 -14.407938 -35.156646 5
64.529744 -11.427902 -33.740929 5
63.189850 2.035057 -27.326810 5
58.311774 -15.176308 -35.515436 9
54.799151 -21.974109 -38.739354 9
51.781030 -24.703580 -40.020280 9
48.834586 -27.296085 -41.230789 9
46.031859 -28.552061 -41.799287 9
43.306272 -28.916374 -41.937482 9
40.603282 -28.988901 -41.931117 9
37.904691 -29.028459 -41.903536 9
35.207763 -29.086962 -41.879494 9
32.512840 -29.140327 -41.847500 9
29.819207 -29.198717 -41.812400 9
27.126195 -29.230407 -41.759021 9
24.433865 -29.308900 -41.722485 9
21.741333 -29.373767 -41.673898 9
19.048397 -29.443853 -41.622255 9
16.355854 -29.542185 -41.578579 9
13.660444 -29.610053 -41.514716 9
10.966998 -29.735460 -41.472855 9
8.266530 -29.794076 -41.393301 9
5.562528 -29.851941 -41.307699 9
2.856299 -29.927234 -41.224764 9
0.140507 -29.955732 -41.113537 9
-2.571990 -30.056876 -41.031523 9
-5.294688 -30.118095 -40.924431 9
-8.020324 -30.201704 -40.822277 9
-10.755718 -30.263303 -40.703559 9
-13.496333 -30.337659 -40.585037 9
-16.237464 -30.452131 -40.479955 9
-18.995891 -30.514265 -40.343406 9
-21.748800 -30.649630 -40.236329 9
-24.525491 -30.710845 -40.086990 9
-27.301653 -30.821210 -39.955340 9
-30.081186 -30.959716 -39.831147 9
-32.885909 -31.035657 -39.669996 9
-35.692616 -31.150716 -39.521525 9
-38.513700 -31.255868 -39.361665 9
-41.347567 -31.360460 -39.194906 9
-44.311993 -31.058774 -38.821164 9
-48.415404 -27.036824 -36.602638 9
-51.855464 -25.495206 -35.596691 9
-55.738879 -22.745826 -33.981686 9
-65.161604 -3.674879 -24.246120 8
-65.615015 -11.869359 -28.035593 8
-65.764619 -20.439695 -32.021395 8
-68.807783 -20.692006 -31.859282 8
-71.866120 -20.948398 -31.691592 8
-74.933290 -21.226703 -31.527170 8
-78.031440 -21.472385 -31.338511 8
-81.125718 -21.773813 -31.169950 8
-84.245008 -22.061052 -30.986181 8
-87.347948 -22.430867 -30.836069 8
-90.446170 -22.852883 -30.704349 8
-93.572816 -23.253877 -30.553757 8
-96.723909 -23.645709 -30.390119 8
-99.879550 -24.071423 -30.235296 8
-103.092067 -24.426819 -30.035715 8
-107.057239 -23.377112 -29.102854 8
-114.320752 -16.240353 -25.009506 8
-117.635211 -16.764874 -24.856073 7
-121.062646 -17.130248 -24.610454 7
-124.560844 -17.423579 -24.317114 7
-128.082102 -17.733463 -24.021842 7
-131.665129 -17.996363 -23.691102 7
-135.278671 -18.268603 -23.354072 7
-138.903551 -18.582316 -23.027527 7
-142.570396 -18.889282 -22.685821 7
-146.274215 -19.199787 -22.334105 7
-150.004204 -19.531957 -21.981789 7
148.163359 -11.810525 -27.555829 6
144.896624 -11.633985 -27.659232 6
141.657789 -11.442587 -27.747293 6
138.434640 -11.263563 -27.833697 6
135.251885 -11.031376 -27.885969 6
132.061147 -10.868689 -27.965171 6
128.899904 -10.675946 -28.021934 6
125.744913 -10.514421 -28.086737 6
122.601961 -10.367764 -28.151533 6
119.481521 -10.202934 -28.200056 6
116.408559 -9.935995 -28.190971 5
111.735391 -14.993789 -30.801582 5
107.747828 -18.152028 -32.464729 5
104.525379 -18.892806 -32.927870 5
101.548473 -18.840792 -32.993468 5
98.590619 -18.768037 -33.042163 5
95.652043 -18.668034 -33.070836 5
92.721925 -18.579950 -33.098807 5
89.788205 -18.556173 -33.151845 5
86.869900 -18.514659 -33.189682 5
83.967423 -18.447298 -33.208394 5
81.066633 -18.419900 -33.240319 5
78.181988 -18.356485 -33.248220 5
75.298181 -18.336182 -33.270940 5
72.421858 -18.322291 -33.290507 5
69.555995 -18.292173 -33.295858 5
66.696685 -18.265847 -33.296832 5
64.444143 -13.553864 -30.995640 5
62.956188 -1.537456 -25.109206 5
58.004936 -19.597863 -33.953969 9
54.973563 -21.748640 -34.997157 9
51.889070 -25.103669 -36.624725 9
49.027214 -26.493909 -37.283683 9
46.113081 -29.199181 -38.581748 9
43.309569 -30.967026 -39.414842 9
40.613322 -31.183123 -39.481337 9
37.929884 -31.204294 -39.446414 9
35.247438 -31.257111 -39.421206 9
32.567517 -31.253111 -39.362277 9
29.887677 -31.263250 -39.304448 9
27.208469 -31.360755 -39.283723 9
24.528437 -31.355564 -39.206654 9
21.849320 -31.432648 -39.164194 9
19.168321 -31.471647 -39.097109 9
16.485592 -31.509816 -39.023705 9
13.801331 -31.559658 -38.950125 9
11.114965 -31.615615 -38.873611 9
8.426617 -31.683480 -38.797002 9
5.733929 -31.739734 -38.708648 9
3.038395 -31.807681 -38.620037 9
0.339813 -31.887153 -38.531062 9
-2.366841 -31.939464 -38.422505 9
-5.076938 -32.009331 -38.316491 9
-7.789377 -32.104310 -38.216758 9
-10.509213 -32.190733 -38.106536 9
-13.233978 -32.288384 -37.995620 9
-15.967108 -32.379281 -37.874998 9
-18.714399 -32.437101 -37.731439 9
-21.461170 -32.543501 -37.605686 9
-24.222104 -32.624348 -37.460612 9
-26.977170 -32.776305 -37.344621 9
-29.757652 -32.857873 -37.186650 9
-32.546833 -32.949595 -37.027023 9
-35.346594 -33.045306 -36.862570 9
-39.081045 -29.681781 -34.942949 9
-41.004962 -33.158713 -36.473326 9
-44.052006 -32.535659 -35.923214 9
-47.386966 -31.056475 -34.929480 9
-50.974966 -28.929806 -33.595664 9
-54.609151 -26.867317 -32.282606 9
-58.271913 -24.918563 -31.015520 9
-65.518091 -12.825442 -24.539558 8
-65.881245 -20.779443 -28.320255 8
-67.652584 -24.484687 -29.924225 8
-70.669010 -24.761863 -29.760393 8
-73.715351 -25.005725 -29.571287 8
-76.757653 -25.304827 -29.402533 8
-79.844786 -25.539627 -29.192107 8
-84.216393 -22.840331 -27.445317 8
-86.065255 -26.044798 -28.763916 8
-89.187195 -26.342228 -28.560089 8
-92.350110 -26.598173 -28.325592 8
-95.489167 -26.952677 -28.133777 8
-98.687385 -27.231981 -27.893195 8
-101.962228 -27.409346 -27.589165 8
-105.543456 -27.052612 -26.991581 8
-111.504310 -22.315334 -24.049362 8
-116.610586 -19.438722 -22.074279 7
-120.107502 -19.641639 -21.728105 7
-123.594212 -19.921437 -21.412044 7
-127.045269 -20.318211 -21.147871 7
-130.518341 -20.730113 -20.880844 7
-134.041221 -21.113046 -20.586843 7
-137.579524 -21.525675 -20.297410 7
-141.167272 -21.915356 -19.983638 7
-144.778712 -22.324845 -19.668576 7
-148.399559 -22.776224 -19.364213 7
146.925667 -15.783835 -25.502527 6
143.697946 -15.599202 -25.612636 6
140.478444 -15.446981 -25.731029 6
137.295385 -15.256805 -25.821719 6
134.132695 -15.064554 -25.903251 6
130.971982 -14.916971 -25.999612 6
127.822021 -14.791840 -26.099489 6
124.702599 -14.632516 -26.174073 6
121.590808 -14.500748 -26.254956 6
118.503452 -14.345636 -26.316294 6
115.192662 -14.947771 -26.754842 5
111.032714 -18.447281 -28.656087 5
107.347105 -20.657075 -29.892619 5
103.909625 -22.220852 -30.792612 5
100.960392 -22.165792 -30.864372 5
98.029399 -22.092718 -30.919969 5
95.112969 -22.011252 -30.964350 5
92.202217 -21.954860 -31.014498 5
89.310390 -21.865655 -31.041202 5
86.415746 -21.836665 -31.091514 5
83.530745 -21.813366 -31.137920 5
80.663453 -21.751655 -31.158212 5
77.804556 -21.692282 -31.173006 5
74.949289 -21.659813 -31.194726 5
72.100778 -21.636413 -31.214404 5
69.260931 -21.607253 -31.224598 5
66.425617 -21.596296 -31.237413 5
64.116329 -17.553942 -29.212258 5
63.033880 -2.452153 -21.608069 5
57.748358 -23.518033 -32.221698 9
54.766275 -25.482571 -33.204082 9
51.844189 -27.288678 -34.100427 9
48.961099 -29.138530 -35.012758 9
46.126477 -30.898243 -35.873730 9
43.361861 -32.109863 -36.452514 9
40.643706 -32.900749 -36.813234 9
37.963218 -33.119654 -36.879440 9
35.293937 -33.107214 -36.822796 9
32.667365 -29.713237 -35.052236 9
29.956084 -33.167459 -36.734024 9
27.288204 -33.237355 -36.700507 9
24.619780 -33.247876 -36.630803 9
21.953326 -33.365363 -36.609036 9
19.284586 -33.413097 -36.545784 9
16.617459 -33.522089 -36.507361 9
13.948587 -33.614696 -36.454427 9
11.275685 -33.673916 -36.378305 9
8.603631 -33.778368 -36.318873 9
5.927915 -33.870011 -36.246640 9
3.249811 -33.970371 -36.172512 9
0.567403 -34.065095 -36.089151 9
-2.115199 -34.192944 -36.016279 9
-4.797453 -34.354210 -35.954061 9
-7.494644 -34.441046 -35.847363 9
-10.191515 -34.569358 -35.755340 9
-12.895193 -34.692175 -35.653939 9
-15.600933 -34.840271 -35.558890 9
-18.315881 -34.974724 -35.450180 9
-21.033085 -35.135353 -35.348213 9
-23.764398 -35.264931 -35.223485 9
-26.509623 -35.371658 -35.080085 9
-29.246478 -35.556744 -34.970219 9
-32.002262 -35.700612 -34.832071 9
-34.759860 -35.877947 -34.704204 9
-37.532357 -36.037994 -34.560242 9
-40.377958 -35.976227 -34.293562 9
-43.342273 -35.563653 -33.836140 9
-46.535922 -34.475390 -33.017016 9
-50.041209 -32.525285 -31.736468 9
-53.609395 -30.575312 -30.443822 9
-57.187355 -28.787127 -29.223759 9
-65.569353 -13.358178 -20.803449 8
-66.065753 -20.936140 -24.488562 8
-66.801662 -27.446158 -27.617205 8
-69.830123 -27.628665 -27.395791 8
-72.869074 -27.832592 -27.177086 8
-75.912360 -28.073216 -26.969168 8
-78.993247 -28.270117 -26.729052 8
-82.082732 -28.496202 -26.495464 8
-85.212783 -28.679140 -26.229502 8
-88.337729 -28.924451 -25.987644 8
-91.495660 -29.148043 -25.724561 8
-94.682841 -29.361396 -25.446188 8
-97.863066 -29.640434 -25.193525 8
-101.056479 -29.942529 -24.943456 8
-104.404803 -29.996175 -24.547512 8
-109.232653 -27.344955 -22.657594 8
-116.591754 -20.271277 -18.314692 7
-118.743342 -22.875451 -19.274125 7
-122.162478 -23.221869 -18.980673 7
-125.642755 -23.517252 -18.647385 7
-129.075770 -23.946921 -18.376998 7
-132.570424 -24.327445 -18.067420 7
-136.131281 -24.657035 -17.717067 7
-139.736811 -24.974570 -17.347234 7
-143.343952 -25.348190 -16.996071 7
-148.794544 -23.052377 -15.115834 7
148.819930 -20.106314 -23.478676 6
145.608777 -19.919533 -23.606904 6
142.388568 -19.806546 -23.765277 6
139.195193 -19.684340 -23.909939 6
136.047785 -19.501823 -24.014117 6
132.909865 -19.345365 -24.123525 6
129.782991 -19.211010 -24.236142 6
126.663297 -19.109241 -24.357540 6
123.563035 -19.006112 -24.469965 6
120.480943 -18.902794 -24.574138 6
117.578237 -18.305835 -24.411983 6
114.260940 -19.033688 -24.934836 5
110.413095 -21.612636 -26.415563 5
107.113300 -22.586092 -27.048398 5
104.116127 -22.625122 -27.185585 5
101.167646 -22.545587 -27.253389 5
98.232289 -22.466058 -27.313738 5
95.301268 -22.419034 -27.383602 5
92.380484 -22.381421 -27.451009 5
89.476720 -22.321741 -27.499661 5
86.581753 -22.271619 -27.546051 5
83.696602 -22.224442 -27.586793 5
80.816140 -22.203791 -27.634168 5
77.943366 -22.194562 -27.680373 5
75.088191 -22.137797 -27.694884 5
72.225036 -22.178307 -27.752807 5
69.375346 -22.190778 -27.789215 5
66.534313 -22.198681 -27.816312 5
63.706160 -22.163588 -27.814225 5
63.048889 -3.902063 -18.365105 5
57.558667 -26.791539 -30.222723 9
54.616949 -28.594611 -31.152197 9
51.724154 -30.329645 -32.039876 9
