ply
format ascii 1.0
element vertex 1420
property float x
property float y
property float z
property int scalar_Label
end_header
91.122113 3.185645 -37.843789 5
93.177512 1.340462 -37.976291 5
95.210045 -0.714000 -37.994050 5
97.209601 -3.069116 -37.844014 5
99.195764 -5.667525 -37.566813 5
101.121998 -8.839771 -36.965059 5
102.872029 -13.460016 -35.520323 5
103.638598 -25.482653 -29.692404 5
-64.690935 37.091958 19.695809 9
-47.861669 48.669006 5.641385 9
-43.240740 49.007854 3.493207 9
-38.993406 49.082884 1.653830 9
-34.846730 49.149596 -0.145428 9
-30.867313 49.134370 -1.831927 9
-8.141939 69.211829 -23.522794 1
-5.734032 68.128213 -23.913849 1
-3.338600 67.055465 -24.312385 1
-11.864534 53.507319 -12.611401 4
-6.892598 55.206268 -15.777752 4
-6.887705 51.107555 -13.372163 4
-1.555165 53.436082 -17.079632 4
0.711620 52.099352 -17.299386 4
0.157448 47.140142 -14.164443 9
3.185297 46.745282 -15.283810 9
5.968083 46.078552 -16.142746 9
8.897941 45.661128 -17.218623 9
11.786002 45.241563 -18.281090 9
14.573959 44.732708 -19.253454 9
17.343804 44.248167 -20.238126 9
20.092220 43.782833 -21.230556 9
22.780213 43.275040 -22.177499 9
25.382047 42.678086 -23.040362 9
27.975668 42.112057 -23.923456 9
30.560341 41.576485 -24.826084 9
33.091498 40.994395 -25.683745 9
35.627332 40.464516 -26.579454 9
38.070226 39.809786 -27.367271 9
40.521413 39.209631 -28.196024 9
42.892783 38.495651 -28.929170 9
45.289792 37.867596 -29.728976 9
47.621449 37.144016 -30.450223 9
49.840469 36.214513 -31.008441 9
52.016448 35.211163 -31.510892 9
54.069401 33.945755 -31.813984 9
56.067728 32.551570 -32.025139 9
58.046001 31.098426 -32.200036 9
59.944187 29.431332 -32.223377 9
61.876320 27.820119 -32.300693 9
63.796757 26.149465 -32.345747 9
65.748313 24.529945 -32.440844 9
67.648785 22.733784 -32.419605 9
69.586643 21.001077 -32.458440 9
71.600639 19.456729 -32.645451 5
73.794579 18.450290 -33.224665 5
75.971434 17.397197 -33.776050 5
78.135039 16.303624 -34.304946 5
80.294919 15.197192 -34.831320 5
82.432073 14.004434 -35.305381 5
84.559615 12.763481 -35.754693 5
86.686038 11.501009 -36.198200 5
88.797800 10.155198 -36.595323 5
90.901922 8.743846 -36.959446 5
92.995538 7.242236 -37.275742 5
95.083868 5.660557 -37.552558 5
97.169064 3.995536 -37.789354 5
99.234508 2.139221 -37.919116 5
101.296909 0.153314 -37.984199 5
103.344907 -2.059978 -37.925973 5
105.348499 -4.751194 -37.593649 5
107.176152 -8.980802 -36.346224 5
108.386682 -18.573615 -31.890261 5
-50.077415 47.157192 11.955285 9
-44.585044 48.247898 8.909894 9
-39.930174 48.653849 6.640917 9
-9.132131 75.740083 -23.362685 1
-6.735999 74.653305 -23.747024 1
-4.354379 73.576116 -24.136928 1
-2.005650 72.487887 -24.511699 1
0.354297 71.435802 -24.919380 1
1.989345 69.579873 -24.525313 1
2.225009 66.071453 -22.517135 4
-0.318282 59.137129 -17.211015 4
1.637763 57.465948 -17.090146 4
3.449611 55.609627 -16.799735 4
5.186849 53.643763 -16.416447 4
6.762638 51.445400 -15.827609 4
6.944260 47.329130 -13.469128 9
9.762362 46.741731 -14.417383 9
12.690895 46.360925 -15.545020 9
15.521430 45.896648 -16.584452 9
18.341254 45.470876 -17.647878 9
21.106265 45.016935 -18.675473 9
23.807509 44.516506 -19.652205 9
26.493851 44.042902 -20.643808 9
29.160345 43.588189 -21.643222 9
31.722390 43.007896 -22.526138 9
34.265810 42.440044 -23.413517 9
36.830763 41.956167 -24.365948 9
39.283124 41.313669 -25.178589 9
41.728420 40.697856 -26.009256 9
44.205842 40.186075 -26.921437 9
46.572573 39.498395 -27.684582 9
48.898053 38.761342 -28.405197 9
51.108091 37.810588 -28.952671 9
53.229001 36.682952 -29.361013 9
55.307077 35.465740 -29.702977 9
57.282379 34.009188 -29.863419 9
59.233833 32.479908 -29.976575 9
61.190587 30.942889 -30.094012 9
63.152132 29.395553 -30.214045 9
65.112976 27.821698 -30.324761 9
67.049141 26.151801 -30.374717 9
69.002661 24.495322 -30.447202 9
71.050964 23.083222 -30.712120 5
73.151719 21.812532 -31.089736 5
75.360733 20.877719 -31.718201 5
77.567410 19.950064 -32.355555 5
79.745563 18.938265 -32.936953 5
81.910242 17.884531 -33.493915 5
84.076733 16.839666 -34.062892 5
86.219825 15.704075 -34.574954 5
88.361484 14.554298 -35.084471 5
90.498712 13.373976 -35.580750 5
92.622540 12.116232 -36.032926 5
94.733838 10.771529 -36.436201 5
96.844423 9.383978 -36.821505 5
98.946627 7.903734 -37.157072 5
101.050355 6.368931 -37.469498 5
103.144374 4.699664 -37.708451 5
105.212309 2.760743 -37.790215 5
107.196419 0.089496 -37.427255 5
109.057481 -3.782169 -36.339509 5
110.699815 -9.938185 -33.875798 5
-8.823925 79.958415 -22.443600 1
-6.030965 79.279463 -23.267869 1
-3.435634 78.440248 -23.909252 1
-0.829096 77.649239 -24.591428 1
1.589488 76.691529 -25.090878 1
2.096856 73.632920 -23.427988 1
2.431578 70.303963 -21.525172 1
2.792105 66.918703 -19.605207 1
2.598330 62.780336 -16.973797 4
4.357355 60.911755 -16.639597 4
5.956330 58.827558 -16.105441 4
7.504905 56.652837 -15.498608 4
8.954835 54.317258 -14.753847 4
10.320473 51.828397 -13.882544 4
10.715746 47.945314 -11.716467 9
13.482599 47.318586 -12.644108 9
16.363782 46.906488 -13.761502 9
19.266479 46.584832 -14.949655 9
22.050438 46.143041 -16.015000 9
24.806553 45.712765 -17.079906 9
25.903554 42.651030 -15.778132 9
30.162004 44.760462 -19.097202 9
32.813262 44.318083 -20.122038 9
35.406948 43.828036 -21.096358 9
37.987553 43.364689 -22.085973 9
40.459213 42.750547 -22.938573 9
42.943806 42.203437 -23.842980 9
45.395411 41.637331 -24.725611 9
47.772127 40.964044 -25.513608 9
50.081047 40.186997 -26.212466 9
52.293356 39.233259 -26.764868 9
54.393279 38.050022 -27.131889 9
56.437117 36.742900 -27.403778 9
58.436274 35.325895 -27.594508 9
60.407827 33.828999 -27.730296 9
62.395817 32.354372 -27.893206 9
64.393554 30.886356 -28.070724 9
66.348131 29.282557 -28.152883 9
68.367188 27.828114 -28.360849 5
70.592115 26.948046 -29.014351 5
72.800544 26.039146 -29.648334 5
74.986573 25.078245 -30.246304 5
77.059378 23.763302 -30.586171 5
79.123388 22.401868 -30.900397 5
81.273430 21.320675 -31.427402 5
83.465232 20.393031 -32.070746 5
85.637563 19.403566 -32.673966 5
87.802532 18.390695 -33.265608 5
89.952124 17.315798 -33.819222 5
92.089366 16.181382 -34.337893 5
94.234207 15.069474 -34.879409 5
96.363811 13.870243 -35.368552 5
98.482486 12.589460 -35.811009 5
100.611317 11.327056 -36.275432 5
102.726335 9.944716 -36.669765 5
104.828939 8.425412 -36.985143 5
106.866629 6.386200 -36.974447 5
108.821350 3.575919 -36.484905 5
110.671942 -0.361467 -35.302550 5
112.382588 -6.030150 -33.064439 5
-9.822389 82.872894 -20.153887 1
-6.880207 82.305021 -21.135844 1
-3.961051 81.765245 -22.130710 1
-1.213551 81.099518 -22.971766 1
1.593504 80.541667 -23.914355 1
2.271287 77.720271 -22.439694 1
2.546804 74.389304 -20.460869 1
1.578119 69.553218 -16.956542 1
3.388048 67.800993 -16.701650 1
-7.504002 50.841942 -0.925171 4
6.751893 63.956407 -15.874597 4
8.199511 61.712918 -15.157601 4
9.595156 59.368043 -14.358255 4
10.949083 56.928059 -13.485430 4
12.111272 54.183094 -12.336955 4
13.235052 51.323345 -11.104558 4
14.320227 48.340706 -9.783251 9
17.163377 47.852739 -10.859530 9
20.032507 47.459003 -12.012335 9
22.894418 47.113782 -13.197246 9
25.728975 46.786959 -14.385808 9
28.459430 46.353224 -15.463410 9
31.161233 45.927447 -16.537421 9
33.808889 45.464559 -17.567610 9
36.435713 45.018118 -18.603081 9
39.016176 44.541319 -19.602539 9
41.568392 44.063348 -20.592695 9
44.093609 43.584601 -21.574337 9
46.585607 43.090843 -22.535635 9
48.931568 42.349451 -23.278817 9
51.227811 41.537792 -23.959794 9
53.405049 40.498155 -24.448170 9
55.505463 39.301571 -24.808249 9
57.518246 37.906960 -25.009795 9
59.534603 36.510575 -25.217580 9
61.557453 35.118734 -25.436919 9
63.557364 33.656535 -25.607729 9
65.562081 32.188797 -25.783230 9
67.567005 30.701813 -25.952862 9
69.777058 29.770467 -26.566861 5
72.036674 29.001589 -27.309169 5
74.270052 28.182367 -28.013136 5
76.496553 27.366339 -28.720812 5
78.687812 26.459188 -29.361120 5
80.867238 25.527994 -29.986319 5
82.970671 24.339170 -30.423713 5
85.038813 23.008517 -30.763738 5
87.133895 21.757974 -31.171175 5
89.307717 20.809803 -31.805298 5
91.467548 19.810168 -32.406963 5
93.631012 18.828979 -33.026991 5
95.774196 17.753872 -33.586143 5
97.919383 16.679206 -34.152194 5
100.054227 15.537713 -34.678818 5
102.185902 14.355764 -35.185505 5
104.310372 13.099338 -35.650087 5
106.382565 11.460057 -35.866670 5
108.389317 9.259006 -35.723219 5
110.321315 6.290388 -35.094259 5
112.158516 2.192326 -33.757119 5
113.969663 -2.738484 -31.924742 5
115.146684 -14.723842 -25.616437 5
-8.553231 84.555439 -18.112968 1
-5.481966 84.109547 -19.263038 1
-2.523603 83.607789 -20.328755 1
0.515379 83.243476 -21.527196 1
3.260793 82.628487 -22.428924 1
3.171565 78.987363 -20.027721 1
-0.278380 71.510304 -13.549119 1
3.029987 71.432558 -15.082197 1
5.831866 70.839939 -16.046088 1
7.260036 68.654383 -15.330524 1
8.350034 66.023092 -14.171123 4
10.200249 64.292584 -13.961775 4
11.421448 61.742927 -12.928865 4
12.592670 59.075990 -11.802183 4
13.717245 56.288104 -10.581129 4
14.612619 53.117168 -9.009777 4
15.351424 49.637949 -7.171424 4
17.736138 48.465684 -7.611347 9
20.760127 48.273640 -8.992730 9
23.669917 47.977102 -10.256924 9
26.522209 47.654907 -11.481722 9
29.311118 47.293037 -12.655264 9
32.048555 46.905854 -13.792443 9
34.775380 46.559290 -14.955042 9
37.379374 46.056287 -15.963030 9
40.028878 45.687351 -17.083063 9
41.213135 42.635233 -15.790292 9
45.143357 44.773068 -19.134901 9
47.622805 44.241653 -20.082626 9
44.420624 32.143577 -10.937984 9
52.257861 42.642586 -21.494352 9
54.407775 41.525161 -21.924539 9
56.546242 40.391693 -22.344043 9
58.576901 39.016396 -22.563338 9
60.603032 37.621284 -22.773257 9
62.623608 36.201084 -22.970033 9
64.660293 34.807939 -23.197142 9
66.687590 33.376475 -23.401000 9
68.855104 32.312641 -23.909813 5
71.136871 31.582741 -24.689089 5
73.413589 30.870988 -25.481936 5
75.675052 30.146478 -26.263975 5
77.896900 29.328097 -26.972588 5
80.112192 28.512475 -27.684502 5
82.329257 27.727255 -28.421043 5
84.510451 26.838411 -29.080210 5
86.677244 25.911369 -29.713474 5
88.821956 24.908628 -30.293865 5
90.886377 23.575145 -30.634750 5
92.954281 22.225224 -30.972833 5
95.095906 21.178885 -31.540743 5
97.259024 20.231697 -32.185783 5
99.403311 19.191771 -32.769495 5
101.552730 18.171118 -33.372952 5
103.693554 17.091810 -33.941431 5
105.799794 15.778204 -34.354407 5
107.836594 13.944467 -34.420016 5
109.814996 11.546705 -34.118270 5
111.715652 8.291553 -33.261835 5
113.599103 4.461131 -32.055352 5
115.489212 0.110400 -30.545892 5
117.561756 -3.104682 -29.829894 6
119.714147 -5.957677 -29.383487 6
121.838793 -9.718107 -28.382382 6
123.658843 -19.039527 -23.874057 6
-8.483330 88.494361 -17.015828 3
-5.234797 88.199151 -18.378427 3
-2.803631 87.168085 -18.861178 3
-1.493678 85.038491 -18.075637 1
1.610229 84.730713 -19.374769 1
0.549000 80.089494 -15.781168 1
4.909392 81.161246 -18.615419 1
2.518709 74.880095 -13.298461 1
4.193070 72.982535 -12.868657 1
6.099201 71.339609 -12.725336 1
9.259633 71.191692 -14.187239 1
10.539384 68.812941 -13.261877 1
11.544250 66.046686 -11.951633 4
13.097746 63.924396 -11.339888 4
14.118580 61.068644 -9.989268 4
14.839051 57.737412 -8.183993 4
15.668546 54.464067 -6.476192 4
16.350609 50.889065 -4.503728 4
18.233547 48.965930 -4.212467 9
19.245124 45.711763 -2.624757 9
24.295499 48.606419 -7.062440 9
27.209112 48.351401 -8.386942 9
30.072765 48.083340 -9.682650 9
32.873635 47.777210 -10.926811 9
35.634932 47.467422 -12.153335 9
38.321185 47.088441 -13.301860 9
40.983438 46.725146 -14.452994 9
43.584589 46.307050 -15.542383 9
46.181906 45.937919 -16.665942 9
48.655989 45.382062 -17.611135 9
50.972635 44.549814 -18.302970 9
53.269042 43.704189 -18.980572 9
54.264494 40.041249 -17.190185 9
57.511255 41.306926 -19.717804 9
59.574947 39.980669 -19.982582 9
61.619550 38.602807 -20.209518 9
63.684571 37.265746 -20.478046 9
65.749016 35.918830 -20.744995 9
67.804413 34.537519 -20.990374 5
70.155479 33.962405 -21.907206 5
72.482421 33.363550 -22.800950 5
74.750402 32.632092 -23.584342 5
77.005762 31.894354 -24.361797 5
79.260995 31.188266 -25.163871 5
81.496543 30.450103 -25.939945 5
83.708543 29.660235 -26.675605 5
85.911617 28.863660 -27.407007 5
88.109668 28.072701 -28.143989 5
90.268693 27.149065 -28.781440 5
92.441397 26.294411 -29.474348 5
94.605385 25.417925 -30.153659 5
96.673952 24.105852 -30.513443 5
98.741313 22.750441 -30.850557 5
100.845180 21.541754 -31.304347 5
102.995194 20.560698 -31.930475 5
105.134350 19.510014 -32.512184 5
107.215030 18.067064 -32.822417 5
109.223213 16.043434 -32.736589 5
111.125886 13.049071 -31.994534 5
113.066225 9.991345 -31.240346 5
114.508307 2.081553 -27.203899 5
117.078489 3.797601 -29.776100 6
119.267977 1.939066 -29.923782 6
121.465075 -0.083185 -29.980238 6
123.669337 -2.349810 -29.895555 6
125.877911 -5.036131 -29.560073 6
128.088429 -8.450644 -28.782403 6
130.107224 -18.068114 -24.073537 6
-12.316578 92.205125 -13.895706 3
-8.693718 92.147335 -15.632127 3
-4.994867 92.240754 -17.514029 3
-1.701504 92.033663 -18.995587 3
0.337666 90.669832 -19.073900 3
2.144891 89.084713 -18.891357 3
3.901853 87.447545 -18.653040 3
5.325662 85.455973 -18.013242 1
6.383393 83.047398 -16.913206 1
4.341077 77.164518 -11.920710 1
6.313538 75.618762 -11.870232 1
7.704540 73.398503 -11.078148 1
5.878729 67.307190 -6.068389 1
12.178165 70.927278 -11.683917 1
13.270243 68.280040 -10.468496 1
14.497090 65.749047 -9.404010 4
15.179936 62.447649 -7.552961 4
15.941972 59.161058 -5.757085 4
16.544899 55.560786 -3.675927 4
16.916604 51.520635 -1.188799 4
18.529129 49.167343 -0.464619 9
21.707353 49.130744 -2.088297 9
24.776911 49.009138 -3.604375 9
27.747405 48.807851 -5.021242 9
30.693149 48.639024 -6.451437 9
33.559025 48.410122 -7.805143 9
36.377500 48.169566 -9.131106 9
39.138821 47.896497 -10.410413 9
41.867462 47.630474 -11.681808 9
44.501407 47.252713 -12.834666 9
47.105732 46.877261 -13.977973 9
49.569877 46.280568 -14.906921 9
51.936506 45.527924 -15.686791 9
54.174980 44.537293 -16.247743 9
56.348169 43.422373 -16.697454 9
58.432025 42.114913 -16.978643 9
60.514470 40.801025 -17.259550 9
62.608979 39.511942 -17.567718 9
64.698329 38.206083 -17.866880 9
66.780677 36.875937 -18.151186 9
69.053096 36.050245 -18.869875 5
71.380533 35.406444 -19.740711 5
73.705833 34.797600 -20.637501 5
76.026825 34.219411 -21.556239 5
78.317394 33.591447 -22.430692 5
80.576314 32.901420 -23.252256 5
82.819546 32.193940 -24.058442 5
85.031908 31.410500 -24.803216 5
87.266534 30.737347 -25.635721 5
89.472639 29.989510 -26.408913 5
91.658036 29.185932 -27.139310 5
93.848657 28.428151 -27.906504 5
95.997640 27.508015 -28.550884 5
98.149678 26.611191 -29.216459 5
100.305423 25.743276 -29.907168 5
102.403530 24.575262 -30.378077 5
104.471631 23.205408 -30.707740 5
106.507269 21.574686 -30.857213 5
108.556953 19.932289 -31.012087 5
110.523291 17.577002 -30.669858 5
112.364634 14.001426 -29.483901 5
114.313901 10.845677 -28.632838 5
115.198290 -2.726331 -20.546988 5
118.641512 7.467220 -29.060189 6
120.845541 5.942272 -29.409237 6
123.053647 4.282974 -29.680423 6
125.270385 2.491688 -29.878030 6
127.498394 0.538325 -29.984644 6
129.738468 -1.676250 -29.938024 6
131.997084 -4.201036 -29.711151 6
134.274343 -7.437591 -29.049902 6
136.578065 -12.417254 -27.306141 6
-15.688969 93.158693 -9.022167 3
-12.571105 92.546296 -10.158269 3
-9.245358 92.177702 -11.573964 3
-5.569420 92.200718 -13.444099 3
-2.001675 92.205853 -15.251463 3
1.507717 92.236746 -17.051502 3
4.560596 91.893831 -18.364383 3
6.155144 90.118635 -17.946220 3
7.543873 88.116022 -17.269847 3
7.665499 84.725079 -14.990423 1
8.597609 82.135562 -13.683541 1
8.228919 78.019206 -10.661034 1
9.364938 75.520016 -9.529858 1
10.456944 72.920420 -8.311424 1
12.486189 71.413455 -8.331424 1
14.598999 70.014387 -8.473043 1
14.691914 66.022792 -5.796937 4
16.198080 63.769512 -5.048298 4
16.716166 60.138690 -2.849177 4
16.971702 56.030730 -0.192477 4
16.619895 50.916352 3.462286 4
18.585215 49.013261 3.713399 9
21.869131 49.083127 1.926982 9
25.104423 49.168660 0.151073 9
28.205684 49.131822 -1.475615 9
31.249906 49.085363 -3.070011 9
34.155164 48.887347 -4.492659 9
37.036230 48.720974 -5.928143 9
39.851561 48.512206 -7.304326 9
42.591501 48.236872 -8.599703 9
45.321748 48.010959 -9.927380 9
47.925480 47.608353 -11.072700 9
50.420536 47.046028 -12.056627 9
52.771650 46.233321 -12.799376 9
55.041135 45.277776 -13.406658 9
57.200437 44.100477 -13.810251 9
59.307343 42.810127 -14.114211 9
61.409366 41.506596 -14.411092 9
63.525321 40.233695 -14.740377 9
65.625777 38.919096 -15.037793 9
67.824148 37.855544 -15.560329 5
70.220835 37.344054 -16.563159 5
72.589338 36.805153 -17.536446 5
74.935874 36.251795 -18.492191 5
77.252859 35.656929 -19.408236 5
79.556508 35.065005 -20.323006 5
81.840090 34.451967 -21.216807 5
84.103205 33.811552 -22.085260 5
86.354236 33.168364 -22.949293 5
88.575824 32.453947 -23.753976 5
90.775492 31.685711 -24.515030 5
92.989025 31.003357 -25.344690 5
95.185388 30.281581 -26.142866 5
97.353130 29.458267 -26.862212 5
98.997468 26.074561 -25.605257 5
101.676285 27.807465 -28.303819 5
103.813392 26.873079 -28.945450 5
105.889592 25.577968 -29.319840 5
107.897024 23.791456 -29.337008 5
109.821386 21.299770 -28.848961 5
111.732598 18.447009 -28.121803 5
113.670476 15.459838 -27.327197 5
115.213927 8.554027 -23.746182 5
117.926079 11.870535 -27.533346 6
120.135683 10.648513 -28.065420 6
122.342825 9.298414 -28.517056 6
124.557450 7.901074 -28.946950 6
126.777990 6.400723 -29.317870 6
129.007484 4.788960 -29.626233 6
131.247708 3.016299 -29.840959 6
133.503388 1.067665 -29.955187 6
135.780573 -1.027933 -29.991580 6
138.082006 -3.522481 -29.787914 6
140.420213 -6.542749 -29.269527 6
142.820607 -10.835186 -27.966523 6
-9.982922 95.397110 -9.609430 3
-6.380882 95.299808 -11.400091 3
-2.733798 95.324692 -13.305188 3
-0.075137 94.497872 -14.096017 3
1.843577 92.992241 -14.024318 3
4.451380 92.178404 -14.805850 3
7.793648 92.154976 -16.534076 3
9.465750 90.459811 -16.211327 3
10.621332 88.201520 -15.224402 3
9.909222 83.846286 -11.782966 1
10.826066 81.188201 -10.396919 1
9.896497 76.329880 -6.495199 1
11.774427 74.642693 -6.306362 1
12.529616 71.577774 -4.561661 1
15.710367 71.475923 -6.181860 1
16.304036 68.121404 -4.157130 1
16.839559 64.593503 -1.984608 4
16.952263 60.385566 0.883483 4
16.752712 55.598935 4.317195 4
14.529719 47.739563 10.968287 9
18.297612 48.348791 8.512961 9
21.749425 48.604431 6.468837 9
25.196696 48.956882 4.355791 9
28.434806 49.083743 2.507785 9
31.583018 49.158101 0.740611 9
34.608372 49.116377 -0.883817 9
37.579298 49.064412 -2.475675 9
40.474961 48.961014 -3.995116 9
43.297737 48.803055 -5.441204 9
46.076391 48.637542 -6.861948 9
48.729450 48.301149 -8.100330 9
51.165762 47.590441 -8.966535 9
53.548217 46.807527 -9.757551 9
54.552013 43.083446 -7.775996 9
57.998098 44.646353 -10.769756 9
58.908897 40.556548 -8.495051 9
62.251429 42.074561 -11.408370 9
64.397949 40.835383 -11.776766 9
66.554998 39.623612 -12.173821 9
68.933445 39.001062 -13.100383 5
71.364029 38.567255 -14.188657 5
72.857590 35.510601 -12.969795 5
76.114591 37.553777 -16.215507 5
78.452106 37.011776 -17.189522 5
80.767915 36.450510 -18.142073 5
83.058858 35.854610 -19.060924 5
85.342245 35.278191 -19.992569 5
87.595789 34.639609 -20.868994 5
89.855345 34.066227 -21.796858 5
92.082702 33.410528 -22.654494 5
94.282550 32.677267 -23.447818 5
96.470489 31.921773 -24.223181 5
98.674297 31.270368 -25.081839 5
100.853600 30.535664 -25.874038 5
103.016578 29.743277 -26.621806 5
105.115804 28.607627 -27.105273 5
107.163077 27.125766 -27.329474 5
109.126704 25.008618 -27.081618 5
111.056149 22.453621 -26.523726 5
112.999632 19.720192 -25.858690 5
115.034883 17.417782 -25.541743 5
117.154484 15.612018 -25.612468 6
119.366313 14.555121 -26.244611 6
121.575872 13.422630 -26.828911 6
123.788925 12.255131 -27.396060 6
126.002666 10.986645 -27.900212 6
128.224353 9.688283 -28.393415 6
130.452398 8.294912 -28.831152 6
132.689905 6.803191 -29.213137 6
134.940331 5.221391 -29.547074 6
137.206134 3.504217 -29.804247 6
139.491589 1.602813 -29.954692 6
141.802752 -0.514538 -29.981041 6
144.147200 -2.895490 -29.856239 6
146.539231 -5.755773 -29.445072 6
149.014568 -9.641435 -28.404929 6
-13.608028 96.163384 -4.330505 3
-5.112928 100.234254 -11.791657 2
-1.413366 100.297408 -13.797903 2
0.011647 98.353556 -13.141411 2
0.315403 95.333530 -11.111066 3
3.801412 95.324030 -12.962030 3
5.905750 94.023989 -13.145019 3
7.445263 92.162783 -12.623961 3
11.069674 92.466923 -14.786573 3
12.098335 90.082882 -13.621639 3
11.250517 85.588926 -9.932226 1
12.199886 82.970273 -8.563110 1
10.427487 77.140976 -3.423045 1
11.868367 74.909082 -2.604595 1
13.194311 72.502716 -1.602737 1
15.421546 71.182304 -1.870945 1
16.991494 69.029702 -1.190833 1
16.848527 64.581211 2.057491 4
12.365083 54.082672 11.984755 4
8.118329 43.425839 21.890724 9
13.026909 45.394416 17.793358 9
17.289773 46.616873 14.576664 9
21.266000 47.567670 11.706471 9
24.953913 48.215810 9.205839 9
28.373376 48.562326 7.063191 9
31.675965 48.826672 5.039466 9
34.843273 48.966679 3.174784 9
37.971987 49.136726 1.306507 9
40.934520 49.106525 -0.331771 9
43.869956 49.112499 -1.984194 9
46.678135 48.963442 -3.460055 9
49.332203 48.588718 -4.694567 9
51.903129 48.108460 -5.811963 9
54.265625 47.246504 -6.547831 9
56.508141 46.154841 -7.058679 9
58.695484 44.954121 -7.465699 9
60.858080 43.702476 -7.826834 9
63.048259 42.519270 -8.255293 9
65.249431 41.369488 -8.717153 9
67.450036 40.225780 -9.186714 5
69.947632 39.885258 -10.390206 5
72.445878 39.614628 -11.646464 5
74.842006 39.122234 -12.693244 5
77.249544 38.720358 -13.813257 5
79.619572 38.264543 -14.877748 5
81.948668 37.734135 -15.870356 5
84.266192 37.217176 -16.869230 5
86.550971 36.637448 -17.809136 5
88.830705 36.087432 -18.770336 5
91.078482 35.463336 -19.665146 5
93.337623 34.930534 -20.633464 5
95.551009 34.252356 -21.477902 5
97.766561 33.622406 -22.360599 5
99.954681 32.902492 -23.168526 5
102.136413 32.182313 -23.976114 5
104.303794 31.415403 -24.746542 5
106.376892 30.118096 -25.098433 5
108.399899 28.450581 -25.168761 5
110.326451 26.007473 -24.650368 5
112.266301 23.404190 -24.033449 5
114.261584 20.938269 -23.548446 5
115.215404 8.907415 -15.852320 5
118.583563 18.232786 -24.323286 6
120.766297 16.945601 -24.774770 6
122.978071 15.905236 -25.417569 6
125.195586 14.885780 -26.082087 6
127.411578 13.768285 -26.682105 6
129.629933 12.562122 -27.226482 6
131.856226 11.334827 -27.765098 6
134.089894 10.029689 -28.258669 6
136.333773 8.655940 -28.715332 6
138.590173 7.202636 -29.129049 6
140.862092 5.604812 -29.457110 6
143.153135 3.930974 -29.748885 6
145.468634 2.069196 -29.930899 6
147.814285 0.024334 -30.010146 6
-9.993327 103.082448 -7.404929 2
-12.541734 97.689088 -2.006788 2
-2.091802 103.431143 -11.948910 2
0.702849 102.716934 -12.937575 2
2.127673 100.793431 -12.286673 2
3.630905 98.927097 -11.724184 2
3.346015 95.320048 -8.900319 3
6.861387 95.373380 -10.863917 3
9.368599 94.488269 -11.585735 3
10.615620 92.324557 -10.676580 3
13.256310 91.621019 -11.612115 3
13.629114 88.470412 -9.502323 3
13.383910 84.537509 -6.480304 1
14.109538 81.601599 -4.729688 1
11.740456 74.914511 1.479684 1
13.136918 72.547558 2.434873 1
15.435031 71.269136 2.089677 1
17.520431 69.734196 2.046668 1
18.986401 67.382879 2.941057 1
21.275532 66.106668 2.588579 1
2.553421 30.168450 39.214088 9
14.595417 42.387170 23.568714 9
19.858740 45.119789 18.618528 9
18.001843 36.992316 25.552238 9
27.862619 47.308772 12.504642 9
31.452301 47.960956 9.995484 9
34.892700 48.490222 7.656207 9
38.126808 48.781219 5.602620 9
41.203952 48.897275 3.761052 9
44.294649 49.136308 1.819572 9
47.159126 49.045757 0.241259 9
49.870514 48.735654 -1.094886 9
52.426322 48.176590 -2.166237 9
54.876595 47.447209 -3.058032 9
57.097380 46.257064 -3.490363 9
59.344571 45.135664 -3.990737 9
61.525290 43.871587 -4.353902 9
63.746335 42.707201 -4.815327 9
65.938305 41.477906 -5.216914 9
68.387941 40.922863 -6.254075 5
70.924254 40.655480 -7.550766 5
73.425295 40.364296 -8.813249 5
75.877551 40.004172 -10.001355 5
78.318394 39.677801 -11.210207 5
80.710368 39.267842 -12.334111 5
83.087437 38.873319 -13.463580 5
85.426999 38.415330 -14.529064 5
87.741735 37.928367 -15.562581 5
90.024913 37.379953 -16.537023 5
92.296166 36.836820 -17.511457 5
94.552768 36.285805 -18.474886 5
96.780730 35.660742 -19.371973 5
99.027202 35.168206 -20.377477 5
101.226124 34.499740 -21.233010 5
103.408752 33.784789 -22.049118 5
105.550658 32.872607 -22.704280 5
107.583771 31.304045 -22.832267 5
109.087666 26.173494 -20.121941 5
111.510750 26.863938 -22.092005 5
113.487658 24.399895 -21.562716 5
115.279175 20.068810 -19.603837 5
117.730923 21.180957 -21.899801 6
119.953379 20.368626 -22.698669 6
122.173918 19.547817 -23.493827 6
124.391338 18.693382 -24.266779 6
126.567604 17.177437 -24.550717 6
128.788571 16.229221 -25.266635 6
131.006719 15.137397 -25.882944 6
133.231021 14.034239 -26.498601 6
135.461572 12.892393 -27.094384 6
137.699208 11.642989 -27.622255 6
139.947508 10.358887 -28.135893 6
142.208171 9.006692 -28.612844 6
144.484727 7.531176 -29.016414 6
146.778608 6.013771 -29.405001 6
149.096927 4.320022 -29.688315 6
-9.800530 103.877501 -4.150358 2
-5.907556 103.922220 -6.348723 2
-2.138583 103.951614 -8.469539 2
1.475443 103.932634 -10.470373 2
4.273937 103.253757 -11.519343 2
5.695587 101.332707 -10.862215 2
7.123662 99.400339 -10.203113 2
8.583872 97.481289 -9.575060 2
10.570488 96.077849 -9.634162 3
11.992595 94.095806 -8.943232 3
13.735596 92.434056 -8.676878 3
14.106280 89.261640 -6.504720 3
14.324704 85.830841 -4.055714 1
14.739098 82.525805 -1.814945 1
11.886957 75.249056 5.247706 1
12.073305 71.367940 8.042524 1
15.348709 71.232350 6.279127 1
18.483813 70.997979 4.666129 1
21.740444 70.999619 2.804615 1
10.160112 30.054322 39.869248 9
21.021838 41.312433 25.258854 9
26.448559 44.586224 19.697274 9
30.608291 46.052329 16.202921 9
34.415672 47.100963 13.218039 9
37.948350 47.824868 10.629184 9
41.304057 48.366275 8.274656 9
44.486438 48.710410 6.163341 9
47.512049 48.866309 4.279014 9
50.294879 48.640443 2.814569 9
52.908921 48.144076 1.644848 9
55.323529 47.281965 0.857913 9
57.601867 46.153337 0.343738 9
59.859433 44.991708 -0.137165 9
62.125802 43.861988 -0.649872 9
64.382128 42.720271 -1.151036 9
66.625379 41.556171 -1.631242 9
69.230481 41.352825 -3.032969 5
71.837807 41.237670 -4.503704 5
74.381896 41.032198 -5.873826 5
76.882936 40.782020 -7.188680 5
79.333352 40.455162 -8.420329 5
81.767232 40.148572 -9.659952 5
84.159828 39.778893 -10.831816 5
86.527337 39.391567 -11.978777 5
88.875246 39.001555 -13.115016 5
91.194857 38.571930 -14.208338 5
92.841859 35.463158 -12.946316 5
95.754256 37.577846 -16.257546 5
98.004639 37.040387 -17.239469 5
100.226852 36.424160 -18.149962 5
102.442192 35.820589 -19.068480 5
104.636927 35.154376 -19.931882 5
106.724126 33.901288 -20.306012 5
108.757506 32.264440 -20.371417 5
110.702651 29.916813 -19.869532 5
112.682300 27.578317 -19.398681 5
114.718861 25.432594 -19.106033 5
115.191687 9.172861 -7.609330 5
119.057270 22.914013 -19.980606 6
121.292164 22.241066 -20.888607 6
123.509758 21.402527 -21.668898 6
125.729772 20.601446 -22.480978 6
127.946386 19.751018 -23.258296 6
130.164591 18.916452 -24.051237 6
132.367154 17.614867 -24.499131 6
134.584483 16.456754 -25.063427 6
136.811801 15.411167 -25.718709 6
139.045296 14.327226 -26.353290 6
141.286557 13.192328 -26.959070 6
143.537873 11.983057 -27.520570 6
145.802146 10.687971 -28.031380 6
148.081265 9.333766 -28.512072 6
-10.260764 104.145962 -0.062619 2
-4.546706 105.674574 -4.506754 2
-2.170562 104.494383 -4.950459 2
0.143028 103.285051 -5.338600 2
4.431754 103.897045 -8.267236 2
7.273581 103.277140 -9.418497 2
9.160075 101.793248 -9.358030 2
10.649977 99.923953 -8.775474 2
9.477040 95.346703 -4.579809 3
13.216480 95.706942 -7.012430 3
14.188801 93.222519 -5.666848 3
14.588928 90.061819 -3.474578 3
14.216906 85.946521 -0.106709 1
14.677300 82.653705 2.146373 1
8.521131 71.421353 14.308722 1
12.024432 71.428932 12.265916 1
15.415889 71.389282 10.321288 1
18.524864 71.075271 8.747628 1
18.011797 66.044094 12.879995 4
17.652594 29.924509 40.510157 9
27.028329 39.572953 27.663958 9
33.024091 44.124268 20.670847 9
37.134335 45.726417 17.021687 9
40.846637 46.801618 14.003794 9
44.376309 47.698376 11.226201 9
47.587103 48.129830 8.986573 9
50.491604 48.070578 7.296655 9
53.182279 47.659004 5.997015 9
55.667868 46.874687 5.097852 9
57.990507 45.769654 4.534793 9
60.285207 44.617760 4.020860 9
62.581875 43.483590 3.489539 9
64.871829 42.346317 2.961709 9
67.241349 41.424990 2.220886 5
69.971982 41.491811 0.517560 5
72.629220 41.461704 -1.071485 5
75.244049 41.408528 -2.620341 5
77.778335 41.211766 -4.015511 5
80.311301 41.097309 -5.474293 5
82.770003 40.834809 -6.779784 5
85.192969 40.532246 -8.036248 5
87.594967 40.233768 -9.285694 5
89.957969 39.869254 -10.464629 5
92.315876 39.559422 -11.684021 5
94.619305 39.104518 -12.764294 5
96.919440 38.702017 -13.884373 5
99.181226 38.195071 -14.905551 5
101.435658 37.714340 -15.944442 5
103.659641 37.140411 -16.897668 5
105.821032 36.270274 -17.593927 5
107.876011 34.771914 -17.758535 5
109.865348 32.761186 -17.503241 5
111.826777 30.374325 -16.953122 5
113.834030 28.075360 -16.499892 5
115.200581 20.108651 -11.428511 5
118.132244 25.222680 -17.078902 6
120.366927 24.498609 -17.949031 6
122.603581 23.838204 -18.870556 6
124.833803 23.150355 -19.770387 6
127.060562 22.461264 -20.669887 6
129.276445 21.617006 -21.449875 6
131.495980 20.842481 -22.286828 6
133.712664 19.981025 -23.060116 6
135.931780 19.146277 -23.857606 6
138.150162 17.996720 -24.423367 6
140.377706 16.704287 -24.891579 6
142.613823 15.669852 -25.559918 6
144.858231 14.575943 -26.192193 6
147.112297 13.445481 -26.806341 6
149.380506 12.209922 -27.354314 6
-4.837423 109.223360 -3.128180 2
-1.700444 108.668486 -4.525542 2
0.944306 107.751401 -5.350913 2
3.276390 106.598244 -5.809047 2
5.290251 105.182750 -5.875935 2
7.523098 103.982119 -6.243086 2
10.170006 103.199157 -7.184833 2
11.154174 100.827884 -5.900900 2
11.526287 97.796547 -3.739931 2
13.382435 96.222558 -3.601124 3
14.709634 94.086404 -2.711250 3
15.092036 90.887425 -0.431999 3
14.002677 85.947812 4.079366 1
12.896410 80.804026 8.758013 1
8.977906 72.133719 17.860362 1
11.943384 71.453327 16.627453 1
15.407955 71.453672 14.563606 1
25.067700 29.827685 41.085995 9
28.830143 30.316068 38.431082 9
39.451538 43.494015 21.806894 9
43.590129 45.384654 17.834413 9
47.255020 46.574947 14.687864 9
50.390632 46.876198 12.546835 9
53.219997 46.657386 10.990930 9
55.752610 45.881171 10.043212 9
58.143326 44.831309 9.390464 9
60.511531 43.752294 8.771372 9
62.857671 42.640352 8.188576 9
65.204141 41.545895 7.589563 9
67.709905 40.880110 6.560450 5
70.573103 41.224268 4.532531 5
73.332711 41.410493 2.687265 5
76.017913 41.499983 0.959705 5
78.634196 41.493185 -0.653830 5
81.213848 41.476046 -2.239229 5
83.700704 41.257534 -3.615096 5
86.194058 41.150209 -5.082698 5
88.620381 40.899554 -6.401192 5
91.021918 40.641855 -7.701276 5
93.389705 40.336664 -8.946347 5
95.715314 39.937043 -10.095168 5
98.045884 39.635129 -11.324280 5
100.340855 39.252245 -12.471511 5
102.611424 38.826172 -13.572767 5
104.807737 38.075305 -14.381318 5
106.485289 34.353473 -12.594031 5
108.991671 35.375410 -14.958061 5
110.491642 29.943079 -11.756179 5
112.952413 30.758419 -13.938335 5
115.059826 29.074631 -13.989839 5
117.142997 27.017462 -13.743221 6
119.400926 26.417732 -14.723146 6
121.662457 25.932150 -15.794964 6
123.908350 25.359743 -16.792964 6
126.141882 24.698201 -17.717465 6
128.371776 24.041451 -18.645735 6
130.596747 23.355086 -19.550685 6
132.817826 22.628435 -20.424832 6
135.036832 21.865721 -21.272568 6
137.255263 21.061858 -22.090976 6
139.474869 20.251147 -22.907362 6
141.696923 19.358221 -23.665048 6
143.925418 18.331808 -24.327507 6
146.172422 16.925290 -24.714410 6
148.417721 15.931712 -25.417760 6
-5.628898 109.226684 1.392940 2
-1.786155 109.207103 -0.898313 2
2.152134 109.361399 -3.389125 2
5.027995 108.681948 -4.571922 2
6.556347 106.838668 -4.009519 2
7.346353 104.298550 -2.444217 2
10.475688 103.935451 -4.040045 2
11.628771 101.707120 -2.948121 2
12.006733 98.664672 -0.737026 2
12.843465 96.015974 0.879068 3
14.940425 94.645976 0.706285 3
15.611808 91.734339 2.628911 3
15.996587 88.427995 5.038947 3
9.066000 76.605133 18.694094 1
9.486137 72.909284 21.389509 1
36.043054 30.201745 39.004327 9
45.661739 42.513170 23.311475 9
49.704243 44.462410 19.263300 9
52.736716 44.530203 17.326120 9
55.485961 44.089333 15.964355 9
57.950152 43.077408 15.228428 9
60.427682 42.124525 14.435371 9
62.860586 41.095347 13.728077 9
65.272186 40.037758 13.054250 9
67.834217 39.394653 11.957539 5
70.944114 40.292718 9.301718 5
73.865969 40.840926 7.037039 5
76.648356 41.132645 5.059599 5
79.370839 41.374271 3.157065 5
82.024041 41.524762 1.367668 5
84.591836 41.513066 -0.242520 5
87.119320 41.470703 -1.805282 5
89.581390 41.296448 -3.225186 5
92.037448 41.197297 -4.702370 5
94.440618 40.989515 -6.062826 5
96.805794 40.715499 -7.349255 5
99.150949 40.442408 -8.625755 5
101.467026 40.122620 -9.849177 5
103.742515 39.683348 -10.955063 5
105.938822 38.881280 -11.727951 5
108.037666 37.523228 -12.004668 5
110.045393 35.515642 -11.715938 5
112.039192 33.231302 -11.203418 5
114.079262 31.053387 -10.806056 5
115.217742 21.062107 -3.709354 5
118.396746 28.077273 -11.251165 6
120.673842 27.612401 -12.354615 6
122.937423 27.103427 -13.416904 6
125.192190 26.587053 -14.469800 6
127.440892 26.095971 -15.540673 6
129.677324 25.513831 -16.534385 6
131.907421 24.902470 -17.503196 6
134.130928 24.201949 -18.400006 6
136.353533 23.550236 -19.336529 6
138.573157 22.798308 -20.194737 6
140.792913 22.056436 -21.062993 6
143.014098 21.245169 -21.879942 6
145.236974 20.452811 -22.714892 6
147.465166 19.574723 -23.488297 6
149.702853 18.587532 -24.184603 6
-2.498939 109.237655 3.607093 2
1.349521 109.260299 1.216852 2
5.183548 109.365324 -1.233870 2
7.261722 107.990112 -1.387740 2
4.960982 102.585717 4.466116 2
10.216720 104.142112 -0.058254 2
12.128842 102.615872 0.009284 2
12.508460 99.558530 2.277404 2
12.275588 95.789455 5.505679 3
13.655063 93.606172 6.435746 3
16.119614 92.571470 5.752037 3
16.518272 89.259196 8.209977 3
9.643106 77.489677 22.091465 1
43.196576 30.129932 39.509679 9
50.785845 39.257045 27.323846 9
54.235806 40.099724 24.456521 9
57.039322 39.646422 23.044663 9
59.560970 38.604024 22.285777 9
62.061955 37.539463 21.556014 9
64.612820 36.626991 20.669821 9
67.146300 35.705698 19.799916 9
70.715669 37.661186 15.946580 5
74.038487 39.189058 12.593615 5
77.068756 40.089304 9.931783 5
79.919769 40.624240 7.677250 5
82.699723 41.090488 5.521751 5
85.373749 41.354375 3.595391 5
87.964506 41.462369 1.846245 5
90.498506 41.485925 0.199786 5
92.996810 41.490910 -1.410528 5
95.428930 41.342448 -2.856469 5
97.850770 41.257362 -4.348526 5
100.208475 40.990066 -5.654327 5
102.560253 40.792590 -7.014188 5
104.321361 37.549302 -5.544013 5
107.009280 39.294323 -8.687039 5
109.074677 37.618511 -8.677797 5
111.072432 35.373928 -8.169107 5
113.106115 33.161394 -7.711220 5
115.204079 31.216695 -7.512118 5
117.328533 29.291894 -7.347982 6
119.642016 28.992681 -8.615048 6
121.928154 28.548216 -9.749316 6
124.215858 28.255645 -11.008391 6
126.474105 27.720782 -12.055295 6
128.728681 27.249568 -13.152665 6
130.973019 26.730894 -14.206937 6
133.211590 26.237706 -15.279629 6
135.441552 25.655923 -16.277236 6
137.666969 25.048750 -17.253190 6
139.889105 24.425258 -18.215604 6
142.110045 23.686720 -19.086552 6
144.331345 22.949166 -19.960254 6
146.553650 22.203411 -20.829763 6
148.776587 21.472451 -21.713301 6
4.371316 109.215008 3.477957 2
6.952105 108.237442 2.663989 2
5.841456 103.903200 6.995722 2
9.525483 103.950594 4.622585 2
12.164737 103.078373 3.679418 2
7.878065 95.331069 12.874731 3
11.535859 95.396860 10.498733 3
12.105359 92.300522 12.723374 3
16.437415 93.205845 9.215278 3
17.028365 90.080493 11.447752 3
72.881966 33.613992 22.414708 5
76.905297 37.213274 16.826420 5
80.171401 38.869270 13.334468 5
83.159776 39.881848 10.553247 5
85.980586 40.531660 8.179303 5
88.692535 40.971496 6.048267 5
91.330093 41.295024 4.060369 5
93.885003 41.444675 2.268552 5
96.382653 41.494268 0.595338 5
98.840024 41.498122 -1.015169 5
101.242914 41.374601 -2.486300 5
103.628168 41.283092 -3.973645 5
105.886713 40.625781 -4.912611 5
108.019510 39.276524 -5.199783 5
110.066431 37.320356 -4.931463 5
112.097808 35.086667 -4.425470 5
114.163542 32.876039 -3.962453 5
112.070626 -4.328672 28.083798 5
118.538668 29.862659 -4.361531 6
120.875254 29.695364 -5.765343 6
123.184981 29.416810 -7.061113 6
125.476158 29.079036 -8.297200 6
127.751787 28.687822 -9.480341 6
130.014092 28.239504 -10.608980 6
132.268879 27.822268 -11.759616 6
134.514232 27.384431 -12.888386 6
136.750962 26.900822 -13.975086 6
138.981020 26.354984 -15.007441 6
141.206892 25.752528 -15.991727 6
143.428996 25.197507 -17.013945 6
145.649447 24.577927 -17.983231 6
147.967171 21.475300 -16.972893 6
-6.415010 93.193567 28.350934 3
-2.554887 93.049112 25.968857 3
1.202351 92.900542 23.656019 3
4.864905 92.751130 21.404337 3
8.451581 92.615673 19.189001 3
12.035983 92.568614 16.898682 3
16.157364 93.197335 13.681683 3
17.588359 90.960616 14.657565 3
83.111222 36.877764 17.579351 5
86.293417 38.590948 14.022632 5
89.231644 39.704299 11.134076 5
92.022362 40.489693 8.619753 5
94.658324 40.855081 6.562380 5
97.251391 41.208966 4.542188 5
99.768628 41.391003 2.716699 5
102.245026 41.535118 0.949416 5
104.623596 41.327094 -0.456024 5
106.867787 40.477108 -1.230214 5
109.000644 38.971233 -1.376701 5
111.015824 36.599826 -0.714017 5
108.107066 -1.577046 33.499344 5
115.209415 32.323488 0.105225 5
117.354509 30.228070 0.444989 6
119.736202 30.183293 -1.107526 6
122.090271 30.068223 -2.583185 6
124.422394 29.914410 -4.012433 6
126.734633 29.722183 -5.396917 6
129.029951 29.509482 -6.753770 6
131.303809 29.139360 -7.964212 6
133.568690 28.818354 -9.211135 6
135.819291 28.337723 -10.314581 6
138.064049 27.987448 -11.525250 6
140.299837 27.470621 -12.590141 6
142.562490 24.628003 -11.708707 6
144.754911 26.491865 -14.758175 6
146.977829 25.919794 -15.770681 6
149.197611 25.357896 -16.790656 6
-8.937062 95.232905 32.989708 3
-5.756406 94.366236 31.630795 3
-2.445229 93.679424 30.027536 3
1.069664 93.255418 28.058920 3
4.805019 93.129999 25.682625 3
8.425501 92.982644 23.401264 3
11.953042 92.830031 21.185720 3
15.499142 92.787902 18.860916 3
18.129526 91.823004 17.949358 3
18.567873 88.390274 20.647254 3
89.206215 36.197573 18.685400 5
92.406316 38.357598 14.656948 5
95.254945 39.424060 11.812972 5
97.996633 40.281415 9.221762 5
100.615365 40.806165 7.001219 5
103.156538 41.154589 4.985248 5
105.548360 40.892009 3.599158 5
107.776094 39.786734 3.053769 5
109.855356 37.727343 3.435135 5
111.176590 30.265784 9.010760 5
113.990681 32.825127 4.890829 5
113.494617 8.602370 26.221894 5
118.485666 29.895965 4.390768 6
120.917549 30.162749 2.514472 6
123.295931 30.138167 0.926285 6
125.661284 30.229090 -0.753802 6
127.989652 30.091922 -2.211781 6
130.302301 29.986492 -3.687226 6
132.593609 29.771248 -5.053647 6
134.870955 29.564527 -6.418595 6
137.133127 29.253635 -7.683580 6
139.384387 28.906789 -8.910605 6
141.627380 28.428337 -10.018568 6
143.861451 28.090235 -11.242702 6
146.092166 27.583725 -12.319210 6
148.314737 27.162937 -13.465071 6
-6.774142 97.764320 34.122352 3
-3.810951 96.713321 33.038988 3
-0.878436 95.680715 31.959928 3
2.090151 94.729551 30.783537 3
5.226865 93.994866 29.299569 3
8.458109 93.417857 27.610553 3
11.972423 93.206598 25.402709 3
15.446491 93.041168 23.181293 3
18.682447 92.701885 21.276786 3
19.115118 89.239096 24.064048 3
95.300838 35.480785 19.826667 5
98.460602 37.939571 15.478311 5
101.275301 39.190593 12.439437 5
103.961689 40.101233 9.790729 5
106.347404 39.620576 8.584247 5
108.584174 38.328568 8.200655 5
110.631277 35.746701 9.093116 5
112.674863 32.851943 10.265854 5
114.865285 30.737215 10.644559 5
117.018644 28.053039 11.554520 6
119.556931 28.731364 9.212246 6
122.054210 29.405041 6.901996 6
124.491692 29.816130 4.865876 6
126.878521 29.944063 3.115905 6
129.247669 30.199423 1.264605 6
131.574885 30.090085 -0.234055 6
133.888420 30.105848 -1.834711 6
136.180973 30.050697 -3.358164 6
138.455404 29.885772 -4.771839 6
140.716167 29.599054 -6.068111 6
142.965679 29.334070 -7.376180 6
145.207355 28.959008 -8.581253 6
147.442697 28.544350 -9.746994 6
149.664976 28.261759 -11.021335 6
-7.626479 101.328866 36.375298 3
-4.650651 100.255168 35.272919 3
-1.688278 99.216586 34.148235 3
1.243848 98.197800 33.026900 3
4.089504 97.143939 31.998069 3
6.934019 96.133283 30.930966 3
9.750766 95.140071 29.867608 3
12.703033 94.333822 28.539803 3
15.743059 93.677217 27.014837 3
18.940338 93.257638 25.164708 3
19.695527 90.128860 27.483902 3
101.277870 34.096591 21.668293 5
104.436052 37.103893 16.732934 5
106.921228 36.849785 15.237009 5
109.134056 35.023702 15.362803 5
111.076455 31.214033 17.484004 5
112.245487 21.082611 25.902674 5
120.495654 25.805259 15.868540 6
123.134929 27.599494 12.400748 6
125.646071 28.543339 9.797002 6
128.097267 29.243674 7.456976 6
130.499018 29.714222 5.360866 6
132.858289 29.891843 3.561368 6
135.195503 30.171556 1.684365 6
137.502693 30.108848 0.140419 6
139.792502 30.167774 -1.502091 6
142.064839 30.049186 -2.970520 6
144.322471 29.925369 -4.423777 6
146.571763 29.633790 -5.718179 6
148.808570 29.401736 -7.057955 6
-8.484955 104.904825 38.641862 3
-5.473839 103.826439 37.486249 3
-2.517481 102.748844 36.369798 3
0.415182 101.697129 35.246968 3
3.293225 100.642128 34.166960 3
6.137784 99.600919 33.098779 3
8.947298 98.570510 32.046306 3
11.749463 97.577244 30.965249 3
14.487885 96.563131 29.949804 3
17.213900 95.578785 28.916222 3
19.809518 94.494040 28.069816 3
20.273171 91.018634 30.970031 3
126.711513 25.285684 16.790531 6
129.283179 27.299665 13.100429 6
131.749650 28.471241 10.271945 6
134.152906 29.160962 7.938711 6
136.516020 29.658386 5.813979 6
138.846214 29.856859 3.992305 6
141.152175 30.132514 2.116176 6
143.438841 30.114625 0.528467 6
145.705855 30.175595 -1.118496 6
147.961885 30.056861 -2.589239 6
-6.291805 107.417302 39.697314 3
-3.332910 106.308055 38.575808 3
-0.392483 105.229681 37.439759 3
2.498868 104.154665 36.337685 3
5.353105 103.091474 35.252762 3
8.172938 102.040973 34.182160 3
10.952357 100.995715 33.137332 3
13.728437 99.990899 32.057685 3
16.449002 98.973417 31.031832 3
19.156450 97.984891 29.989189 3
20.367852 95.390169 31.568292 3
132.945141 24.366666 18.110291 6
135.449672 26.925497 13.877233 6
137.859506 28.215142 10.928332 6
140.219521 29.058278 8.443636 6
142.545624 29.523125 6.346467 6
144.846763 29.813208 4.435505 6
147.124288 30.076385 2.568146 6
149.389807 30.108714 0.931485 6
-7.127449 111.010147 41.942391 3
-4.168583 109.866213 40.820030 3
-1.222015 108.758483 39.673556 3
1.691568 107.669422 38.535471 3
4.550289 106.578296 37.442270 3
7.390071 105.515007 36.337957 3
10.194042 104.463356 35.250874 3
12.956761 103.416346 34.191863 3
15.689326 102.382856 33.143953 3
18.390097 101.359811 32.111331 3
20.466882 99.713479 32.153046 3
139.240475 23.432660 19.454840 6
141.646749 26.497911 14.713933 6
143.993965 27.976453 11.575253 6
146.306553 28.873838 9.033715 6
148.599225 29.340805 6.930686 6
-4.982237 113.459250 43.039160 3
-2.025117 112.325545 41.874588 3
0.870392 111.187763 40.763735 3
3.744745 110.077274 39.644350 3
6.612306 109.006426 38.493113 3
9.409907 107.918277 37.414983 3
12.178252 106.846688 36.345064 3
14.922235 105.795209 35.276037 3
17.629903 104.751051 34.229732 3
20.328588 103.740462 33.159084 3
21.058562 100.677609 35.638095 3
148.284888 16.113358 25.293766 6
-5.806718 117.061444 45.285487 3
-2.834604 115.903944 44.095795 3
0.085790 114.752515 42.943602 3
2.957901 113.607422 41.825867 3
5.802960 112.484370 40.709898 3
8.639722 111.399028 39.564993 3
11.433233 110.320244 38.450195 3
14.163354 109.226843 37.402765 3
16.888024 108.170695 36.324477 3
19.574952 107.120411 35.272515 3
21.149037 104.967282 36.216739 3
-6.627353 120.685494 47.538069 3
-3.635960 119.506215 46.316038 3
-0.722458 118.314831 45.172972 3
2.171441 117.153446 44.018114 3
5.025017 116.004745 42.886059 3
7.875246 114.898306 41.716263 3
10.630637 113.754892 40.664563 3
13.409214 112.674824 39.531750 3
16.128584 111.584401 38.460584 3
18.821709 110.511542 37.395497 3
21.244074 109.212074 36.786593 3
21.724844 105.947363 39.782568 3
-4.471943 123.101967 48.604945 3
-1.505290 121.914472 47.374805 3
1.385709 120.716694 46.222273 3
4.237610 119.533308 45.090872 3
7.067754 118.376765 43.952991 3
9.885164 117.254229 42.793511 3
12.650991 116.132065 41.680101 3
15.379204 115.019881 40.590962 3
18.070534 113.916430 39.526740 3
20.757272 112.850726 38.429950 3
21.812896 110.212444 40.350318 3
-5.265338 126.748827 50.841644 3
-2.313875 125.513794 49.633406 3
0.605286 124.301658 48.432575 3
3.480696 123.102572 47.259424 3
6.315918 121.917324 46.109977 3
9.136309 120.764701 44.942298 3
11.892380 119.603206 43.843185 3
14.633994 118.472149 42.727720 3
17.341812 117.354243 41.630934 3
20.040631 116.270805 40.508654 3
21.909566 114.437951 40.905045 3
-6.094430 130.392464 53.152727 3
-3.100579 129.148966 51.873527 3
-0.194116 127.891890 50.690931 3
2.692358 126.665628 49.496997 3
5.539543 125.455303 48.324881 3
8.360274 124.269225 47.154111 3
11.136234 123.091782 46.017795 3
13.889859 121.939396 44.878146 3
16.608540 120.800613 43.758711 3
19.272064 119.655743 42.698754 3
21.955202 118.570087 41.560935 3
22.510256 115.503452 44.469469 3
-3.914838 132.786939 54.177479 3
-0.976239 131.514992 52.939361 3
1.927862 130.265425 51.712833 3
4.769641 129.016768 50.546895 3
7.607224 127.809294 49.343962 3
10.387468 126.602622 48.197037 3
13.138660 125.416229 47.058723 3
15.867090 124.254224 45.918654 3
18.555817 123.101443 44.808990 3
21.224699 121.973367 43.694408 3
22.578788 119.683010 45.072239 3
-4.696050 136.469491 56.448196 3
-1.748625 135.165890 55.192018 3
1.156096 133.880245 53.961075 3
4.016060 132.609310 52.760846 3
6.845610 131.361367 51.568464 3
9.645857 130.136169 50.383064 3
12.403071 128.922106 49.230518 3
15.122414 127.721127 48.103713 3
17.855477 126.573902 46.908276 3
20.528746 125.420168 45.781077 3
22.687110 123.854922 45.606855 3
-5.527324 140.145475 58.824086 3
-2.528098 138.834723 57.478847 3
0.390092 137.520525 56.221662 3
3.287116 136.238374 54.953985 3
6.106419 134.948979 53.775340 3
8.906906 133.689920 52.585691 3
11.682689 132.456592 51.395890 3
14.427846 131.243760 50.217556 3
