ply
format ascii 1.0
element vertex 1366
property float x
property float y
property float z
property int scalar_Label
end_header
-76.952752 -35.612345 9.483412 8
-80.281225 -35.393026 10.155489 8
-83.627300 -35.209556 10.819014 8
-87.007342 -35.025601 11.499538 8
-90.425345 -34.835171 12.201630 8
-93.985813 -34.425256 13.075749 8
-97.557034 -34.080918 13.922383 8
-101.095653 -33.884540 14.683086 8
-113.794217 -16.290052 27.844052 8
-110.746036 -28.935427 19.515381 8
151.020013 -22.466150 18.049959 6
147.371245 -22.997015 17.283025 6
143.579427 -23.958725 16.236188 6
140.076942 -24.349431 15.599290 6
136.661104 -24.614601 15.064143 6
133.272842 -24.890301 14.536828 6
133.342867 -16.133902 20.195931 6
126.555334 -25.530818 13.465541 6
123.236548 -25.866622 12.941023 6
119.979123 -26.109260 12.494032 6
114.002374 -34.642163 6.432367 5
109.570488 -39.032838 3.208539 5
106.220087 -40.302440 2.118339 5
103.254288 -40.429924 1.814728 5
100.348787 -40.412538 1.621079 5
97.459883 -40.389334 1.443105 5
94.582885 -40.374735 1.270948 5
91.715543 -40.376103 1.099553 5
88.867692 -40.351463 0.957068 5
86.010980 -40.418982 0.763943 5
83.180361 -40.427680 0.621594 5
80.356351 -40.460000 0.474524 5
77.549479 -40.461991 0.358844 5
74.739630 -40.535300 0.206332 5
71.958689 -40.502914 0.135521 5
69.184044 -40.480718 0.068670 5
66.421992 -40.424241 0.035480 5
63.767201 -39.629171 0.506892 5
63.674101 -18.393123 14.654755 5
55.336529 -41.090480 -0.587334 9
52.438986 -42.865299 -1.791265 9
49.589237 -44.585480 -2.948120 9
46.793520 -46.128213 -3.976080 9
44.047533 -47.457253 -4.851129 9
41.362709 -48.183470 -5.313335 9
38.710771 -48.514676 -5.501543 9
36.077912 -48.461557 -5.422777 9
33.444056 -48.450490 -5.362021 9
30.810089 -48.468741 -5.310768 9
28.176214 -48.481210 -5.245534 9
25.541510 -48.477482 -5.159318 9
22.905564 -48.482347 -5.068691 9
20.266826 -48.462706 -4.951436 9
17.626420 -48.469111 -4.841410 9
14.983167 -48.477180 -4.722232 9
12.336356 -48.484164 -4.592013 9
9.688424 -48.527080 -4.475603 9
7.033478 -48.536190 -4.326053 9
4.369766 -48.510942 -4.142862 9
1.702656 -48.512821 -3.967380 9
-0.967331 -48.543495 -3.800719 9
-3.646324 -48.555749 -3.610932 9
-6.331679 -48.575532 -3.415464 9
-9.018182 -48.637670 -3.237864 9
-11.723715 -48.632916 -3.003961 9
-14.434626 -48.651889 -2.775093 9
-17.156763 -48.663506 -2.530049 9
-19.884319 -48.700429 -2.290974 9
-22.628670 -48.709093 -2.021224 9
-25.388475 -48.702512 -1.729480 9
-28.154582 -48.723922 -1.445205 9
-30.935371 -48.738781 -1.144624 9
-33.730183 -48.753109 -0.831703 9
-36.541053 -48.762126 -0.502985 9
-39.383605 -48.714358 -0.122694 9
-42.402835 -48.132060 0.640610 9
-45.645643 -46.927745 1.850350 9
-49.269637 -44.683473 3.800684 9
-53.123530 -41.968442 6.100068 9
-57.113590 -39.107164 8.524548 9
-64.067852 -28.217620 16.601899 8
-64.888788 -34.677493 12.537448 8
-68.153134 -34.395332 13.215905 8
-71.451217 -34.106997 13.914912 8
-74.743015 -33.913804 14.563025 8
-78.178763 -33.452268 15.418376 8
-81.624374 -33.058245 16.243565 8
-85.073054 -32.743811 17.029916 8
-88.636538 -32.261401 17.954903 8
-92.265862 -31.731333 18.933509 8
-96.087262 -30.900150 20.149554 8
-99.929217 -30.138785 21.336983 8
-103.869489 -29.292939 22.608025 8
136.750192 -17.265814 24.432919 6
133.345174 -17.382370 24.000412 6
129.960822 -17.515923 23.571251 6
126.610322 -17.628496 23.171762 6
123.298009 -17.702507 22.813895 6
115.584595 -31.073231 13.218752 5
110.307759 -37.906256 8.207208 5
106.773310 -39.683821 6.729623 5
103.744222 -39.959792 6.308451 5
100.808140 -39.989916 6.070368 5
97.890310 -40.012895 5.849597 5
94.971027 -40.100109 5.596701 5
92.085918 -40.115378 5.405611 5
89.210474 -40.147793 5.214665 5
86.351419 -40.167330 5.044449 5
83.503013 -40.195284 4.880183 5
80.673831 -40.187916 4.751841 5
77.840579 -40.255846 4.583302 5
75.048572 -40.161006 4.537980 5
72.240776 -40.200711 4.411650 5
69.445096 -40.224845 4.307314 5
66.640984 -40.363686 4.135608 5
63.866045 -40.367395 4.067705 5
63.632179 -20.355979 17.717413 5
55.532907 -40.832868 3.619426 9
52.605086 -42.783696 2.263061 9
49.737948 -44.573290 1.028128 9
46.919934 -46.279383 -0.138852 9
44.165149 -47.612298 -1.039858 9
41.468800 -48.407787 -1.562595 9
38.810203 -48.728058 -1.749618 9
36.169264 -48.714124 -1.697352 9
33.529102 -48.686904 -1.625458 9
30.888283 -48.722694 -1.586200 9
28.247782 -48.721204 -1.510858 9
25.606489 -48.724228 -1.428046 9
22.962773 -48.687181 -1.307142 9
20.318833 -48.716999 -1.221506 9
17.669504 -48.675463 -1.076197 9
15.018864 -48.678882 -0.951062 9
12.363778 -48.670477 -0.807038 9
9.706119 -48.684788 -0.667850 9
7.045138 -48.711924 -0.526658 9
4.377912 -48.725392 -0.365137 9
1.705232 -48.741081 -0.194169 9
-0.974152 -48.753201 -0.009677 9
-3.662436 -48.751042 0.195849 9
-6.360942 -48.732989 0.423656 9
-9.058864 -48.773700 0.622026 9
-11.776462 -48.747028 0.878639 9
-14.502614 -48.729756 1.140318 9
-17.241360 -48.702724 1.420522 9
-19.985234 -48.707053 1.690669 9
-22.745322 -48.689705 1.987913 9
-25.520816 -48.660413 2.305644 9
-28.288025 -48.722477 2.571481 9
-31.099951 -48.655294 2.940496 9
-33.910376 -48.654285 3.275552 9
-36.730027 -48.674608 3.608230 9
-39.639156 -48.436238 4.136932 9
-42.652458 -47.923242 4.874349 9
-46.042183 -46.292932 6.421496 9
-49.782337 -43.753443 8.635814 9
-53.845223 -40.489575 11.390385 9
-58.154958 -36.800599 14.475290 9
-63.999807 -29.145595 20.437280 8
-66.351039 -31.469479 19.256122 8
-69.798027 -30.849716 20.207557 8
-73.226583 -30.378203 21.070061 8
-76.806613 -29.628491 22.152843 8
-80.499627 -28.719830 23.371224 8
-84.440610 -27.358533 24.941297 8
-88.821891 -25.157053 27.150696 8
-93.211117 -23.129397 29.260419 8
-96.897541 -22.765909 30.170698 8
-26.823708 140.746899 -242.809546 0
-23.209624 140.599542 -243.724091 0
-20.795369 139.849634 -243.959023 0
-18.970487 138.797305 -243.859591 0
-17.514389 137.547567 -243.548569 0
-16.155988 136.246448 -243.186784 0
-27.499242 145.416899 -242.590271 0
-23.622238 145.337475 -243.650603 0
-21.239032 144.544262 -243.860111 0
-19.190363 143.602389 -243.890645 0
-23.406328 139.249335 -240.082229 0
-16.152739 141.191108 -243.349568 0
-14.846248 139.876600 -242.962089 0
-13.692069 138.475540 -242.485239 0
-12.582406 137.046347 -241.985030 0
-31.244073 146.558407 -239.343050 0
-29.252016 145.457792 -239.257298 0
-24.834752 145.600961 -240.662188 0
-19.094226 146.508921 -242.935717 0
-16.439670 145.896599 -243.364797 0
-14.997828 144.664144 -243.058873 0
-13.925187 143.233598 -242.527753 0
-12.742172 141.863163 -242.072323 0
-11.693556 140.414373 -241.535007 0
-10.819893 138.857278 -240.885548 0
-9.903988 137.316782 -240.265006 0
-33.623818 146.366776 -235.576409 0
-30.897279 145.576341 -235.926428 0
-26.811766 145.501807 -237.149719 0
-22.688714 145.518292 -238.447303 0
-18.641095 145.569277 -239.748644 0
-13.404715 146.332923 -241.867129 0
-11.945138 145.122632 -241.592285 0
-11.000055 143.629890 -240.988149 0
-10.061376 142.127227 -240.381768 0
-9.247361 140.544050 -239.692715 0
-7.429992 139.557506 -239.690594 0
-6.812790 137.844743 -238.872027 0
-35.885893 146.263286 -231.801102 0
-32.680670 145.652973 -232.446829 0
-28.560617 145.543278 -233.710319 0
-24.438641 145.507051 -235.026745 0
-20.434585 145.483461 -236.318682 0
-16.446313 145.523694 -237.651113 0
-10.987721 146.439233 -240.015368 0
-20.352176 139.184129 -232.447156 0
-7.565010 144.324191 -239.850179 0
-6.956513 142.642105 -239.026302 0
-6.384293 140.922128 -238.172767 0
-5.881464 139.141704 -237.264817 0
-5.429377 137.308841 -236.313661 0
-37.146868 146.656334 -228.579772 0
-34.596554 145.693160 -228.815085 0
-30.180276 145.673817 -230.288004 0
-26.184112 145.523691 -231.541844 0
-21.986403 145.547668 -232.980432 0
-17.960912 145.557952 -234.357609 0
-14.165645 145.517878 -235.630166 0
-8.665090 146.491313 -238.128487 0
-6.509422 145.684292 -238.368880 0
-5.982511 143.957721 -237.479701 0
-5.525068 142.171385 -236.534768 0
-5.093953 140.347884 -235.563132 0
-4.705329 138.475180 -234.551817 0
-4.429497 136.505621 -233.447030 0
-35.734472 146.128070 -225.620574 0
-32.193504 145.639295 -226.540270 0
-27.839073 145.611321 -228.049192 0
-23.830037 145.487154 -229.380450 0
-19.689740 145.503442 -230.853930 0
-15.726819 145.501687 -232.258617 0
-11.863786 145.518740 -233.645243 0
-6.186684 146.627883 -236.377818 0
-5.178867 145.171596 -235.820776 0
-4.838683 143.316294 -234.777511 0
-4.500954 141.434934 -233.722231 0
-4.232112 139.485386 -232.604613 0
-4.046586 137.454494 -231.411312 0
-34.102001 145.684740 -222.786414 0
-29.716829 145.615395 -224.336446 0
-25.495113 145.543879 -225.831119 0
-22.558774 144.886064 -226.478538 0
-17.210133 145.550404 -228.876425 0
-13.093415 145.656270 -230.464169 0
-9.289398 145.667124 -231.880233 0
-4.694672 146.201406 -233.931198 0
-4.281282 144.385318 -232.925179 0
-4.076663 142.421439 -231.751889 0
-3.935409 140.389027 -230.516340 0
-3.835574 138.298006 -229.233187 0
-3.908676 136.060599 -227.797453 0
-35.204681 146.139855 -219.514374 0
-31.587947 145.651378 -220.553095 0
-27.299368 145.557339 -222.113558 0
-23.102824 145.495149 -223.665647 0
-18.755734 145.589817 -225.383864 0
-14.672508 145.626166 -226.968239 0
-10.770106 145.640793 -228.474251 0
-5.153189 146.699786 -231.325892 0
-3.968422 145.313625 -230.882979 0
-3.828565 143.305721 -229.637646 0
-3.753447 141.226610 -228.326062 0
-3.633617 139.140583 -227.032358 0
-3.499353 137.029116 -225.732929 0
-33.540038 145.677790 -216.635204 0
-29.108571 145.596477 -218.317196 0
-24.841014 145.514735 -219.939824 0
-20.501811 145.549782 -221.674151 0
-16.307249 145.590989 -223.360541 0
-12.257302 145.634071 -224.995862 0
-8.398550 145.648505 -226.541070 0
-3.842654 146.138260 -228.683343 0
-3.648941 144.154198 -227.455205 0
-3.574042 142.067888 -226.116924 0
-3.398873 140.008513 -224.841369 0
-3.297202 137.869203 -223.488733 0
-34.650456 146.133458 -213.250841 0
-31.004070 145.622411 -214.380079 0
-26.627007 145.538043 -216.102844 0
-22.357920 145.480582 -217.804973 0
-17.978708 145.562178 -219.651418 0
-13.823461 145.608390 -221.387003 0
-9.860033 145.629366 -223.031502 0
-4.262734 146.658140 -226.031352 0
-3.472633 145.006246 -225.252862 0
-3.343269 142.945458 -223.931892 0
-3.214461 140.850511 -222.592483 0
-3.084179 138.721452 -221.235615 0
-2.972975 136.543829 -219.843235 0
-32.906775 145.675273 -210.356204 0
-28.276566 145.657541 -212.291408 0
-24.093673 145.501632 -213.947475 0
-19.714966 145.526279 -215.815521 0
-15.448123 145.576545 -217.658503 0
-11.393205 145.594477 -219.393953 0
-7.404781 145.654740 -221.134532 0
-3.294615 145.865094 -223.033738 0
-3.133342 143.815910 -221.712652 0
-2.985198 141.725571 -220.362399 0
-2.890794 139.566906 -218.947256 0
-2.754283 137.397471 -217.547435 0
-34.019878 146.134473 -206.856267 0
-30.309584 145.617585 -208.105307 0
-25.663549 145.634418 -210.141350 0
-20.241783 146.142379 -212.864518 0
-17.117890 145.547191 -213.816655 0
-12.971326 145.560122 -215.645116 0
-8.876650 145.626295 -217.492106 0
-3.495123 146.512940 -220.478521 0
-2.919463 144.694435 -219.478320 0
-2.798596 142.580432 -218.077374 0
-2.651529 140.446712 -216.678680 0
-2.539097 138.254572 -215.228752 0
-32.193155 145.682699 -203.947996 0
-27.594843 145.615011 -205.968743 0
-21.291885 146.506562 -209.444621 0
-17.482830 146.229588 -210.969400 0
-14.593888 145.527914 -211.781422 0
-10.380079 145.604903 -213.748179 0
-6.367094 145.653579 -215.607826 0
-2.757801 145.548491 -217.179607 0
-2.587527 143.456217 -215.793085 0
-2.477488 141.292204 -214.332827 0
-2.323153 139.118147 -212.889874 0
-2.193472 136.890242 -211.402165 0
-33.420496 146.092796 -200.234943 0
-29.521792 145.629764 -201.710366 0
-24.949980 145.576186 -203.799084 0
-18.694025 146.486494 -207.371819 0
-15.933709 145.673661 -208.077016 0
-11.994825 145.547998 -209.830659 0
-7.801306 145.643007 -211.865566 0
-2.733968 146.329744 -214.737351 0
-2.417195 144.314150 -213.451607 0
-2.260321 142.170661 -212.003278 0
-2.129553 139.974033 -210.508695 0
-1.984538 137.747480 -209.003486 0
-31.453783 145.674805 -197.356475 0
-26.856909 145.571455 -199.487226 0
-20.376743 146.525037 -203.301619 0
-15.955360 146.539487 -205.442012 0
-13.562001 145.544220 -205.871423 0
-9.320144 145.610179 -207.970187 0
-3.530852 146.649880 -211.528908 0
-2.170395 145.224081 -211.156572 0
-2.054350 143.048914 -209.641223 0
-1.894061 140.862678 -208.142970 0
-1.767718 138.616370 -206.588476 0
-1.679843 136.303869 -204.971222 0
-149.876500 -8.811198 -28.672630 7
-147.405966 -12.724975 -27.154108 7
-149.096298 -20.260058 -21.017303 7
-32.750182 146.057926 -193.450633 0
-28.714839 145.623682 -195.124165 0
-24.128138 145.543642 -197.338436 0
-17.472042 146.635493 -201.454336 0
-15.229465 145.514113 -201.738494 0
-10.877633 145.582506 -203.956936 0
-6.692576 145.647456 -206.093128 0
-2.017637 146.085773 -208.752662 0
-1.814758 143.954258 -207.287168 0
-1.704001 141.730075 -205.710770 0
-1.532669 139.503620 -204.166462 0
-1.398886 137.212850 -202.559594 0
-146.711590 0.811118 -29.997008 7
-142.966878 -1.961050 -29.922655 7
-139.483638 -4.932752 -29.578462 7
-136.355217 -8.200926 -28.846973 7
-133.762307 -11.948262 -27.504470 7
-132.225921 -16.681580 -24.920255 7
-33.638855 146.660848 -189.824052 0
-30.777028 145.609413 -190.487330 0
-25.979117 145.569777 -192.908637 0
-19.549273 146.470158 -196.878079 0
-15.215278 146.406126 -199.050382 0
-12.529557 145.530865 -199.770100 0
-8.182223 145.628426 -202.077282 0
-2.416489 146.637101 -205.800433 0
-1.625885 144.836465 -204.861017 0
-1.472771 142.630010 -203.292566 0
-1.299324 140.396783 -201.717754 0
-1.172060 138.093553 -200.070046 0
-145.939982 8.391305 -28.792173 7
-141.617452 6.095660 -29.376685 7
-137.481126 3.693087 -29.791779 7
-133.589330 1.124045 -29.963087 7
-129.888556 -1.581081 -29.940979 7
-126.434221 -4.483293 -29.651616 7
-123.281774 -7.649226 -29.017071 7
-120.620285 -11.274536 -27.794733 7
-118.787554 -15.714379 -25.547165 7
-106.362871 -9.966058 -36.334598 8
-103.348098 -13.119267 -35.662789 8
-101.190392 -17.160704 -33.897205 8
-102.876626 -25.283338 -27.132829 8
-32.095410 145.989421 -186.413809 0
-27.870563 145.609111 -188.345192 0
-23.240246 145.516585 -190.714376 0
-16.810710 146.463570 -194.832593 0
-14.154401 145.523245 -195.516792 0
-9.765685 145.584308 -197.885200 0
-5.513540 145.661126 -200.196277 0
-1.409209 145.742815 -202.435599 0
-1.225242 143.547132 -200.864912 0
-1.070669 141.294358 -199.238110 0
-0.931145 138.990613 -197.567539 0
-0.782136 136.649547 -195.876682 0
-146.598287 14.825119 -26.061434 7
-141.828352 12.847701 -27.147479 7
-137.315753 10.730349 -27.996358 7
-132.927317 8.565921 -28.749253 7
-128.742855 6.281501 -29.308512 7
-124.701143 3.916768 -29.736782 7
-120.863640 1.409303 -29.954213 7
-117.205210 -1.231890 -29.981100 7
-107.671993 1.534377 -37.224020 8
-103.535186 -0.480453 -37.988045 8
-100.132216 -3.159096 -37.866013 8
-96.899793 -5.997898 -37.538246 8
-93.913046 -9.087043 -36.897000 8
-91.197667 -12.473906 -35.893258 8
-88.915531 -16.355650 -34.292879 8
-87.473757 -21.218519 -31.514121 8
-32.778948 146.699426 -182.839670 0
-29.930297 145.600623 -183.525302 0
-25.057139 145.563382 -186.140810 0
-18.349668 146.580253 -190.576989 0
-14.582883 146.184930 -192.318163 0
-11.379120 145.552545 -193.571431 0
-7.030187 145.624490 -195.997965 0
-1.513686 146.470170 -199.663643 0
-1.004009 144.456031 -198.384597 0
-0.844310 142.198224 -196.728504 0
-0.736157 139.866217 -194.989556 0
-0.570644 137.526376 -193.278652 0
-148.942245 20.032824 -21.489822 7
-143.472801 18.505334 -23.341264 7
-138.349514 16.803534 -24.873920 7
-133.576344 14.905532 -26.068765 7
-129.010239 12.906214 -27.077258 7
-124.605886 10.831161 -27.943920 7
-120.329750 8.699379 -28.701749 7
-116.175114 6.509144 -29.353101 8
-106.824889 8.987000 -36.444658 8
-102.611319 7.057418 -37.337228 8
-98.847871 4.755491 -37.701916 8
-95.226378 2.345569 -37.910869 8
-91.721958 -0.158329 -37.988581 8
-88.360574 -2.791728 -37.893671 8
-85.172723 -5.598164 -37.576201 8
-82.184161 -8.620161 -36.989685 8
-79.428366 -11.912525 -36.074082 8
-77.033301 -15.641452 -34.632427 8
-75.334751 -20.230200 -32.157536 8
-31.399281 145.915394 -179.152732 0
-26.933731 145.614463 -181.408780 0
-22.256019 145.511569 -183.943007 0
-15.706067 146.496021 -188.388005 0
-13.032552 145.528983 -189.121879 0
-8.593628 145.589951 -191.659481 0
-4.290547 145.669671 -194.138061 0
-0.776844 145.376588 -195.882032 0
-0.631295 143.102037 -194.176049 0
-0.465182 140.797827 -192.460691 0
-0.304193 138.446796 -190.708082 0
-146.080937 23.511385 -18.455128 7
-140.922806 21.751786 -20.008414 7
-135.854021 20.002331 -21.523954 7
-130.580449 18.487951 -23.343704 7
-125.638604 16.795105 -24.841087 7
-121.006684 14.922639 -26.027517 7
-116.886324 12.682462 -26.642121 7
-107.242849 15.252628 -34.139674 8
-102.698067 13.598345 -35.459837 8
-98.662583 11.546293 -36.185893 8
-94.748696 9.423397 -36.792299 8
-90.934263 7.242620 -37.301708 8
-87.256334 4.960461 -37.659280 8
-83.680709 2.601172 -37.903316 8
-80.234655 0.128313 -37.990067 8
-76.906282 -2.456324 -37.927749 8
-73.760142 -5.233891 -37.616799 8
-70.751920 -8.171447 -37.108101 8
-67.981555 -11.398232 -36.244809 8
-60.312346 -8.847149 -42.648129 9
-54.875151 -8.731239 -45.898161 9
-49.874919 -9.014862 -48.593407 9
-46.129830 -10.789638 -49.424244 9
-43.104818 -13.477782 -49.143201 9
-40.512115 -16.767376 -48.155972 9
-38.184205 -20.476054 -46.699392 9
-36.243376 -24.815313 -44.541058 9
-31.976746 146.687226 -175.544936 0
-29.019388 145.598278 -176.367147 0
-24.095754 145.550731 -179.162056 0
-17.451210 146.507449 -183.758417 0
-13.921686 145.948123 -185.343204 0
-10.180751 145.571920 -187.199174 0
-5.802022 145.633816 -189.776878 0
-0.699088 146.217891 -193.193501 0
-0.412264 144.018070 -191.599198 0
-0.229055 141.715734 -189.865029 0
-0.068236 139.355716 -188.073902 0
0.096900 136.952571 -186.252969 0
-149.201076 28.249652 -12.979103 7
-143.535023 26.758250 -15.088938 7
-138.131783 25.170763 -16.973923 7
-133.043041 23.434966 -18.562381 7
-128.095353 21.667714 -20.048023 7
-123.170682 19.955645 -21.568301 7
-118.056684 18.472061 -23.384375 7
-108.949945 20.414256 -30.249133 8
-103.536941 19.448642 -32.658052 8
-99.270639 17.576175 -33.683209 8
-95.110193 15.661707 -34.617254 8
-91.070422 13.684930 -35.435427 8
-87.131957 11.656386 -36.157366 8
-83.278279 9.585382 -36.800070 8
-79.577423 7.397372 -37.264824 8
-75.959875 5.152453 -37.639794 8
-72.463892 2.803239 -37.865183 8
-69.054934 0.377032 -37.982795 8
-62.955317 0.982472 -42.071686 9
-57.640752 0.860685 -45.130105 9
-52.435257 0.745174 -48.132602 9
-47.958102 -0.122997 -50.118169 9
-44.345582 -1.982741 -50.819132 9
-41.203554 -4.414455 -50.797536 9
-38.246682 -7.091330 -50.478279 9
-35.374930 -9.899306 -50.009947 9
-32.613319 -12.885329 -49.341063 9
-30.004009 -16.125983 -48.386854 9
-27.630655 -19.767668 -46.983439 9
-25.540161 -23.917149 -45.019814 9
-24.095180 -29.188673 -41.801393 9
-30.716412 145.810261 -171.593478 0
-25.981669 145.602323 -174.226139 0
-21.236173 145.498531 -176.952438 0
-14.820546 146.385130 -181.480564 0
-11.865693 145.530993 -182.535733 0
-7.342743 145.610715 -185.285786 0
-1.267924 146.693914 -189.777791 0
-0.174895 144.953970 -189.010285 0
-0.002578 142.636393 -187.226686 0
0.157308 140.266714 -185.395106 0
0.326728 137.856744 -183.538273 0
-147.811918 30.707477 -8.235228 7
-141.664997 29.523403 -10.947348 7
-136.015399 28.093169 -13.166755 7
-130.574461 26.605533 -15.218705 7
-125.351855 25.042737 -17.082955 7
-120.407255 23.346298 -18.676422 7
-113.920296 22.975680 -22.268474 8
-105.857094 24.063420 -27.986226 8
-100.781188 22.818475 -30.033505 8
-96.192806 21.236002 -31.519462 8
-91.914944 19.443428 -32.653050 8
-87.764706 17.589312 -33.663799 8
-83.693022 15.712103 -34.612124 8
-79.777398 13.731075 -35.386413 8
-75.919270 11.733898 -36.116478 8
-72.154419 9.679725 -36.747911 8
-68.509559 7.533054 -37.236078 8
-64.947894 5.324061 -37.627393 8
-56.886354 8.178816 -44.800778 9
-51.669593 8.062190 -47.875855 9
-47.265503 7.118595 -49.799938 9
-43.597170 5.366455 -50.634425 9
-40.303066 3.185593 -50.902355 9
-37.139383 0.850727 -50.971296 9
-34.021588 -1.541052 -50.970163 9
-30.984896 -4.043815 -50.834397 9
-28.027772 -6.666188 -50.558078 9
-25.156049 -9.427998 -50.121881 9
-22.403739 -12.392778 -49.454489 9
-19.765246 -15.570617 -48.551347 9
-17.303146 -19.079458 -47.280438 9
-15.098878 -23.081553 -45.463021 9
-13.387541 -28.015210 -42.606927 9
-31.143834 146.667113 -167.994979 0
-28.128870 145.561668 -168.909906 0
-23.058992 145.551012 -171.989905 0
-16.488365 146.441264 -176.735843 0
-13.255031 145.683190 -178.077836 0
-8.967178 145.571296 -180.601664 0
-4.547048 145.628896 -183.348510 0
0.044373 145.888232 -186.368863 0
0.251066 143.582805 -184.584737 0
0.414201 141.206555 -182.716804 0
0.599686 138.797851 -180.837193 0
0.664858 136.261241 -178.779641 0
-147.881520 32.178069 -1.736063 7
-140.823382 31.570028 -5.562599 7
-134.504409 30.579421 -8.623072 7
-128.670037 29.354683 -11.196071 7
-123.175302 27.979839 -13.439807 7
-117.952161 26.489643 -15.424649 7
-108.931448 28.148346 -22.340659 8
-103.347084 27.221266 -25.017194 8
-98.601512 25.692432 -26.685278 8
-94.002315 24.111775 -28.223483 8
-89.236155 22.752371 -30.049256 8
-84.771906 21.195631 -31.529611 8
-80.598757 19.431192 -32.662673 8
-76.543090 17.607407 -33.677320 8
-72.601939 15.719159 -34.571157 8
-68.736312 13.798299 -35.394366 8
-64.980337 11.803267 -36.091768 8
-57.040668 14.394984 -43.136825 9
-51.761158 14.303793 -46.341166 9
-47.234421 13.484778 -48.486197 9
-43.446957 11.886457 -49.538217 9
-40.031579 9.884504 -50.032125 9
-36.711345 7.787849 -50.392248 9
-33.443645 5.641243 -50.681598 9
-30.221599 3.447779 -50.906977 9
-27.089563 1.141408 -50.986916 9
-24.003932 -1.228146 -50.989120 9
-20.987471 -3.700584 -50.867064 9
-18.055270 -6.308669 -50.584674 9
-15.185688 -9.032477 -50.171708 9
-12.404974 -11.924715 -49.568916 9
-9.735241 -15.037470 -48.720158 9
-7.211492 -18.450393 -47.538842 9
-4.920437 -22.342033 -45.825675 9
-2.995144 -26.995797 -43.267203 9
-29.992659 145.701032 -163.762010 0
-24.945071 145.608325 -166.845729 0
-18.222307 146.497032 -171.811335 0
-13.549284 146.452895 -174.704011 0
-10.626330 145.545035 -175.770041 0
-6.091503 145.602843 -178.664708 0
-0.165744 146.580319 -183.210421 0
0.499440 144.535316 -181.902495 0
0.663156 142.150682 -179.994180 0
0.841937 139.728321 -178.064719 0
1.004948 137.246768 -176.076670 0
-142.192090 32.090973 2.575765 7
-139.124204 28.678184 3.513558 7
-127.645324 31.458534 -6.058379 7
-124.503360 28.260605 -5.352872 7
-116.299293 29.005298 -11.154375 7
-106.463277 31.275264 -19.268680 8
-101.277971 30.012561 -21.484524 8
-96.355301 28.622178 -23.429685 8
-91.655724 27.122700 -25.144682 8
-87.061357 25.605809 -26.780836 8
-82.593741 24.046009 -28.303119 8
-77.938971 22.732372 -30.152211 8
-73.631818 21.162102 -31.568602 8
-69.571974 19.409616 -32.678071 8
-65.613906 17.605474 -33.682024 8
-64.474891 12.873952 -30.453190 8
-52.491255 19.794231 -43.844297 9
-47.739064 19.184965 -46.356928 9
-43.782224 17.770760 -47.694310 9
-40.211120 15.961350 -48.458754 9
-36.785735 14.011013 -49.015035 9
-33.410779 12.024283 -49.510954 9
-30.063818 10.024842 -49.980530 9
-26.780084 7.963068 -50.359957 9
-23.556402 5.835947 -50.648744 9
-20.373925 3.662407 -50.874672 9
-17.264021 1.391411 -50.975241 9
-14.199395 -0.946697 -50.993135 9
-11.201780 -3.392667 -50.880576 9
-8.250605 -5.925085 -50.668539 9
-5.390936 -8.626520 -50.259569 9
-2.605501 -11.484748 -49.674907 9
0.088507 -14.545244 -48.865792 9
2.662387 -17.879514 -47.754483 9
5.044435 -21.647575 -46.162202 9
7.115294 -26.121412 -43.786694 9
-30.305511 146.627915 -160.138785 0
-27.148034 145.546371 -161.240645 0
-21.981459 145.547601 -164.570404 0
-15.358896 146.436766 -169.603848 0
-12.230792 145.582400 -170.885236 0
-7.704486 145.569844 -173.793246 0
-3.169470 145.665416 -176.800754 0
0.740370 145.493136 -179.175560 0
0.915670 143.106733 -177.238639 0
1.091984 140.673507 -175.263026 0
1.280031 138.198495 -173.259993 0
-128.552905 32.160349 1.601715 7
-121.212677 32.055194 -3.057633 7
-116.366711 30.194055 -4.600452 7
-104.924636 33.659014 -14.975813 8
-99.524021 32.546490 -17.522115 8
-94.468862 31.247978 -19.687144 8
-89.588690 29.889678 -21.689286 8
-86.688656 26.853830 -20.974813 8
-80.255934 27.042029 -25.309206 8
-75.837249 25.503998 -26.863315 8
-71.514153 23.942819 -28.337221 8
-66.964824 22.673095 -30.208533 8
-64.245150 19.611102 -29.362797 8
-57.080266 21.206697 -35.382489 9
-48.691960 24.369084 -43.535872 9
-44.499182 23.186383 -45.255882 9
-40.808916 21.502799 -46.223334 9
-37.240542 19.719933 -47.028317 9
-33.751638 17.877956 -47.732675 9
-30.298438 16.023950 -48.405024 9
-26.912408 14.114189 -48.987600 9
-23.575929 12.164887 -49.505692 9
-20.287206 10.172943 -49.957821 9
-17.033355 8.150709 -50.362903 9
-13.870585 6.012311 -50.611170 9
-10.725941 3.854150 -50.832277 9
-7.634181 1.619480 -50.955250 9
-4.584572 -0.683290 -50.994260 9
-1.595666 -3.092265 -50.904783 9
1.323514 -5.634068 -50.658302 9
4.200767 -8.274148 -50.302378 9
7.006892 -11.075578 -49.764324 9
9.731004 -14.075433 -49.005538 9
12.354779 -17.329598 -47.966579 9
14.811716 -20.997067 -46.468891 9
17.015506 -25.299346 -44.267886 9
-29.038280 145.681978 -155.840480 0
-23.925569 145.582178 -159.138707 0
-17.156976 146.463835 -164.394202 0
-12.268645 146.500650 -167.664679 0
-9.359979 145.546614 -168.756356 0
-4.755162 145.614733 -171.867518 0
0.769020 146.335513 -176.159871 0
1.142900 144.057478 -174.414232 0
1.342708 141.629235 -172.422288 0
1.542876 139.152090 -170.388341 0
1.707114 136.599734 -168.265326 0
-124.782632 30.707942 8.226313 7
-116.217175 31.572759 1.783238 7
-104.053883 35.520309 -9.742616 8
-98.371830 34.594276 -12.708819 8
-92.977554 33.545254 -15.377480 8
-87.849836 32.374594 -17.763850 8
-82.946726 31.103231 -19.914054 8
-78.198022 29.781228 -21.918418 8
-73.598671 28.404106 -23.776372 8
-69.170958 26.941040 -25.446190 8
-64.903637 25.391493 -26.934864 8
-64.326426 20.140847 -22.742236 8
-53.218778 25.800185 -35.069543 9
-45.637990 28.129942 -42.147947 9
-41.711198 26.680113 -43.500611 9
-38.053354 24.982177 -44.458893 9
-34.434129 23.282350 -45.390709 9
-30.902006 21.519041 -46.210101 9
-27.405650 19.748096 -46.999908 9
-23.956463 17.951781 -47.737080 9
-20.566431 16.109606 -48.395780 9
-17.249739 14.195827 -48.944135 9
-13.967521 12.256402 -49.448066 9
-10.710124 10.301014 -49.922440 9
-7.508962 8.279387 -50.302541 9
-4.353402 6.199858 -50.602720 9
-1.225465 4.083829 -50.853602 9
1.830639 1.853692 -50.958157 9
4.855969 -0.433591 -50.993360 9
7.831493 -2.818246 -50.911516 9
10.753926 -5.317141 -50.695774 9
13.641721 -7.908382 -50.377510 9
16.460781 -10.668337 -49.867555 9
19.211538 -13.614581 -49.150938 9
21.864847 -16.828023 -48.137868 9
24.398705 -20.385385 -46.746982 9
26.714624 -24.544764 -44.688153 9
25.822346 -36.308878 -33.876038 9
-29.438913 146.581565 -151.970653 0
-26.105550 145.539421 -153.309683 0
-20.920084 145.511830 -156.814317 0
-13.967505 146.546956 -162.469655 0
-10.975849 145.580251 -163.643985 0
-6.371362 145.580128 -166.778250 0
-1.788656 145.674927 -169.982508 0
1.429153 145.054769 -171.620336 0
1.603100 142.601547 -169.551884 0
1.816109 140.122727 -167.487391 0
1.990677 137.567129 -165.328474 0
-115.455025 27.737825 12.527014 8
-97.800384 36.181841 -7.022780 8
-92.063538 35.367933 -10.206432 8
-86.586462 34.455716 -13.125868 8
-81.416327 33.388372 -15.698327 8
-76.443168 32.246100 -18.070164 8
-71.721811 30.965626 -20.147655 8
-67.113821 29.662824 -22.128329 8
-64.161349 26.805855 -21.597021 8
-55.872124 29.371217 -29.531882 9
-49.684870 30.040647 -34.346101 9
-44.112161 30.238343 -38.321681 9
-39.247818 29.810282 -41.257522 9
-35.473142 28.258490 -42.450327 9
-31.813118 26.624324 -43.491933 9
-28.213269 24.963391 -44.468979 9
-24.668055 23.277429 -45.386791 9
-21.187369 21.548814 -46.222930 9
-17.760103 19.785827 -46.992343 9
-14.380378 17.990929 -47.701226 9
-11.035484 16.176751 -48.369490 9
-7.759364 14.290069 -48.926614 9
-4.512173 12.381534 -49.444853 9
-1.298461 10.440095 -49.911269 9
1.866301 8.436036 -50.288864 9
4.985197 6.366511 -50.577212 9
8.084344 4.267781 -50.826397 9
11.119944 2.058413 -50.934081 9
14.137160 -0.192274 -50.992761 9
17.096027 -2.564960 -50.903384 9
20.030039 -5.008493 -50.734323 9
22.922259 -7.565583 -50.436025 9
25.746041 -10.305183 -49.928970 9
28.513671 -13.221672 -49.226551 9
31.222686 -16.341073 -48.303950 9
33.814518 -19.823992 -46.978336 9
36.242798 -23.826216 -45.079500 9
38.329140 -28.861730 -42.028519 9
-28.028846 145.668908 -147.630334 0
-23.095364 145.436136 -150.869068 0
-17.678609 145.568199 -154.776813 0
-12.725746 145.576466 -158.247560 0
-8.053679 145.543195 -161.484053 0
-3.399064 145.609385 -164.798479 0
1.645971 146.021164 -168.699566 0
1.852574 143.578045 -166.624698 0
2.076541 141.095946 -164.526374 0
2.261629 138.536813 -162.330699 0
-106.715734 35.840349 7.153048 8
-98.461381 36.793493 0.519781 8
-91.923348 36.561636 -3.836868 8
-85.905924 36.048196 -7.573496 8
-80.345429 35.275793 -10.755166 8
-75.121577 34.322912 -13.537265 8
-70.112531 33.280497 -16.087589 8
-65.381368 32.074441 -18.294710 8
-64.128253 27.530714 -15.037500 8
-52.793801 33.107677 -28.023510 9
-46.505681 33.902340 -33.136349 9
-41.482438 33.536525 -36.310287 9
-37.421834 32.232667 -37.958651 9
-33.535002 30.800470 -39.368661 9
-29.346195 29.783459 -41.366831 9
-25.698790 28.195357 -42.467280 9
-22.126822 26.560932 -43.472634 9
-18.576250 24.942517 -44.477317 9
-15.106092 23.260748 -45.367941 9
-11.678632 21.558554 -46.209884 9
-8.288277 19.839412 -47.010217 9
-4.980383 18.033427 -47.673693 9
-1.685642 16.233851 -48.333525 9
1.559205 14.382335 -48.910986 9
4.768924 12.495283 -49.431303 9
7.944160 10.568258 -49.890888 9
11.081313 8.589213 -50.276269 9
14.175607 6.542619 -50.569976 9
17.233692 4.431933 -50.779795 9
20.266265 2.269079 -50.924035 9
23.272186 0.044822 -50.993494 9
26.229492 -2.293417 -50.924994 9
29.157495 -4.718892 -50.756342 9
32.055451 -7.244124 -50.475617 9
34.899196 -9.936342 -50.004765 9
37.694228 -12.803070 -49.340760 9
40.437294 -15.873864 -48.454418 9
43.077222 -19.305009 -47.167770 9
45.438606 -23.609821 -44.891174 9
-28.562473 146.520089 -143.437957 0
-25.053332 145.515785 -145.030871 0
-19.743231 145.512466 -148.842457 0
-14.585914 145.551761 -152.583078 0
-9.600318 145.618514 -156.225157 0
-4.999441 145.584692 -159.497331 0
1.279515 146.654152 -164.994703 0
2.146104 144.592997 -163.708556 0
2.326401 142.073867 -161.505272 0
2.534591 139.518981 -159.288316 0
2.730984 136.901021 -157.003890 0
-103.426774 33.990187 14.508770 8
-93.431416 36.417483 5.096967 8
-86.245727 36.789295 -0.394053 8
-80.038130 36.506240 -4.575831 8
-74.339024 35.922241 -8.113154 8
-69.034906 35.107543 -11.152524 8
-64.024988 34.130697 -13.829757 8
-57.026935 35.212695 -19.840654 9
-49.927753 36.623363 -26.228225 9
-43.860303 37.201674 -31.103634 9
-39.216282 36.441714 -33.716732 9
-35.228957 35.061495 -35.282969 9
-31.324937 33.652398 -36.761882 9
-27.547189 32.157748 -38.070093 9
-23.758102 30.732574 -39.450073 9
-19.662458 29.747900 -41.457738 9
-16.111003 28.148547 -42.504174 9
-12.607510 26.530133 -43.497720 9
-9.138606 24.906378 -44.460695 9
-5.697979 23.283015 -45.402944 9
-2.335037 21.585613 -46.219959 9
0.987952 19.861087 -46.982322 9
4.279366 18.117411 -47.703437 9
7.517902 16.316269 -48.332447 9
10.717802 14.473258 -48.894027 9
13.889303 12.599567 -49.405895 9
17.030447 10.686588 -49.858639 9
20.141523 8.728827 -50.247349 9
23.218154 6.711379 -50.555017 9
26.271015 4.647054 -50.801181 9
29.281997 2.492097 -50.932173 9
32.262417 0.258733 -50.967433 9
35.233141 -2.017505 -50.954916 9
38.173476 -4.390180 -50.829971 9
41.051615 -6.947727 -50.487531 9
43.887581 -9.664375 -49.965840 9
46.536138 -12.935999 -48.792550 9
48.965133 -16.922033 -46.796099 9
51.113962 -21.888337 -43.685441 9
-26.992989 145.648758 -139.069141 0
-21.848313 145.480599 -142.707325 0
-16.527865 145.524684 -146.674032 0
-11.488265 145.542495 -150.407765 0
-6.616647 145.586562 -154.041341 0
-1.899937 145.658763 -157.586238 0
2.408758 145.600801 -160.706642 0
2.597788 143.077222 -158.463757 0
2.820151 140.520920 -156.213556 0
3.044342 137.910545 -153.912642 0
-97.558235 28.295912 23.772619 8
-81.064918 36.594591 3.802720 8
-74.400055 36.778741 -1.261561 8
-68.486612 36.455686 -5.291946 8
-64.024156 34.905645 -7.092832 8
-54.665916 38.221192 -17.096941 9
-47.305222 39.888805 -24.071734 9
-44.157087 37.441899 -24.053313 9
-37.328811 38.940657 -30.474610 9
-33.235814 37.669481 -32.261261 9
-29.275263 36.321437 -33.876378 9
-25.389026 34.953532 -35.416681 9
-21.593132 33.540859 -36.846799 9
-17.887159 32.076188 -38.160189 9
-14.185226 30.661540 -39.516642 9
-10.201657 29.676929 -41.486317 9
-6.697507 28.119853 -42.559761 9
-3.268851 26.500912 -43.517698 9
0.158336 24.919131 -44.508406 9
3.509377 23.263210 -45.371468 9
6.831106 21.595928 -46.200820 9
10.107623 19.888146 -46.957128 9
13.342105 18.138614 -47.641524 9
16.563828 16.391055 -48.316993 9
19.715220 14.541060 -48.842123 9
22.867125 12.706080 -49.380421 9
25.981258 10.812702 -49.834051 9
29.068825 8.874697 -50.224289 9
32.129712 6.884963 -50.544276 9
35.152873 4.812237 -50.756156 9
38.165960 2.706434 -50.927627 9
41.150628 0.519791 -50.999784 9
44.079805 -1.824069 -50.880071 9
46.851682 -4.600983 -50.231299 9
49.454237 -7.899446 -48.960198 9
51.877420 -11.816464 -46.966773 9
54.134054 -16.399410 -44.214969 9
53.701297 -29.271914 -31.595491 9
-27.673752 146.445556 -134.505378 0
-23.839077 145.553499 -136.556582 0
-18.505598 145.522369 -140.568164 0
-13.420392 145.484412 -144.383576 0
-7.896368 145.815342 -148.884148 0
-3.704399 145.516597 -151.769715 0
2.380157 146.446759 -157.267726 0
2.884567 144.102363 -155.392953 0
3.104571 141.534179 -153.086319 0
3.296696 138.891596 -150.685549 0
3.357718 136.100260 -148.040966 0
-76.770661 35.597803 9.470748 8
-69.178736 36.679086 2.717467 8
-64.048480 35.674206 -0.162372 8
-52.986350 40.564116 -13.208366 9
-45.161038 42.670477 -21.123160 9
-39.895081 42.417963 -24.827194 9
-35.585240 41.287161 -26.959629 9
-31.411512 40.092134 -28.925411 9
-27.401085 38.791489 -30.664018 9
-23.399762 37.551438 -32.452426 9
-19.539629 36.214398 -34.038677 9
-15.762227 34.839980 -35.524486 9
-12.052835 33.439876 -36.932262 9
-8.405905 32.015503 -38.267557 9
-4.820426 30.562552 -39.526962 9
-0.921130 29.605065 -41.500749 9
2.518817 28.060883 -42.558396 9
5.920133 26.501531 -43.570304 9
9.257577 24.883375 -44.475164 9
12.572358 23.264118 -45.359923 9
15.849644 21.616383 -46.186864 9
19.083191 19.923905 -46.935487 9
22.286022 18.202765 -47.631175 9
25.456655 16.444812 -48.264875 9
28.591487 14.636841 -48.821029 9
31.706140 12.802216 -49.334043 9
34.790017 10.913942 -49.769694 9
37.873484 9.029035 -50.206185 9
40.905288 7.031503 -50.492210 9
43.909697 4.962134 -50.685588 9
46.759578 2.502183 -50.380631 9
49.470192 -0.361562 -49.575655 9
52.047891 -3.666427 -48.238777 9
54.500639 -7.450317 -46.338713 9
56.902955 -11.564157 -44.076230 9
57.523391 -21.294531 -35.000194 9
-25.855650 145.660097 -130.215233 0
-20.445004 145.585420 -134.353211 0
-15.187134 145.558963 -138.417456 0
-10.184704 145.519160 -142.267997 0
-3.852424 146.364018 -148.016946 0
-0.424316 145.666089 -149.995266 0
3.182006 145.146671 -152.285239 0
3.398866 142.566285 -149.919543 0
3.626551 139.936066 -147.511445 0
3.844841 137.240429 -145.029890 0
-64.550252 36.011334 7.741231 8
-51.589935 42.636051 -8.790950 9
-43.603940 44.864448 -17.138423 9
-38.427998 44.495264 -20.748046 9
-34.041946 43.422576 -23.050205 9
-29.781165 42.303243 -25.206937 9
-25.650959 41.121992 -27.199074 9
-21.599852 39.928476 -29.115455 9
-17.673733 38.661886 -30.860555 9
-13.779045 37.427380 -32.610592 9
-10.019181 36.091419 -34.153698 9
-6.311529 34.749725 -35.648318 9
-2.690938 33.350467 -37.016275 9
0.876658 31.932627 -38.322429 9
4.397677 30.500443 -39.575934 9
8.220777 29.575938 -41.562926 9
11.593832 28.033147 -42.587807 9
14.940153 26.487852 -43.587046 9
18.225804 24.880280 -44.475208 9
21.508205 23.300558 -45.385920 9
24.720145 21.628520 -46.148152 9
27.916357 19.953277 -46.892471 9
31.098025 18.274404 -47.619363 9
34.226853 16.512389 -48.220331 9
37.346925 14.747016 -48.808541 9
40.432181 12.919329 -49.305304 9
43.501571 11.062303 -49.757939 9
46.421415 8.856543 -49.745754 9
49.213893 6.309785 -49.293187 9
51.870556 3.354485 -48.326151 9
54.444771 0.077470 -46.971767 9
56.993618 -3.406163 -45.388268 9
59.498953 -7.178029 -43.480103 9
58.431267 -22.116880 -27.685960 9
57.864365 -36.785329 -12.534860 9
65.709443 -24.222457 -31.010609 5
68.796433 -27.125517 -30.397915 5
-22.435575 145.668770 -127.909426 0
-17.027418 145.637716 -132.199054 0
-11.892152 145.590324 -136.251926 0
-6.968526 145.549935 -140.140411 0
-2.266402 145.502451 -143.842712 0
3.370835 146.138369 -148.971800 0
3.692234 143.610886 -146.696187 0
3.920123 140.969681 -144.229862 0
4.143408 138.265553 -141.694440 0
-51.688210 43.268355 -1.669203 9
-42.457686 46.652930 -12.367255 9
-37.315468 46.212120 -15.966467 9
-32.754904 45.289402 -18.615723 9
-28.338701 44.311084 -21.091372 9
-24.060512 43.273599 -23.394870 9
-19.952504 42.128620 -25.451971 9
-15.906136 40.991607 -27.465203 9
-11.965074 39.804624 -29.341513 9
-8.147676 38.534874 -31.033228 9
-4.343131 37.316966 -32.764105 9
-0.668676 35.991669 -34.280405 9
2.954529 34.655920 -35.742519 9
6.513074 33.285501 -37.115340 9
10.001406 31.865001 -38.378861 9
13.449516 30.432878 -39.595722 9
17.186516 29.518291 -41.562306 9
20.532694 28.032362 -42.638056 9
23.810793 26.470342 -43.579738 9
27.063482 24.897950 -44.487671 9
30.285672 23.301846 -45.344286 9
33.474705 21.671548 -46.136814 9
36.641873 20.023320 -46.890657 9
39.790325 18.359179 -47.610324 9
42.874113 16.574519 -48.153172 9
45.885717 14.634927 -48.478122 9
48.743595 12.325456 -48.301919 9
51.481653 9.679901 -47.685270 9
54.130903 6.732362 -46.686940 9
56.746218 3.589190 -45.458167 9
59.368511 0.338747 -44.120996 9
61.964396 -3.132872 -42.532759 9
58.380386 -26.035860 -16.242659 9
66.396867 -13.106011 -35.650258 5
69.190995 -16.622684 -34.155994 5
71.823020 -20.930523 -31.720516 5
74.862740 -23.962855 -30.904076 5
78.150002 -26.137234 -31.155158 5
-21.869073 144.193146 -121.759360 3
-13.676620 145.662659 -129.972018 0
-8.588957 145.633657 -134.111083 0
-3.773562 145.575282 -137.994274 0
2.786965 146.682771 -144.492446 0
3.997351 144.676447 -143.431968 0
4.226450 142.025059 -140.907289 0
4.440337 139.303052 -138.295110 0
4.665620 136.524649 -135.631620 0
-41.894341 47.869596 -6.443223 9
-36.429486 47.703663 -10.676410 9
-31.642410 46.976666 -13.777250 9
-27.093031 46.107578 -16.534830 9
-22.731674 45.132528 -19.026735 9
-18.462239 44.147526 -21.430028 9
-14.295211 43.133827 -23.716915 9
-10.301421 41.995632 -25.731037 9
-6.362472 40.867713 -27.707614 9
-2.537929 39.667758 -29.513324 9
1.199454 38.421546 -31.196889 9
4.909874 37.205656 -32.886314 9
8.497083 35.878309 -34.356934 9
12.077143 34.600102 -35.868976 9
15.547265 33.211347 -37.173844 9
18.988665 31.828736 -38.458142 9
21.245551 28.502242 -36.764340 9
26.018442 29.478710 -41.565387 9
29.304046 27.987157 -42.599720 9
32.548500 26.457756 -43.557736 9
35.774646 24.927894 -44.496707 9
38.953605 23.336132 -45.329426 9
42.116353 21.737699 -46.138283 9
45.179735 19.946295 -46.662239 9
48.115286 17.869709 -46.782056 9
50.915528 15.450988 -46.431985 9
53.631472 12.770542 -45.736522 9
56.305784 9.903288 -44.807815 9
58.977393 6.929222 -43.760415 9
61.657075 3.864016 -42.619167 9
64.317337 0.611766 -41.261563 9
66.490444 -4.336322 -37.733779 5
69.483297 -6.893816 -37.358416 5
72.444932 -9.651176 -36.743792 5
75.364754 -12.683683 -35.802243 5
78.236868 -16.065364 -34.451031 5
80.971462 -20.240867 -32.151411 5
83.949443 -23.658681 -30.834956 5
87.321464 -25.428544 -31.557700 5
-24.094618 144.187317 -114.601411 3
-18.426089 144.196877 -119.384393 3
-10.334566 145.690306 -127.743877 0
-5.345127 145.650845 -131.897408 0
-0.578045 145.607458 -135.856568 0
4.292998 145.750398 -140.093809 0
4.504655 143.076736 -137.480731 0
4.761365 140.370418 -134.867998 0
5.012775 137.597343 -132.177682 0
-42.251746 48.186686 1.340509 9
-36.151408 48.582616 -4.117361 9
-30.953427 48.223434 -8.024461 9
-26.155054 47.573652 -11.288417 9
-23.707516 44.400660 -9.931564 9
-17.101270 46.018502 -17.082095 9
-12.930730 44.981432 -19.402312 9
-8.779265 44.011782 -21.773516 9
-4.747885 42.981866 -23.977005 9
-0.835423 41.882172 -26.003703 9
2.979753 40.730555 -27.890444 9
6.715352 39.542380 -29.668187 9
10.368903 38.306031 -31.322588 9
14.015975 37.127284 -33.028368 9
17.523109 35.798395 -34.454778 9
21.012389 34.498337 -35.892664 9
24.439898 33.152555 -37.226591 9
27.818368 31.774782 -38.481650 9
30.108715 28.465915 -36.780143 9
34.738798 29.482065 -41.606078 9
37.988797 28.023097 -42.655774 9
41.183877 26.491505 -43.578416 9
44.325265 24.878017 -44.365044 9
47.336109 22.999127 -44.756546 9
50.204550 20.790637 -44.674309 9
52.971580 18.306035 -44.208735 9
55.699395 15.663659 -43.537001 9
58.416424 12.916034 -42.738370 9
58.417373 2.558889 -31.563565 9
58.378800 -8.761908 -19.312295 9
66.132180 2.743127 -37.884421 5
69.199807 0.599059 -37.996277 5
72.236083 -1.694496 -37.916868 5
75.270357 -4.059781 -37.753392 5
78.290416 -6.557640 -37.430393 5
81.287963 -9.247997 -36.876474 5
84.243463 -12.254301 -35.942656 5
87.176162 -15.554513 -34.667811 5
90.024624 -19.517813 -32.604047 5
92.968475 -23.339970 -30.762584 5
96.324493 -25.147114 -31.420278 5
-20.568127 144.194360 -112.176219 3
-14.997599 144.199874 -116.995113 3
-9.721872 144.182893 -121.531362 3
-2.098422 145.676232 -129.692980 0
4.146741 146.571869 -136.027005 0
4.829731 144.172882 -134.059383 0
5.071215 141.445019 -131.357480 0
5.327394 138.662291 -128.605768 0
-36.766321 48.565235 4.348001 9
-31.012988 48.691889 -0.652216 9
-25.674696 48.549101 -5.003229 9
-20.768793 48.081427 -8.630440 9
-16.175277 47.387578 -11.742500 9
-11.682405 46.691886 -14.761889 9
-7.431356 45.812888 -17.372496 9
-3.285759 44.900788 -19.852656 9
0.713867 43.893076 -22.100348 9
4.630355 42.860922 -24.245993 9
8.450692 41.778505 -26.250618 9
12.161816 40.616677 -28.071548 9
15.811208 39.434860 -29.813487 9
19.399842 38.228314 -31.472141 9
22.947152 37.022136 -33.091252 9
26.396322 35.716045 -34.513757 9
29.835299 34.449851 -35.966053 9
33.206331 33.118958 -37.285539 9
36.520968 31.734138 -38.493654 9
39.792232 30.311289 -39.618672 9
43.317822 29.455501 -41.571701 9
46.397857 27.733415 -42.199017 9
49.361964 25.766758 -42.456221 9
51.406867 21.645671 -39.579370 9
54.561052 20.026564 -40.364413 9
56.894815 16.334579 -38.185913 9
58.409765 10.275520 -32.720017 9
58.382904 -0.524368 -20.754959 9
65.526623 8.897418 -36.964188 5
68.635679 6.991189 -37.367218 5
71.720704 4.990441 -37.640567 5
74.803886 2.953419 -37.866621 5
77.873691 0.829289 -37.979753 5
80.935049 -1.381116 -37.984822 5
83.971879 -3.763159 -37.774243 5
87.010675 -6.236745 -37.458014 5
90.044723 -8.855013 -36.971757 5
93.045058 -11.800480 -36.089727 5
96.036109 -15.019612 -34.890711 5
98.980758 -18.807821 -33.017048 5
101.931977 -22.977984 -30.718437 5
105.276754 -24.832959 -31.297605 5
-22.812485 144.193104 -104.618621 3
-17.066828 144.195619 -109.719751 3
-11.587755 144.199442 -114.580997 3
-6.366688 144.198358 -119.203573 3
-1.380212 144.195246 -123.611660 3
5.155942 145.284945 -130.573023 0
3.659518 141.431879 -125.056019 3
-32.236998 47.953228 9.289083 9
-25.999547 48.661169 3.108208 9
-20.589374 48.665539 -1.568683 9
-12.065795 52.451261 -13.132449 4
-7.260420 52.208413 -16.998959 4
-6.095472 47.600566 -12.860515 9
-1.876864 46.751887 -15.533486 9
2.107865 45.697545 -17.769483 9
6.130433 44.783582 -20.188225 9
10.011598 43.765214 -22.362679 9
13.816658 42.722329 -24.438200 9
16.225309 39.631538 -23.021496 9
21.173045 40.492603 -28.192333 9
24.755748 39.337365 -29.933312 9
28.278674 38.152058 -31.583451 9
31.761322 36.963679 -33.189712 9
35.154838 35.678067 -34.604916 9
38.509938 34.376731 -35.963729 9
41.718733 32.839327 -36.927006 9
44.743796 30.955234 -37.338555 9
47.603936 28.717960 -37.206839 9
50.413169 26.336592 -36.863466 9
53.227413 23.922484 -36.480990 9
56.038511 21.450201 -36.023791 9
58.252272 17.376648 -33.250885 9
58.383847 7.447597 -22.111207 9
64.720207 14.346719 -35.175492 5
67.872840 12.634275 -35.837103 5
71.009884 10.879097 -36.431028 5
74.121905 9.039751 -36.902479 5
77.222194 7.145510 -37.295615 5
80.313252 5.193033 -37.608681 5
83.400430 3.189849 -37.854592 5
86.474443 1.083846 -37.966500 5
89.541573 -1.120784 -37.954257 5
92.611140 -3.403023 -37.849312 5
95.669102 -5.857672 -37.532328 5
98.726185 -8.469644 -37.029097 5
101.778492 -11.308482 -36.257199 5
104.818796 -14.493366 -35.074953 5
107.681356 -19.405193 -31.775558 5
110.959989 -21.584786 -31.917168 5
-19.224527 144.198433 -102.105684 3
-13.572030 144.200625 -107.254307 3
-8.171349 144.209351 -112.175571 3
-3.042200 144.202357 -116.827290 3
1.861474 144.195543 -121.269291 3
3.984711 142.559195 -121.373935 3
4.242765 139.713810 -118.438435 3
-10.752215 65.633546 -21.485798 1
-5.753063 65.655851 -25.934510 1
-6.874810 58.758895 -17.085923 4
-3.330469 57.129533 -18.353146 4
-0.215274 55.018163 -18.684810 4
2.626385 52.570207 -18.383987 4
3.431298 47.407843 -13.182972 9
5.669298 44.009067 -11.249713 9
11.458300 45.587198 -18.119627 9
15.367552 44.672075 -20.480286 9
19.164129 43.680233 -22.647322 9
22.847493 42.597170 -24.603745 9
26.497664 41.539635 -26.553497 9
30.052594 40.399953 -28.318935 9
33.569580 39.265951 -30.050957 9
37.022022 38.084954 -31.665946 9
40.376765 36.783275 -33.050367 9
43.541198 35.156263 -33.888228 9
46.484333 33.094161 -34.026090 9
49.341622 30.832949 -33.853013 9
52.186237 28.511085 -33.591834 9
55.027285 26.140824 -33.264481 9
57.880972 23.754763 -32.922492 9
58.383483 15.173306 -23.388530 9
58.401332 4.590643 -11.113175 9
66.952599 17.720768 -33.591868 5
70.126312 16.118810 -34.403066 5
73.274151 14.451588 -35.109497 5
76.407607 12.743550 -35.749274 5
79.534894 11.013726 -36.351441 5
82.651738 9.238595 -36.885032 5
85.740758 7.335322 -37.239019 5
88.836092 5.422680 -37.580256 5
91.925241 3.437361 -37.824512 5
95.011176 1.374341 -37.968356 5
98.093408 -0.791402 -37.982140 5
101.177425 -3.057690 -37.872884 5
104.262035 -5.464244 -37.593159 5
107.273410 -8.590987 -36.404876 5
110.132398 -13.330912 -33.199692 5
113.210490 -16.929523 -31.499900 5
-21.498859 144.197603 -94.094520 3
-15.667240 144.195039 -99.544938 3
-10.091412 144.204876 -104.764096 3
-4.796351 144.201853 -109.700560 3
0.255674 144.196085 -114.401396 3
4.347469 143.726965 -117.676407 3
4.583326 140.854845 -114.627802 3
