ply
format ascii 1.0
element vertex 1352
property float x
property float y
property float z
property int scalar_Label
end_header
-118.859888 -5.130421 -29.543266 7
-122.313748 -5.758922 -29.427469 7
-125.785065 -6.396695 -29.306937 7
-129.302948 -6.992948 -29.155099 7
-132.825922 -7.625159 -29.011980 7
-136.395077 -8.222698 -28.840570 7
-140.007239 -8.795309 -28.645586 7
-143.617786 -9.419496 -28.466985 7
-147.271444 -10.022649 -28.266397 7
148.118818 5.414598 -29.491136 6
144.794967 5.979164 -29.392048 6
141.502664 6.596415 -29.259003 6
138.232569 7.247862 -29.101326 6
134.972787 7.905091 -28.933205 6
131.746276 8.639108 -28.719582 6
128.538856 9.416825 -28.476969 6
125.377882 10.332405 -28.158976 6
122.327621 11.615929 -27.652309 6
117.528931 6.935665 -30.078432 5
112.027750 -0.691563 -33.944850 5
107.224776 -6.422409 -36.865047 5
103.853273 -7.162152 -37.319194 5
100.729445 -7.026589 -37.335483 5
97.612776 -6.908867 -37.353565 5
94.498222 -6.830888 -37.384235 5
91.400738 -6.725630 -37.394615 5
88.303592 -6.667657 -37.421355 5
85.225235 -6.565524 -37.419619 5
82.145974 -6.516090 -37.436962 5
79.081896 -6.431269 -37.430216 5
76.017526 -6.396494 -37.441301 5
72.958946 -6.377451 -37.453418 5
69.911312 -6.335965 -37.447887 5
66.581515 -8.549649 -38.540757 9
63.206495 -11.607605 -40.040686 9
59.973480 -14.001922 -41.209004 9
56.776538 -16.605550 -42.473644 9
53.674077 -18.806087 -43.534680 9
50.640854 -20.760060 -44.468926 9
47.693112 -22.085445 -45.089149 9
44.808631 -22.814367 -45.410996 9
41.962630 -23.069669 -45.494547 9
39.130525 -23.125063 -45.473927 9
36.301795 -23.141756 -45.428178 9
33.473348 -23.226842 -45.409874 9
30.646916 -23.293587 -45.376430 9
27.821423 -23.349864 -45.331694 9
24.996352 -23.415378 -45.285341 9
22.172110 -23.513014 -45.248628 9
19.346403 -23.574891 -45.188130 9
16.522333 -23.695374 -45.150309 9
13.698683 -23.833755 -45.115123 9
10.867186 -23.875164 -45.025847 9
8.038144 -23.988676 -44.965893 9
5.209153 -24.130102 -44.913462 9
2.379933 -24.293748 -44.865742 9
-0.461644 -24.372374 -44.769573 9
-3.299892 -24.517937 -44.700187 9
-6.142933 -24.659112 -44.622216 9
-8.992601 -24.788380 -44.531868 9
-11.839531 -24.971614 -44.461874 9
-14.694709 -25.136580 -44.376268 9
-17.554450 -25.310596 -44.288600 9
-20.421565 -25.480532 -44.192266 9
-23.297148 -25.644675 -44.086341 9
-26.178321 -25.820520 -43.979517 9
-29.072442 -25.976102 -43.855704 9
-31.958625 -26.206579 -43.762632 9
-34.866143 -26.384665 -43.636296 9
-37.775506 -26.596055 -43.519724 9
-40.708665 -26.756769 -43.370475 9
-43.641043 -26.963834 -43.237451 9
-46.732391 -26.661915 -42.839018 9
-50.041501 -25.715548 -42.104789 9
-53.708079 -23.750533 -40.842201 9
-57.533494 -21.492489 -39.418129 9
-61.535512 -18.922454 -37.821654 9
-65.683812 -16.163182 -36.114308 9
-69.460623 -14.681423 -35.048069 8
-72.629900 -14.996373 -34.894011 8
-75.801421 -15.348365 -34.750712 8
-78.996495 -15.682120 -34.589600 8
-82.194257 -16.052717 -34.439009 8
-85.417761 -16.403970 -34.269753 8
-88.657156 -16.762467 -34.095454 8
-91.919598 -17.113533 -33.908326 8
-95.191119 -17.490500 -33.725623 8
-98.488886 -17.856687 -33.528033 8
-101.802048 -18.237556 -33.328738 8
-105.173837 -18.546489 -33.081905 8
-109.389131 -17.242589 -31.971387 8
-116.902744 -9.728779 -27.548797 7
-119.895662 -11.134932 -27.840428 7
-123.388010 -11.629815 -27.637902 7
-126.899180 -12.138870 -27.432380 7
-130.455320 -12.617597 -27.199788 7
-134.023672 -13.125978 -26.972081 7
-137.628702 -13.623407 -26.727195 7
-141.277423 -14.101371 -26.460189 7
-144.920978 -14.640909 -26.214850 7
-148.661582 -15.081452 -25.903423 7
148.320712 -4.022359 -29.733804 6
144.997559 -3.659795 -29.748248 6
141.649358 -3.406340 -29.810095 6
138.339662 -3.099898 -29.836431 6
135.035320 -2.824506 -29.870335 6
131.745913 -2.553476 -29.898246 6
128.473840 -2.277700 -29.915610 6
125.219774 -1.992098 -29.919938 6
121.959933 -1.768425 -29.947784 6
118.718310 -1.532158 -29.961306 6
114.972356 -3.063886 -30.863760 5
109.685022 -10.256892 -34.626274 5
105.989067 -12.222030 -35.727899 5
102.812806 -12.411964 -35.922161 5
99.723976 -12.326707 -35.969677 5
96.660732 -12.185513 -35.981603 5
93.590814 -12.119849 -36.024458 5
90.544645 -11.996604 -36.031021 5
87.494315 -11.939904 -36.064034 5
84.449086 -11.909603 -36.103243 5
81.428709 -11.798483 -36.094602 5
78.399520 -11.783558 -36.127444 5
75.385193 -11.732968 -36.135294 5
72.375706 -11.701501 -36.145812 5
69.372848 -11.676151 -36.152470 5
66.142638 -13.470419 -37.069128 9
62.888938 -15.845420 -38.271445 9
59.679746 -18.333934 -39.524155 9
56.531454 -20.796256 -40.757061 9
53.484843 -22.741610 -41.723018 9
50.496147 -24.521974 -42.599512 9
47.587631 -25.705229 -43.168789 9
44.736199 -26.356514 -43.463607 9
41.919961 -26.577030 -43.534862 9
39.117709 -26.575834 -43.487866 9
36.314886 -26.656332 -43.475658 9
33.515079 -26.692638 -43.434709 9
30.716163 -26.768644 -43.407370 9
27.918380 -26.832195 -43.367296 9
25.121034 -26.896952 -43.321373 9
22.323328 -26.953794 -43.264970 9
19.527228 -27.071981 -43.233142 9
16.728168 -27.134347 -43.166543 9
13.928885 -27.223661 -43.107075 9
11.127094 -27.304154 -43.036581 9
8.325589 -27.420048 -42.977490 9
5.523096 -27.551704 -42.919830 9
2.717826 -27.682568 -42.855161 9
-0.091116 -27.810102 -42.782152 9
-2.908726 -27.899848 -42.683178 9
-5.726742 -28.025929 -42.595985 9
-8.548453 -28.161961 -42.507098 9
-11.374570 -28.305170 -42.415063 9
-14.205753 -28.453828 -42.318955 9
-17.043050 -28.604483 -42.216954 9
-19.896321 -28.708062 -42.083779 9
-22.740979 -28.897838 -41.987863 9
-25.590136 -29.101474 -41.892041 9
-28.467872 -29.211614 -41.740849 9
-31.336017 -29.407548 -41.626697 9
-34.202232 -29.649001 -41.528859 9
-37.101643 -29.795410 -41.374443 9
-40.063654 -29.751191 -41.113433 9
-43.020472 -29.785365 -40.885268 9
-46.052328 -29.614508 -40.542216 9
-49.693189 -27.492209 -39.170825 9
-52.981568 -26.709760 -38.488442 9
-56.811357 -24.371775 -36.979738 9
-60.423068 -22.903213 -35.914472 9
-64.245543 -20.986718 -34.601044 9
-68.103053 -19.158548 -33.320794 9
-71.408249 -18.995672 -32.908358 8
-74.561902 -19.300211 -32.734021 8
-77.733121 -19.604114 -32.550465 8
-80.923053 -19.906744 -32.357204 8
-84.127563 -20.220174 -32.160528 8
-87.344038 -20.551631 -31.964197 8
-90.599277 -20.841389 -31.736034 8
-93.844473 -21.201751 -31.536180 8
-97.135748 -21.509608 -31.298270 8
-100.410803 -21.900312 -31.095195 8
-103.685795 -22.336862 -30.907048 8
-107.484366 -21.787669 -30.171798 8
-116.679702 -10.984709 -23.819334 7
-118.076100 -15.369794 -25.744324 7
-121.560290 -15.803079 -25.498607 7
-124.593420 -17.089342 -25.712248 7
-128.186279 -17.413309 -25.384804 7
-131.794877 -17.767402 -25.061953 7
-135.477624 -18.054940 -24.689698 7
-139.167288 -18.391603 -24.332062 7
-142.864445 -18.775430 -23.987930 7
-146.618065 -19.129777 -23.614089 7
149.819232 -9.922623 -28.309090 6
146.494846 -9.651322 -28.387462 6
143.176010 -9.415701 -28.475637 6
139.880193 -9.171584 -28.550407 6
136.592830 -8.954615 -28.630643 6
133.326859 -8.729422 -28.697830 6
130.067566 -8.534593 -28.772326 6
126.835918 -8.309097 -28.822209 6
123.609923 -8.114142 -28.879655 6
120.400662 -7.915543 -28.926836 6
116.582266 -9.759565 -30.032348 5
112.866658 -11.459302 -31.052473 5
108.506301 -15.637362 -33.354713 5
105.097690 -16.717198 -34.031715 5
102.016122 -16.693521 -34.125664 5
98.966002 -16.601069 -34.176082 5
95.922646 -16.530895 -34.230433 5
92.898766 -16.427190 -34.259766 5
89.881126 -16.342913 -34.291665 5
86.874263 -16.255759 -34.314589 5
83.869752 -16.205189 -34.349058 5
80.870182 -16.179993 -34.389285 5
77.882034 -16.143575 -34.416328 5
74.905743 -16.086976 -34.425592 5
71.934281 -16.048196 -34.436808 5
68.967686 -16.026549 -34.449647 5
65.774420 -17.809734 -35.390114 9
62.598714 -19.823531 -36.442700 9
59.475939 -21.802202 -37.469927 9
56.395032 -23.840191 -38.520889 9
53.396200 -25.488204 -39.363035 9
50.442380 -27.060488 -40.159252 9
47.543782 -28.354918 -40.804924 9
44.682633 -29.522510 -41.378348 9
41.893472 -29.682944 -41.423196 9
39.112964 -29.744346 -41.409984 9
36.335664 -29.781170 -41.377287 9
33.560727 -29.754681 -41.304983 9
30.785358 -29.765722 -41.245381 9
28.009864 -29.776041 -41.178621 9
25.233879 -29.797164 -41.110678 9
22.455810 -29.782568 -41.017344 9
19.676261 -29.789695 -40.928457 9
16.895427 -29.820025 -40.844783 9
14.106242 -29.755279 -40.704664 9
11.320289 -29.806881 -40.618248 9
8.525455 -29.789886 -40.489076 9
5.727198 -29.792632 -40.363184 9
2.922741 -29.787905 -40.226316 9
0.116997 -29.825829 -40.104661 9
-2.696156 -29.851272 -39.969337 9
-5.523012 -29.825247 -39.799801 9
-8.357497 -29.804604 -39.625776 9
-11.197851 -29.803286 -39.454540 9
-14.040688 -29.841360 -39.296635 9
-16.892621 -29.878224 -39.130653 9
-19.766849 -29.847967 -38.921700 9
-22.640574 -29.878103 -38.737001 9
-25.526981 -29.900153 -38.540331 9
-28.441866 -29.847464 -38.296215 9
-31.346975 -29.896820 -38.098329 9
-34.285701 -29.860286 -37.846786 9
-37.217616 -29.909346 -37.632702 9
-40.180637 -29.894307 -37.376237 9
-43.149711 -29.915247 -37.130657 9
-46.162993 -29.839158 -36.824627 9
-49.244629 -29.599598 -36.422024 9
-52.489722 -28.913746 -35.769930 9
-55.898006 -27.832717 -34.894272 9
-59.496146 -26.321224 -33.774406 9
-63.157784 -24.788386 -32.630200 9
-66.841214 -23.355388 -31.527060 9
-70.356335 -22.526658 -30.739561 8
-73.445137 -22.920333 -30.606912 8
-76.549550 -23.312500 -30.464405 8
-79.677528 -23.685866 -30.302410 8
-82.808327 -24.093404 -30.149813 8
-85.954438 -24.505384 -29.990222 8
-89.101283 -24.956147 -29.842467 8
-92.314075 -25.302187 -29.627050 8
-95.556693 -25.630632 -29.391717 8
-98.820948 -25.961851 -29.147541 8
-102.097760 -26.315948 -28.905568 8
-105.806949 -25.869782 -28.204282 8
-112.057945 -20.653005 -24.806758 8
-116.771864 -18.628645 -23.178932 7
-119.990090 -19.492973 -23.165450 7
-123.544330 -19.789750 -22.819557 7
-127.120604 -20.105287 -22.471814 7
-130.735425 -20.412545 -22.106585 7
-134.395704 -20.702915 -21.718582 7
-138.115191 -20.957623 -21.296577 7
-141.839365 -21.267400 -20.892452 7
-145.615517 -21.557956 -20.463121 7
-149.386449 -21.919137 -20.060429 7
148.464168 -14.281477 -26.382538 6
145.157946 -14.063067 -26.498840 6
141.870763 -13.849223 -26.608135 6
138.602416 -13.638541 -26.709783 6
135.348244 -13.441323 -26.809471 6
132.109164 -13.253968 -26.905346 6
128.885439 -13.074288 -26.996322 6
125.675757 -12.904446 -27.083659 6
122.474896 -12.758818 -27.175178 6
119.303741 -12.571854 -27.235709 6
115.257001 -15.287839 -28.846081 5
111.003224 -18.976739 -30.966750 5
107.671140 -19.775646 -31.526670 5
104.408164 -20.447147 -32.009306 5
101.380490 -20.335757 -32.064301 5
98.351171 -20.279999 -32.140989 5
95.340981 -20.197835 -32.195549 5
92.344257 -20.107187 -32.237644 5
89.353502 -20.038143 -32.283398 5
86.378085 -19.945424 -32.308699 5
83.402253 -19.902373 -32.352715 5
80.427536 -19.905945 -32.413838 5
77.480525 -19.807731 -32.413035 5
74.531200 -19.768124 -32.435813 5
71.586075 -19.752533 -32.463767 5
68.610179 -20.010151 -32.629566 9
65.481704 -21.539538 -33.464613 9
62.384644 -23.137459 -34.328466 9
59.343002 -24.596812 -35.111068 9
56.339614 -26.040148 -35.877784 9
53.379477 -27.396681 -36.591081 9
50.471130 -28.510466 -37.168077 9
47.585515 -29.694069 -37.775215 9
44.784247 -29.866825 -37.837241 9
41.997340 -29.857004 -37.794938 9
39.212617 -29.833543 -37.738226 9
36.427434 -29.865548 -37.703922 9
33.644327 -29.851110 -37.637721 9
30.861098 -29.850657 -37.571812 9
28.077481 -29.846143 -37.496562 9
25.293668 -29.885179 -37.437371 9
22.507532 -29.867187 -37.340521 9
19.719675 -29.867009 -37.245945 9
16.930723 -29.897121 -37.160310 9
14.134809 -29.855103 -37.028776 9
11.339113 -29.881098 -36.926319 9
8.538385 -29.892069 -36.808452 9
5.734377 -29.918244 -36.691341 9
2.919218 -29.884727 -36.534713 9
0.099747 -29.873153 -36.382335 9
-2.706827 -30.020003 -36.307692 9
-5.518260 -30.161551 -36.222738 9
-8.337500 -30.282948 -36.119398 9
-11.162634 -30.404276 -36.008428 9
-13.990613 -30.547250 -35.901520 9
-16.823771 -30.698329 -35.791319 9
-19.671516 -30.809981 -35.651979 9
-22.514559 -30.987503 -35.540565 9
-25.368915 -31.148272 -35.412186 9
-28.231692 -31.310566 -35.276687 9
-31.104668 -31.469364 -35.131247 9
-33.988130 -31.626651 -34.976854 9
-36.892948 -31.742961 -34.791785 9
-39.801773 -31.890629 -34.615526 9
-42.702975 -32.109899 -34.470197 9
-45.618895 -32.318063 -34.310345 9
-48.598101 -32.358283 -34.049236 9
-51.732363 -31.959404 -33.536188 9
-55.035128 -31.129555 -32.774043 9
-58.541000 -29.813702 -31.730489 9
-62.171610 -28.288203 -30.557355 9
-65.823506 -26.863264 -29.426648 9
-69.158107 -26.439699 -28.842300 8
-72.259937 -26.707536 -28.634206 8
-75.409473 -26.900308 -28.374175 8
-78.538378 -27.193664 -28.160706 8
-81.701602 -27.450728 -27.916727 8
-84.874925 -27.732441 -27.676425 8
-88.045368 -28.067865 -27.456233 8
-91.245133 -28.384573 -27.214961 8
-94.501748 -28.627832 -26.921054 8
-97.741106 -28.958267 -26.665970 8
-101.018938 -29.259293 -26.382937 8
-104.462904 -29.285566 -25.930143 8
-112.877300 -19.902091 -20.023146 8
-116.706322 -19.575683 -19.322593 7
-119.158474 -21.831615 -20.110174 7
-122.746313 -22.039779 -19.696522 7
-126.371770 -22.243933 -19.267032 7
-129.972131 -22.552399 -18.885075 7
-133.594287 -22.882971 -18.502461 7
-137.293480 -23.147495 -18.066776 7
-141.063043 -23.363232 -17.587501 7
-144.876885 -23.575918 -17.091242 7
-148.687567 -23.859448 -16.621884 7
146.928618 -19.041347 -24.761247 6
144.152391 -17.652861 -24.233754 6
140.890041 -17.453356 -24.361146 6
137.638799 -17.277386 -24.491837 6
134.403141 -17.112990 -24.619256 6
131.171855 -16.989500 -24.759785 6
127.980308 -16.808811 -24.859084 6
124.800912 -16.643044 -24.957315 6
121.634717 -16.488120 -25.052305 6
118.473452 -16.368569 -25.157688 6
114.248938 -19.753406 -27.187435 5
109.952703 -23.702833 -29.515494 5
106.501616 -25.064669 -30.405679 5
103.448598 -25.144821 -30.580726 5
100.454206 -25.067142 -30.660396 5
97.447119 -25.091276 -30.787600 5
94.536346 -24.774715 -30.719408 5
91.615328 -24.529905 -30.682502 5
88.691918 -24.328804 -30.661482 5
85.782626 -24.095505 -30.614763 5
82.874625 -23.886750 -30.573489 5
79.966696 -23.710048 -30.541788 5
77.060343 -23.559168 -30.516265 5
74.150969 -23.463585 -30.513061 5
71.250238 -23.354503 -30.494565 5
68.334998 -23.387865 -30.546065 9
65.247470 -24.799636 -31.343130 9
62.191830 -26.255282 -32.156154 9
59.171540 -27.729572 -32.971493 9
56.198616 -29.099765 -33.722222 9
53.273932 -30.310263 -34.378096 9
50.417198 -31.031454 -34.759071 9
47.600646 -31.435591 -34.959308 9
44.806964 -31.640095 -35.042976 9
42.028485 -31.660616 -35.018591 9
39.252517 -31.677060 -34.984499 9
36.477827 -31.711545 -34.952799 9
33.704858 -31.731732 -34.905793 9
30.932387 -31.808359 -34.882208 9
28.159529 -31.669981 -34.733328 9
25.387300 -31.774619 -34.710078 9
22.614644 -31.838677 -34.657076 9
19.841198 -31.899997 -34.595037 9
17.068110 -31.994381 -34.543605 9
14.293073 -32.076035 -34.477614 9
11.514936 -32.142601 -34.395720 9
8.735537 -32.229191 -34.317206 9
5.955104 -32.337567 -34.243036 9
3.169566 -32.427369 -34.150930 9
0.381882 -32.534715 -34.060767 9
-2.409734 -32.645537 -33.964748 9
-5.202882 -32.780957 -33.874522 9
-8.002772 -32.904162 -33.769678 9
-10.808431 -33.027630 -33.657057 9
-13.620008 -33.154030 -33.538081 9
-16.429489 -33.330792 -33.439083 9
-19.255735 -33.453614 -33.301985 9
-22.073997 -33.657034 -33.201671 9
-24.913491 -33.794246 -33.056205 9
-27.755027 -33.963582 -32.920386 9
-30.607211 -34.126655 -32.772686 9
-33.475807 -34.263590 -32.601832 9
-36.346830 -34.434681 -32.441579 9
-39.232438 -34.592952 -32.265444 9
-42.113313 -34.811303 -32.114457 9
-45.011294 -35.010260 -31.943725 9
-48.002747 -34.942701 -31.612935 9
-51.049772 -34.760652 -31.207416 9
-54.328639 -33.939339 -30.427764 9
-57.792411 -32.686474 -29.389951 9
-61.373952 -31.240298 -28.228325 9
-64.984636 -29.867714 -27.094819 9
-68.365048 -29.258133 -26.385572 8
-71.442536 -29.531251 -26.172406 8
-74.551613 -29.769420 -25.928913 8
-77.676991 -30.015087 -25.679345 8
-80.820907 -30.264425 -25.421335 8
-83.997939 -30.485749 -25.136265 8
-87.170589 -30.767176 -24.875244 8
-91.634966 -28.293704 -22.990386 8
-93.592752 -31.309163 -24.307604 8
-96.814138 -31.632706 -24.037574 8
-100.091553 -31.891986 -23.718035 8
-103.440718 -32.063350 -23.334379 8
-107.586636 -30.777736 -22.071958 8
-113.887029 -25.630319 -18.487553 8
-118.564552 -23.736809 -16.815804 7
-122.143219 -23.942742 -16.382458 7
-127.160096 -21.733728 -14.479571 7
-129.396755 -24.373790 -15.484643 7
-133.089388 -24.573398 -15.004095 7
-136.801771 -24.805208 -14.527969 7
-140.575271 -25.004556 -14.016556 7
-144.410244 -25.175469 -13.471705 7
-148.246927 -25.411781 -12.950655 7
146.290374 -21.681760 -22.015826 6
143.009816 -21.556304 -22.206006 6
139.753885 -21.426500 -22.383205 6
136.545554 -21.230940 -22.512469 6
134.370507 -18.366087 -21.107228 6
130.102185 -21.067777 -22.870930 6
126.932275 -20.927608 -23.001755 6
123.784541 -20.775534 -23.116047 6
120.646911 -20.644115 -23.232449 6
117.449935 -20.749475 -23.473660 5
115.045010 -18.363687 -22.293227 5
109.398216 -26.737212 -27.197820 5
106.055411 -27.796931 -27.946761 5
102.999883 -27.958671 -28.178089 5
100.054028 -27.776704 -28.206276 5
97.096272 -27.683527 -28.275887 5
94.142861 -27.621362 -28.354308 5
91.196853 -27.578445 -28.434945 5
88.272829 -27.488030 -28.480274 5
85.348538 -27.446299 -28.544521 5
82.437418 -27.389850 -28.592047 5
79.538272 -27.319007 -28.623104 5
76.642148 -27.278529 -28.662898 5
73.748517 -27.273821 -28.714493 5
70.870001 -27.226033 -28.733643 5
67.997708 -27.183355 -28.747459 5
65.032403 -27.896407 -29.177205 9
62.017927 -29.199760 -29.929905 9
59.043687 -30.448260 -30.643606 9
56.440034 -28.290196 -29.438056 9
53.197249 -32.880919 -32.010812 9
50.354574 -33.651243 -32.432386 9
47.555517 -34.072150 -32.650131 9
44.782707 -34.242180 -32.719324 9
42.024093 -34.236226 -32.681955 9
39.265186 -34.290144 -32.670399 9
36.510654 -34.268142 -32.608407 9
33.755335 -34.327280 -32.584189 9
31.001631 -34.348686 -32.530961 9
28.248543 -34.435182 -32.506521 9
25.495534 -34.473963 -32.447425 9
22.741781 -34.508963 -32.378352 9
19.989334 -34.609464 -32.338317 9
17.233551 -34.652551 -32.258055 9
14.478979 -34.752406 -32.201910 9
11.717485 -34.778065 -32.095952 9
8.961735 -34.919177 -32.047252 9
6.196756 -34.981247 -31.945891 9
3.432002 -35.085365 -31.860289 9
0.662885 -35.184762 -31.763950 9
-2.488927 -32.271499 -29.949386 9
-4.898966 -35.313899 -31.507291 9
-7.687752 -35.388806 -31.372461 9
-10.474923 -35.517125 -31.259733 9
-13.269093 -35.641162 -31.136244 9
-16.074251 -35.742949 -30.991653 9
-18.880639 -35.880632 -30.859093 9
-21.698987 -35.998357 -30.706574 9
-24.515001 -36.169217 -30.575904 9
-27.343503 -36.322138 -30.426289 9
-30.177693 -36.491262 -30.277246 9
-33.023983 -36.651086 -30.114017 9
-35.904654 -36.719141 -29.888829 9
-38.778545 -36.862194 -29.697809 9
-41.661565 -37.017010 -29.504412 9
-44.555628 -37.178078 -29.305355 9
-47.495976 -37.231186 -29.034038 9
-50.507742 -37.111010 -28.651821 9
-53.714476 -36.461304 -27.949591 9
-57.113743 -35.346884 -26.963087 9
-60.665369 -33.932025 -25.786683 9
-64.260914 -32.548043 -24.613881 9
-67.661051 -31.833060 -23.821062 8
-70.735989 -32.062536 -23.573777 8
-73.823630 -32.306935 -23.324646 8
-76.961882 -32.475011 -23.019289 8
-80.097473 -32.701115 -22.737269 8
-83.263095 -32.907563 -22.432213 8
-86.438483 -33.143203 -22.133106 8
-89.633693 -33.385978 -21.826616 8
-92.828882 -33.679162 -21.538660 8
-96.071490 -33.923626 -21.209304 8
-99.354435 -34.139376 -20.850179 8
-102.656679 -34.371620 -20.488389 8
-106.475047 -33.679908 -19.549249 8
-112.841498 -28.381742 -15.769604 8
-118.180220 -25.263360 -13.293773 7
-121.756159 -25.464927 -12.838421 7
-125.379965 -25.645539 -12.355275 7
-129.064716 -25.787073 -11.832575 7
-132.748498 -25.995921 -11.336073 7
-136.515640 -26.135014 -10.779991 7
-140.283089 -26.341231 -10.249509 7
-144.133853 -26.485750 -9.663357 7
-148.033078 -26.627169 -9.057779 7
146.921091 -21.365819 -17.552473 6
142.519275 -23.881562 -19.315226 6
139.271429 -23.769592 -19.515260 6
136.061272 -23.618443 -19.681444 6
132.859257 -23.499450 -19.855889 6
129.660594 -23.426319 -20.046687 6
126.492946 -23.323841 -20.209871 6
123.345940 -23.216509 -20.359961 6
120.250120 -23.009871 -20.441993 6
117.433241 -21.984056 -20.036841 5
112.923026 -26.391731 -22.785416 5
108.959305 -29.373537 -24.689437 5
105.690402 -30.237719 -25.350334 5
102.701319 -30.219030 -25.488551 5
99.732888 -30.178721 -25.604935 5
96.801301 -30.047224 -25.659318 5
93.852671 -30.031221 -25.771523 5
90.920731 -29.998670 -25.865115 5
88.002530 -29.957334 -25.944677 5
85.107451 -29.857693 -25.981692 5
82.206889 -29.831158 -26.052132 5
79.323121 -29.768003 -26.092685 5
76.441831 -29.739075 -26.144291 5
73.569066 -29.710676 -26.187552 5
70.703442 -29.687809 -26.225397 5
67.846150 -29.659052 -26.251288 5
64.886155 -30.457361 -26.744994 9
61.896365 -31.698765 -27.485204 9
58.934094 -32.989267 -28.245088 9
56.006553 -34.265790 -28.988471 9
53.129417 -35.339930 -29.607030 9
50.310940 -36.014864 -29.987560 9
47.530552 -36.395310 -30.190404 9
44.778060 -36.483390 -30.216774 9
42.033297 -36.499436 -30.193526 9
39.289553 -36.551166 -30.182706 9
36.549696 -36.546312 -30.131148 9
33.809665 -36.603637 -30.107296 9
31.071267 -36.613093 -30.047703 9
28.333354 -36.705836 -30.028017 9
25.595419 -36.736358 -29.964271 9
22.857770 -36.804765 -29.914230 9
20.118717 -36.851672 -29.843578 9
17.378041 -36.897811 -29.764259 9
14.635688 -36.952056 -29.681379 9
11.893353 -37.042407 -29.611145 9
9.143818 -37.074075 -29.498586 9
6.395896 -37.168195 -29.413903 9
3.642040 -37.238306 -29.306903 9
0.887465 -37.341702 -29.210828 9
-1.871195 -37.447651 -29.107788 9
-4.638693 -37.525053 -28.979597 9
-7.408538 -37.628303 -28.857892 9
-10.184424 -37.732533 -28.728127 9
-12.961867 -37.867599 -28.607711 9
-15.753443 -37.961559 -28.454473 9
-18.555910 -38.041694 -28.284247 9
-21.359077 -38.163684 -28.129647 9
-24.171643 -38.283275 -27.964639 9
-26.983117 -38.450338 -27.818536 9
-29.811597 -38.584224 -27.643734 9
-32.651599 -38.714287 -27.457405 9
-35.499219 -38.858717 -27.270214 9
-38.368848 -38.964972 -27.050882 9
-41.244179 -39.098058 -26.837852 9
-44.129090 -39.244012 -26.622763 9
-47.025195 -39.398442 -26.402905 9
-51.025847 -36.109618 -24.110948 9
-53.208709 -38.648745 -25.297845 9
-56.576648 -37.586014 -24.314070 9
-60.085348 -36.253320 -23.153669 9
-63.660836 -34.883526 -21.955895 9
-67.135958 -33.927701 -20.993515 8
-70.197465 -34.156643 -20.736247 8
-73.281704 -34.375432 -20.461643 8
-76.385743 -34.594204 -20.175655 8
-79.521302 -34.787534 -19.862513 8
-82.662173 -35.019544 -19.561252 8
-85.857500 -35.180071 -19.204017 8
-89.040692 -35.420774 -18.883860 8
-92.233435 -35.691763 -18.570078 8
-95.504747 -35.851720 -18.174785 8
-98.767356 -36.085042 -17.812025 8
-102.051284 -36.330034 -17.443380 8
-105.703835 -35.931915 -16.657757 8
-111.718496 -31.269699 -13.170714 8
-117.973622 -26.472234 -9.562508 7
-121.585422 -26.609630 -9.046173 7
-126.719869 -24.206754 -6.897232 7
-128.962721 -26.818609 -7.923672 7
-132.706823 -26.932861 -7.343771 7
-136.501377 -27.034761 -6.738807 7
-140.321436 -27.166453 -6.135490 7
-144.198367 -27.280690 -5.502935 7
-148.180702 -27.308970 -4.795875 7
145.442842 -25.947788 -15.992567 6
142.186641 -25.825996 -16.211180 6
138.947130 -25.719704 -16.427685 6
135.724784 -25.626781 -16.640923 6
132.536574 -25.501802 -16.823657 6
129.356666 -25.408839 -17.014674 6
126.209751 -25.279914 -17.173212 6
123.057853 -25.218224 -17.361400 6
119.939199 -25.114438 -17.513726 6
116.599111 -25.748024 -18.096684 5
112.460042 -29.049371 -20.262119 5
108.634331 -31.622615 -21.978201 5
105.414834 -32.362529 -22.587988 5
102.432321 -32.367896 -22.749577 5
99.484536 -32.300969 -22.858421 5
96.547876 -32.241860 -22.962356 5
93.631085 -32.152877 -23.039073 5
90.710904 -32.126821 -23.143770 5
87.812675 -32.055589 -23.212332 5
84.925332 -31.981463 -23.269946 5
82.042036 -31.935037 -23.334802 5
79.172698 -31.864978 -23.376544 5
76.298117 -31.871806 -23.454729 5
73.437288 -31.852437 -23.508382 5
70.589311 -31.803015 -23.535294 5
67.732965 -31.859770 -23.616045 5
64.799274 -32.562492 -24.069582 9
61.809788 -33.902074 -24.890349 9
58.864795 -35.158055 -25.652729 9
55.945463 -36.483909 -26.447547 9
53.093899 -37.428226 -27.008334 9
50.291891 -38.057025 -27.374213 9
47.524563 -38.429822 -27.580398 9
44.780739 -38.586933 -27.650717 9
42.049903 -38.592149 -27.622829 9
39.320065 -38.626986 -27.603974 9
36.593269 -38.625666 -27.555273 9
33.866879 -38.650693 -27.513671 9
31.141249 -38.683278 -27.468060 9
28.415999 -38.715309 -27.413632 9
25.690549 -38.746989 -27.350491 9
22.965314 -38.813112 -27.299240 9
20.238138 -38.844894 -27.219097 9
17.510074 -38.896905 -27.142385 9
14.782419 -38.989130 -27.080967 9
12.050488 -39.045880 -26.989873 9
9.315007 -39.096903 -26.886711 9
6.580363 -39.197444 -26.804330 9
3.833606 -39.213129 -26.662660 9
1.087312 -39.282553 -26.544204 9
-1.661123 -39.375775 -26.431119 9
-4.413502 -39.478224 -26.314679 9
-7.580223 -36.812617 -24.531532 9
-9.935915 -39.681554 -26.054017 9
-12.707938 -39.778035 -25.907011 9
-15.487865 -39.872604 -25.749703 9
-18.269952 -39.998767 -25.602183 9
-21.068765 -40.082675 -25.419909 9
-23.864942 -40.224318 -25.263071 9
-26.674264 -40.347933 -25.085900 9
-29.497882 -40.453993 -24.888525 9
-32.317838 -40.619967 -24.717823 9
-35.149039 -40.783121 -24.535715 9
-38.013909 -40.863550 -24.293377 9
-40.867113 -41.034329 -24.096085 9
-43.739903 -41.180932 -23.873958 9
-46.638528 -41.288029 -23.617368 9
-49.643628 -41.108264 -23.174012 9
-52.773507 -40.619201 -22.528738 9
-56.114361 -39.602927 -21.545520 9
-59.585510 -38.344194 -20.397997 9
-63.168629 -36.920187 -19.132619 9
-66.672224 -35.857619 -18.075759 8
-69.711817 -36.112894 -17.824967 8
-72.800581 -36.290633 -17.514184 8
-75.905626 -36.479318 -17.198276 8
-79.038798 -36.652368 -16.860383 8
-82.191529 -36.832761 -16.514680 8
-85.362518 -37.024892 -16.163753 8
-88.576271 -37.177209 -15.774739 8
-91.797286 -37.369357 -15.397805 8
-95.032274 -37.586638 -15.023546 8
-98.335904 -37.720781 -14.582544 8
-101.627497 -37.936214 -14.179580 8
-105.223401 -37.633251 -13.428458 8
-110.916998 -33.560513 -10.223003 8
-117.976355 -27.310111 -5.569878 7
-121.641686 -27.362059 -4.975367 7
-125.321499 -27.457984 -4.392647 7
-129.056555 -27.529344 -3.776655 7
-132.876870 -27.531508 -3.097375 7
-136.684828 -27.626773 -2.461160 7
-140.598765 -27.627702 -1.743801 7
-144.548447 -27.649739 -1.021021 7
-148.562202 -27.652108 -0.265167 7
145.273901 -27.489488 -12.628557 6
142.004171 -27.413096 -12.889315 6
138.777575 -27.290464 -13.109283 6
135.571556 -27.171728 -13.319853 6
132.370597 -27.095195 -13.544874 6
129.190536 -27.020073 -13.759203 6
126.050178 -26.891914 -13.929435 6
122.908407 -26.820677 -14.123552 6
119.796236 -26.717847 -14.287142 6
116.321749 -27.782565 -15.156547 5
112.159557 -31.180774 -17.444045 5
108.398242 -33.572760 -19.099630 5
105.205303 -34.256391 -19.696439 5
102.243093 -34.226928 -19.846348 5
99.301464 -34.175529 -19.972758 5
96.382736 -34.087391 -20.066779 5
93.458304 -34.071430 -20.194933 5
91.189221 -31.303059 -18.637512 5
87.680770 -33.889490 -20.330552 5
84.799195 -33.836086 -20.406752 5
81.928093 -33.780493 -20.472053 5
79.059869 -33.759091 -20.548614 5
76.205240 -33.714326 -20.601534 5
73.355839 -33.687929 -20.656206 5
70.503847 -33.729938 -20.743012 5
67.672453 -33.691367 -20.771644 5
64.712755 -34.660540 -21.401754 9
61.749618 -35.884777 -22.176935 9
58.813848 -37.157348 -22.972017 9
55.916105 -38.381716 -23.728674 9
53.073193 -39.347133 -24.319415 9
50.281586 -39.984004 -24.702225 9
47.527395 -40.330386 -24.900232 9
44.799538 -40.404816 -24.924675 9
42.077365 -40.446386 -24.920388 9
39.359186 -40.456657 -24.888315 9
36.641329 -40.517367 -24.878001 9
33.926295 -40.531474 -24.830615 9
31.211817 -40.547013 -24.775264 9
28.497711 -40.613770 -24.742163 9
25.783394 -40.636252 -24.673337 9
23.068103 -40.658109 -24.595255 9
20.352237 -40.704608 -24.523255 9
17.633998 -40.735078 -24.432586 9
14.914894 -40.792345 -24.349278 9
12.196642 -40.896278 -24.285444 9
9.472620 -40.955000 -24.185064 9
6.745192 -41.015836 -24.076920 9
4.015595 -41.095610 -23.971251 9
1.277437 -41.138420 -23.833829 9
-1.457233 -41.254260 -23.731909 9
-4.197882 -41.360778 -23.615071 9
-6.948207 -41.439079 -23.471626 9
-9.699653 -41.552650 -23.340478 9
-12.463040 -41.634552 -23.180417 9
-15.236626 -41.703610 -23.002891 9
-18.008092 -41.829409 -22.850750 9
-20.789513 -41.946339 -22.683480 9
-23.580251 -42.061732 -22.505503 9
-26.384162 -42.161597 -22.308031 9
-29.219729 -42.173021 -22.045581 9
-32.041124 -42.295174 -21.841779 9
-34.881672 -42.387965 -21.609470 9
-37.707531 -42.582286 -21.430249 9
-40.573784 -42.673623 -21.176260 9
-43.442855 -42.804027 -20.936135 9
-47.195099 -40.098759 -18.901713 9
-49.307288 -42.803706 -20.259029 9
-52.406217 -42.382495 -19.637473 9
-55.756539 -41.312765 -18.592433 9
-59.210904 -40.079338 -17.428460 9
-62.777128 -38.680125 -16.143104 9
-66.438693 -37.177962 -14.775259 9
-69.349335 -37.752599 -14.718174 8
-72.431980 -37.925614 -14.392593 8
-75.546538 -38.072284 -14.037574 8
-78.682170 -38.222407 -13.671967 8
-81.857203 -38.336257 -13.269858 8
-85.025613 -38.520555 -12.900021 8
-88.239051 -38.660876 -12.488154 8
-91.463653 -38.833579 -12.083567 8
-94.720007 -38.996433 -11.658525 8
-98.027165 -39.114692 -11.189847 8
-101.316842 -39.325494 -10.767333 8
-104.856531 -39.121880 -10.055958 8
-110.642192 -34.884415 -6.649922 8
-118.284826 -27.608771 -1.183022 7
-121.950280 -27.682214 -0.577178 7
-125.705031 -27.671890 0.102547 7
-129.510341 -27.650479 0.808268 7
-133.353490 -27.641908 1.524354 7
-137.239032 -27.640654 2.254940 7
-141.231436 -27.549124 3.067042 7
-145.230822 -27.527034 3.852570 7
-149.334038 -27.429378 4.711237 7
148.589972 -28.674357 -8.688678 6
145.258768 -28.681036 -9.030727 6
142.001160 -28.578630 -9.290122 6
138.758216 -28.498178 -9.550907 6
135.528212 -28.443654 -9.815730 6
132.333794 -28.356504 -10.047540 6
129.136184 -28.334686 -10.308677 6
125.978284 -28.263858 -10.526795 6
122.869432 -28.109824 -10.680609 6
119.742291 -28.060242 -10.888847 6
116.210496 -29.306685 -11.901818 5
111.992955 -32.884029 -14.367392 5
108.258834 -35.202502 -16.025365 5
105.098573 -35.796622 -16.587023 5
102.137520 -35.786442 -16.758379 5
99.203964 -35.730514 -16.890524 5
96.289963 -35.650782 -16.997378 5
93.380473 -35.602265 -17.113464 5
90.489451 -35.527021 -17.202643 5
87.598946 -35.498334 -17.310765 5
84.717272 -35.481226 -17.416037 5
81.851864 -35.437279 -17.494588 5
78.992803 -35.410578 -17.573970 5
76.140742 -35.397048 -17.651698 5
73.302595 -35.354209 -17.701395 5
70.471750 -35.314048 -17.743033 5
67.637753 -35.344694 -17.819005 5
64.677674 -36.372355 -18.504850 9
61.712231 -37.680287 -19.354909 9
58.793700 -38.880047 -20.127966 9
55.908264 -40.065867 -20.882750 9
53.072479 -41.043368 -21.498708 9
50.283304 -41.757660 -21.941906 9
47.540134 -42.084756 -22.135435 9
44.819047 -42.208486 -22.193485 9
42.108135 -42.228075 -22.177677 9
39.399596 -42.248206 -22.153032 9
36.693585 -42.241687 -22.102648 9
33.987478 -42.287220 -22.075444 9
31.282758 -42.301194 -22.019437 9
28.578197 -42.339503 -21.969376 9
25.873407 -42.366852 -21.903290 9
23.168448 -42.418240 -21.842952 9
20.460445 -42.414263 -21.738861 9
17.754390 -42.502967 -21.683283 9
15.043083 -42.525131 -21.576896 9
12.330148 -42.569867 -21.475249 9
9.615941 -42.639547 -21.379820 9
6.894364 -42.666215 -21.248059 9
4.169404 -42.707273 -21.115808 9
1.442432 -42.775650 -20.991147 9
-1.288409 -42.854179 -20.863289 9
-4.019572 -42.970639 -20.749658 9
-6.764299 -43.031170 -20.591179 9
-9.514038 -43.104965 -20.431264 9
-12.269125 -43.191064 -20.269260 9
-15.033595 -43.268369 -20.091775 9
-17.805662 -43.350936 -19.907591 9
-20.587919 -43.428292 -19.709988 9
-23.380472 -43.503758 -19.500954 9
-26.174642 -43.618834 -19.306778 9
-28.977468 -43.741029 -19.106769 9
-31.797906 -43.836097 -18.878967 9
-34.623658 -43.957411 -18.657295 9
-37.461564 -44.079050 -18.425105 9
-40.314653 -44.192776 -18.176970 9
-43.204999 -44.227248 -17.866801 9
-46.076328 -44.377090 -17.619647 9
-49.049078 -44.254390 -17.185080 9
-52.142872 -43.831508 -16.543820 9
-55.492971 -42.747876 -15.460124 9
-58.975623 -41.422044 -14.203079 9
-62.551987 -39.986901 -12.857862 9
-66.141202 -38.669401 -11.571999 9
-69.126597 -39.036250 -11.373464 8
-72.226144 -39.158582 -11.001970 8
-75.331100 -39.321487 -10.644038 8
-78.479742 -39.434405 -10.239746 8
-81.631394 -39.595845 -9.853918 8
-84.850572 -39.662024 -9.390891 8
-88.074146 -39.777978 -8.946628 8
-91.307067 -39.931569 -8.513022 8
-94.566200 -40.087833 -8.066527 8
-97.906787 -40.139848 -7.534776 8
-101.258470 -40.232963 -7.015047 8
-104.793818 -40.043406 -6.287505 8
-110.930094 -35.185134 -2.361822 8
-118.831094 -27.494668 3.541853 7
-122.589933 -27.438050 4.263864 7
-126.438037 -27.304955 5.057760 7
-130.297073 -27.232943 5.829499 7
-134.237308 -27.106907 6.659027 7
-138.232754 -26.974247 7.514284 7
-142.374070 -26.698443 8.491498 7
-146.512576 -26.515936 9.426261 7
145.418931 -29.478327 -5.151338 6
142.145950 -29.402937 -5.443928 6
138.865313 -29.405493 -5.774210 6
135.628878 -29.361315 -6.060807 6
132.431537 -29.276642 -6.308153 6
129.258747 -29.183751 -6.537551 6
126.070736 -29.188634 -6.817976 6
122.908858 -29.181330 -7.078068 6
119.790725 -29.106173 -7.282033 6
116.215643 -30.479025 -8.409359 5
111.940680 -34.226991 -11.054466 5
108.211008 -36.533223 -12.752864 5
105.876518 -34.319861 -11.528078 5
102.094207 -37.126898 -13.522104 5
99.173877 -37.037936 -13.641767 5
96.252985 -37.000414 -13.783627 5
93.336593 -36.998112 -13.937296 5
90.447941 -36.934532 -14.041034 5
87.562218 -36.907902 -14.157872 5
84.688666 -36.877533 -14.261831 5
81.826965 -36.841064 -14.351489 5
78.978227 -36.788136 -14.420319 5
76.127569 -36.794941 -14.517018 5
73.288995 -36.786353 -14.593684 5
70.460248 -36.769399 -14.654872 5
67.637047 -36.767124 -14.715330 5
64.681182 -37.799719 -15.424912 9
61.718174 -39.126977 -16.311799 9
58.802372 -40.348982 -17.121430 9
55.912749 -41.630482 -17.958897 9
53.086854 -42.575334 -18.572205 9
50.307029 -43.257862 -19.008846 9
47.573115 -43.548637 -19.186536 9
44.859658 -43.652634 -19.235781 9
42.155300 -43.667459 -19.218712 9
39.452743 -43.695847 -19.200737 9
36.753677 -43.668666 -19.137824 9
34.053856 -43.706601 -19.106844 9
31.355201 -43.729596 -19.056797 9
28.657071 -43.804267 -19.030147 9
25.957722 -43.762862 -18.919878 9
23.258885 -43.823381 -18.865044 9
20.558129 -43.852088 -18.780285 9
17.855937 -43.891137 -18.692486 9
15.150866 -43.920563 -18.588849 9
12.446868 -44.008211 -18.512769 9
9.735647 -44.037116 -18.389324 9
7.022380 -44.089694 -18.271241 9
4.310508 -44.197123 -18.178536 9
1.580443 -44.178729 -17.995095 9
-1.145342 -44.250224 -17.859436 9
-3.879820 -44.299782 -17.699623 9
-6.618625 -44.365808 -17.540309 9
-9.360187 -44.458545 -17.388074 9
-12.116707 -44.504819 -17.195559 9
-14.876672 -44.579973 -17.011365 9
-17.641745 -44.673636 -16.828748 9
-20.415077 -44.770438 -16.637673 9
-23.205393 -44.832374 -16.413301 9
-25.998586 -44.929758 -16.201261 9
-28.807992 -45.004319 -15.963484 9
-31.615010 -45.136389 -15.752343 9
-34.452291 -45.196019 -15.482702 9
-37.288156 -45.311068 -15.238157 9
-40.139798 -45.416817 -14.976172 9
-43.006390 -45.519587 -14.700727 9
-45.899536 -45.584442 -14.388551 9
-48.859131 -45.493221 -13.961002 9
-51.955832 -45.052180 -13.288487 9
-55.266186 -44.077783 -12.246925 9
-58.794528 -42.614887 -10.863359 9
-62.408788 -41.073757 -9.409475 9
-66.061426 -39.590271 -7.975562 9
-69.021845 -40.022458 -7.811339 8
-72.100893 -40.195983 -7.460254 8
-75.227715 -40.305757 -7.052486 8
-78.394933 -40.376707 -6.604325 8
-81.584451 -40.455221 -6.146836 8
-84.816869 -40.497723 -5.650037 8
-88.070686 -40.555258 -5.148352 8
-91.309683 -40.703941 -4.693850 8
-94.668307 -40.667406 -4.096364 8
-97.996543 -40.757198 -3.569707 8
-101.344722 -40.869516 -3.042391 8
-105.078749 -40.322422 -2.039334 8
-112.296890 -33.534324 3.345940 8
-119.775142 -26.688604 8.825028 7
-123.655926 -26.470774 9.692277 7
-127.648280 -26.147766 10.654919 7
-131.667487 -25.869447 11.608019 7
-135.803681 -25.490470 12.655370 7
-143.185616 -20.102901 17.311170 7
-144.329411 -24.619335 14.903238 7
-148.792547 -24.027824 16.177540 7
145.732043 -29.937854 -1.006782 6
142.423815 -29.925475 -1.358368 6
139.141495 -29.914053 -1.696591 6
135.893760 -29.879637 -2.005658 6
132.669681 -29.845585 -2.301465 6
129.457392 -29.840865 -2.603525 6
126.307672 -29.726998 -2.819800 6
123.159230 -29.663635 -3.056882 6
120.017087 -29.638887 -3.306901 6
116.350810 -31.263437 -4.636668 5
112.083325 -34.961353 -7.322279 5
108.292887 -37.444813 -9.187050 5
105.078361 -38.227972 -9.914140 5
102.133967 -38.178083 -10.079446 5
99.201520 -38.137345 -10.239354 5
96.296118 -38.046023 -10.354688 5
93.382355 -38.036885 -10.512863 5
90.478561 -38.041451 -10.668889 5
87.598512 -37.997585 -10.782104 5
84.727147 -37.964742 -10.891634 5
81.862441 -37.951427 -11.003116 5
79.015645 -37.898901 -11.078171 5
76.666273 -35.139490 -9.372587 5
73.801644 -35.115030 -9.445659 5
70.514359 -37.813982 -11.287077 5
67.697236 -37.780093 -11.331998 5
64.694768 -39.157343 -12.287589 9
61.742996 -40.426843 -13.161959 9
58.828605 -41.667870 -14.007085 9
55.946692 -42.912155 -14.843867 9
53.122555 -43.879124 -15.489479 9
50.351471 -44.506828 -15.903709 9
47.615900 -44.877686 -16.140431 9
44.909239 -44.951184 -16.173263 9
42.210467 -44.948102 -16.146212 9
39.512302 -44.980183 -16.132180 9
36.817707 -44.958157 -16.072915 9
34.122843 -44.976725 -16.030218 9
31.428448 -45.038888 -16.006068 9
28.734603 -45.013411 -15.914725 9
26.040958 -45.083969 -15.876188 9
23.347441 -45.155247 -15.828179 9
20.651061 -45.163860 -15.729178 9
17.954367 -45.214347 -15.647560 9
15.254434 -45.245080 -15.542944 9
12.551079 -45.270662 -15.424838 9
9.849511 -45.363527 -15.340758 9
7.134710 -45.345105 -15.173386 9
4.424753 -45.429612 -15.063417 9
1.705073 -45.466313 -14.911699 9
-1.020250 -45.504744 -14.750730 9
-3.753457 -45.532555 -14.572287 9
-6.485157 -45.619463 -14.422356 9
-9.226780 -45.685336 -14.247957 9
-11.983381 -45.708325 -14.034457 9
-14.738228 -45.791709 -13.850212 9
-17.504465 -45.860226 -13.645251 9
-20.284519 -45.907613 -13.415253 9
-23.077827 -45.942817 -13.166001 9
-25.868554 -46.040235 -12.947051 9
-28.678968 -46.100494 -12.691967 9
-31.504799 -46.148490 -12.417178 9
-34.321626 -46.281740 -12.188030 9
-37.168625 -46.348740 -11.902697 9
-40.025455 -46.431429 -11.616047 9
-42.885699 -46.552022 -11.343005 9
-45.786763 -46.587438 -11.000163 9
-48.751646 -46.477800 -10.546284 9
-51.856841 -46.011239 -9.836237 9
-55.167420 -45.038925 -8.766460 9
-58.745113 -43.442207 -7.252905 9
-62.391601 -41.823390 -5.705034 9
-66.083163 -40.250236 -4.168826 9
-69.003395 -40.794470 -4.072693 8
-72.161774 -40.780086 -3.577782 8
-75.327525 -40.810183 -3.098850 8
-78.515461 -40.848827 -2.610886 8
-81.710833 -40.930725 -2.137867 8
-84.955628 -40.962702 -1.614562 8
-88.229268 -40.994873 -1.075515 8
-91.522549 -41.048519 -0.535383 8
-94.956304 -40.881132 0.177413 8
-98.340589 -40.884461 0.787026 8
-103.590445 -37.394242 3.900308 8
-105.592099 -40.187168 2.561778 8
-117.529672 -24.900521 14.187816 7
-121.491729 -24.535628 15.178118 7
-125.655931 -23.912878 16.377110 7
-129.851385 -23.341347 17.563441 7
-134.234849 -22.563025 18.925213 7
-138.852939 -21.520890 20.506695 7
-143.735725 -20.189616 22.329721 7
-149.063744 -18.316547 24.584290 7
146.368305 -29.679463 3.684597 6
143.022821 -29.712604 3.282540 6
139.720190 -29.709458 2.920217 6
136.417941 -29.769236 2.529195 6
133.165401 -29.769480 2.193306 6
129.926810 -29.796079 1.853412 6
126.728727 -29.776796 1.558668 6
123.525126 -29.833945 1.225416 6
120.355918 -29.856667 0.929087 6
116.700284 -31.411201 -0.393968 5
112.404622 -35.146894 -3.179698 5
109.856703 -33.545864 -2.332640 5
105.219347 -38.941687 -6.206912 5
102.251224 -38.964106 -6.431063 5
99.327286 -38.883844 -6.573931 5
96.400036 -38.866449 -6.747425 5
93.499699 -38.796560 -6.873872 5
90.593727 -38.800385 -7.038362 5
87.707799 -38.772653 -7.170128 5
84.829767 -38.761598 -7.301708 5
81.973900 -38.696691 -7.385853 5
79.112067 -38.711024 -7.511949 5
76.265111 -38.700815 -7.610438 5
73.426439 -38.696103 -7.701539 5
70.596652 -38.690213 -7.780849 5
67.761885 -38.772254 -7.908046 9
64.777624 -40.014532 -8.800243 9
61.814486 -41.362171 -9.751555 9
58.897269 -42.623364 -10.633932 9
56.010431 -43.913582 -11.524783 9
53.482364 -41.697588 -10.061972 9
50.408505 -45.609834 -12.683670 9
47.678990 -45.927488 -12.893005 9
44.971556 -46.045697 -12.958740 9
42.275549 -46.036317 -12.928895 9
39.580023 -46.061799 -12.912034 9
36.887275 -46.058464 -12.865596 9
34.194639 -46.097006 -12.836848 9
31.503253 -46.113716 -12.783181 9
28.811876 -46.116854 -12.710096 9
26.119733 -46.121040 -12.627351 9
23.427383 -46.166331 -12.561769 9
20.731865 -46.155398 -12.448100 9
18.037303 -46.220933 -12.375285 9
15.336540 -46.212141 -12.242121 9
12.634652 -46.242688 -12.124848 9
9.932248 -46.311319 -12.022638 9
7.223056 -46.343582 -11.885373 9
4.510083 -46.385496 -11.743943 9
1.794136 -46.446431 -11.604627 9
-1.304026 -43.526918 -9.440890 9
-3.657563 -46.545268 -11.278051 9
-6.395771 -46.578248 -11.087262 9
-9.143919 -46.597823 -10.876326 9
-11.890291 -46.678739 -10.695875 9
-14.653416 -46.711515 -10.471520 9
-17.422381 -46.764197 -10.249364 9
-20.197045 -46.837346 -10.029739 9
-22.990125 -46.871982 -9.772284 9
-25.789934 -46.928120 -9.517827 9
-28.599748 -46.991808 -9.256744 9
-31.413417 -47.089253 -9.006932 9
-34.252829 -47.135256 -8.709718 9
-37.110073 -47.167808 -8.390948 9
-39.980824 -47.206236 -8.063762 9
-42.865827 -47.249840 -7.727526 9
-45.758579 -47.321471 -7.397948 9
-48.737668 -47.176030 -6.904385 9
-51.869146 -46.641362 -6.125458 9
-55.206195 -45.607019 -4.981690 9
-58.777186 -44.047539 -3.452265 9
-62.523503 -42.176592 -1.684100 9
-66.373450 -40.215231 0.169277 9
-69.236738 -40.935529 0.149760 8
-72.397853 -40.941998 0.648515 8
-75.585795 -40.945788 1.164602 8
-78.805491 -40.938068 1.704632 8
-82.099164 -40.827466 2.334335 8
-85.397234 -40.776639 2.938043 8
-88.702525 -40.777019 3.521869 8
-92.067936 -40.717769 4.165844 8
-95.480353 -40.632309 4.846563 8
-98.961243 -40.483178 5.591857 8
-102.432741 -40.425813 6.289223 8
-107.047080 -38.320610 8.505339 8
-120.777506 -19.922572 22.729201 7
-125.981346 -17.526142 25.268640 7
147.335465 -28.696098 8.967671 6
143.931714 -28.801058 8.493436 6
140.561574 -28.897204 8.041154 6
137.235369 -28.955689 7.630793 6
133.896111 -29.115149 7.164658 6
132.070971 -25.376709 9.443712 6
127.361816 -29.269691 6.392350 6
124.127163 -29.359125 6.019442 6
120.908472 -29.470757 5.645292 6
117.262047 -30.937803 4.342123 5
112.889994 -34.837292 1.365600 5
108.739888 -38.378333 -1.341279 5
105.465211 -39.313688 -2.223199 5
102.477662 -39.378222 -2.488185 5
99.525571 -39.376501 -2.694770 5
96.597060 -39.342146 -2.866467 5
93.674238 -39.339103 -3.047578 5
90.767430 -39.325721 -3.209457 5
87.871170 -39.321331 -3.365545 5
84.983311 -39.334069 -3.521526 5
82.113702 -39.315380 -3.644102 5
79.253235 -39.303284 -3.759526 5
76.400350 -39.303913 -3.872082 5
73.563786 -39.264879 -3.945895 5
70.737560 -39.211196 -3.998232 5
67.895022 -39.314335 -4.146676 9
64.887799 -40.685152 -5.152120 9
61.926682 -41.987123 -6.098542 9
58.989917 -43.382453 -7.097262 9
56.098944 -44.688861 -8.023685 9
53.264559 -45.751914 -8.772358 9
50.486750 -46.466145 -9.271333 9
47.752226 -46.847510 -9.531691 9
45.045153 -46.966283 -9.601596 9
42.347264 -47.004907 -9.605925 9
39.653421 -47.013209 -9.578783 9
36.961924 -46.995710 -9.523256 9
34.270026 -47.032182 -9.493972 9
31.579637 -46.996118 -9.404265 9
28.888629 -47.043547 -9.361034 9
26.197020 -47.042305 -9.273681 9
23.503109 -47.009920 -9.154158 9
20.807073 -46.992897 -9.034333 9
18.112806 -47.071942 -8.969655 9
15.412192 -47.069214 -8.837906 9
12.711282 -47.115796 -8.729145 9
10.002576 -47.107798 -8.571827 9
7.291863 -47.132972 -8.426307 9
4.577860 -47.174187 -8.280762 9
1.857824 -47.208224 -8.119112 9
-0.862639 -47.286031 -7.976519 9
-3.603025 -47.259847 -7.750645 9
-6.341930 -47.300915 -7.559921 9
-9.092668 -47.315890 -7.339592 9
-11.846565 -47.364170 -7.130804 9
-14.606231 -47.428787 -6.921728 9
-17.379928 -47.467603 -6.682906 9
-20.158733 -47.531507 -6.449699 9
-22.952266 -47.575230 -6.190379 9
-25.761144 -47.602036 -5.907030 9
-28.581891 -47.631700 -5.613339 9
-31.406386 -47.698886 -5.333570 9
-34.256062 -47.719863 -5.008662 9
-37.132114 -47.698785 -4.641194 9
-40.004073 -47.749700 -4.311573 9
-42.901151 -47.768723 -3.946207 9
-45.811441 -47.800341 -3.576401 9
-48.820057 -47.581616 -3.014533 9
-51.962361 -47.036349 -2.204642 9
-55.406775 -45.715638 -0.823085 9
-59.100491 -43.848720 0.970058 9
-62.900778 -41.877751 2.859909 9
-66.688300 -40.127535 4.613107 8
-69.629222 -40.685373 4.717332 8
-72.849561 -40.586962 5.311730 8
-76.132757 -40.407361 5.981824 8
-79.401238 -40.334752 6.590996 8
-82.779745 -40.083460 7.348245 8
-86.136684 -39.956899 8.032103 8
-91.603916 -35.445736 11.968341 8
-92.982620 -39.643053 9.499526 8
-96.499691 -39.407737 10.319882 8
-100.108999 -39.071561 11.235351 8
-103.844987 -38.579664 12.288259 8
-146.352806 -2.026904 -29.928838 7
-142.711188 -5.188312 -29.545579 7
-139.496949 -8.729982 -28.678145 7
-136.860042 -12.820686 -27.128698 7
-134.279328 -17.008682 -25.488793 7
-149.583115 8.874438 -28.639256 7
-145.039744 6.480978 -29.282319 7
-140.688778 3.969344 -29.744746 7
-136.581662 1.282561 -29.957702 7
-132.690227 -1.570070 -29.942817 7
-129.067791 -4.652498 -29.625250 7
-125.808047 -8.072617 -28.876827 7
-123.071890 -12.013554 -27.479076 7
-121.467730 -17.120704 -24.640119 7
-105.771113 -14.586031 -34.877143 8
-103.548833 -19.013828 -32.881050 8
-101.800162 -24.037637 -30.208214 8
-145.406791 13.518395 -26.771108 7
-140.615466 11.359524 -27.752270 7
-135.993603 9.114672 -28.584154 7
-131.555319 6.761480 -29.242372 7
-127.326911 4.264929 -29.686536 7
-123.282635 1.634721 -29.937788 7
-119.432082 -1.150957 -29.974685 7
-114.682122 -3.050657 -31.164858 8
-105.706375 -0.701031 -37.813614 8
-102.005912 -3.432257 -37.827779 8
-98.634163 -6.493504 -37.424501 8
-95.498970 -9.813549 -36.706885 8
-92.697249 -13.520143 -35.527623 8
-90.509485 -17.960558 -33.476936 8
-88.915203 -23.169115 -30.541051 8
-88.812025 -30.272296 -25.397678 8
-146.896813 19.649433 -22.996839 7
-141.365803 18.036596 -24.834638 7
-136.852357 15.674761 -25.543708 7
-132.003716 13.643434 -26.696154 7
-127.335986 11.518019 -27.682372 7
-122.834738 9.300386 -28.511737 7
-118.503922 6.976412 -29.171271 7
