ply
format ascii 1.0
element vertex 1353
property float x
property float y
property float z
property int scalar_Label
end_header
24.451785 9.516968 -50.094560 9
21.430698 9.145012 -50.164632 9
18.415403 8.765066 -50.233801 9
15.405073 8.386612 -50.298156 9
12.399916 7.996097 -50.363287 9
9.396734 7.634909 -50.412083 9
6.400095 7.229603 -50.474896 9
3.406077 6.830872 -50.530764 9
0.419190 6.387429 -50.600928 9
-2.569718 5.986856 -50.649076 9
-5.561531 5.620742 -50.678632 9
-8.546077 5.201178 -50.726088 9
-11.537553 4.833411 -50.747675 9
-14.517468 4.384420 -50.798738 9
-17.496478 3.930126 -50.847684 9
-20.483678 3.519513 -50.874029 9
-23.471981 3.104152 -50.897934 9
-26.471285 2.731653 -50.899428 9
-29.450887 2.245560 -50.944024 9
-32.450494 1.840395 -50.950180 9
-35.442040 1.380365 -50.974824 9
-38.444215 0.947652 -50.983399 9
-41.457159 0.536738 -50.978138 9
-44.561681 0.449342 -50.831486 9
-48.095643 1.875630 -50.039178 9
-53.570758 9.933265 -46.429216 9
-59.494838 18.839476 -42.442246 9
59.006798 20.339275 -42.308564 9
55.819971 20.127706 -42.364012 9
51.655289 6.345422 -48.156190 9
48.369658 2.017137 -49.946276 9
45.298084 0.021740 -50.745386 9
42.324907 -0.662377 -50.985210 9
39.384382 -0.815991 -50.995945 9
36.449212 -0.928421 -50.984736 9
33.516507 -1.096862 -50.992782 9
30.587461 -1.213605 -50.974404 9
27.660998 -1.388505 -50.976209 9
24.737095 -1.560063 -50.972100 9
21.815096 -1.728950 -50.962350 9
18.895228 -1.916683 -50.956101 9
15.975735 -2.088856 -50.938703 9
13.058613 -2.294892 -50.931190 9
10.141902 -2.500971 -50.919153 9
7.225807 -2.716556 -50.906612 9
4.310711 -2.948748 -50.896591 9
1.400729 -3.237923 -50.906357 9
-1.516737 -3.462838 -50.884047 9
-4.433834 -3.707538 -50.865572 9
-7.353964 -3.946547 -50.840000 9
-10.273245 -4.211839 -50.821024 9
-13.194977 -4.480727 -50.798893 9
-16.122432 -4.736463 -50.766367 9
-19.047736 -5.029242 -50.745024 9
-21.975196 -5.333064 -50.723662 9
-24.911176 -5.617169 -50.688967 9
-27.855243 -5.889607 -50.644343 9
-30.788179 -6.242218 -50.629520 9
-33.744870 -6.515435 -50.575351 9
-36.701461 -6.821215 -50.530291 9
-39.661925 -7.142179 -50.486785 9
-42.632880 -7.453832 -50.434127 9
-45.768056 -7.200519 -50.129623 9
-49.239160 -5.850186 -49.339299 9
-53.466618 -2.114775 -47.496328 9
-58.857183 5.060144 -44.132347 9
-62.689864 6.795711 -43.142392 9
-65.782072 6.114203 -43.207904 9
64.794126 13.762283 -41.204524 9
61.562650 12.707941 -41.643971 9
57.798049 5.689262 -44.678979 9
54.311994 0.191022 -47.047181 9
51.057015 -3.773817 -48.742748 9
47.989204 -6.129862 -49.732439 9
45.031872 -7.370124 -50.230929 9
42.136158 -7.815324 -50.377825 9
39.262700 -7.908443 -50.366270 9
36.391979 -8.024640 -50.360044 9
33.524853 -8.099317 -50.330907 9
30.659395 -8.256599 -50.333138 9
27.796432 -8.376375 -50.314203 9
24.934233 -8.458602 -50.274044 9
22.073827 -8.593749 -50.252278 9
19.214959 -8.749077 -50.234574 9
16.356751 -8.906243 -50.212883 9
13.500655 -9.096980 -50.201133 9
10.638385 -9.199676 -50.145863 9
7.776557 -9.334746 -50.099949 9
4.920055 -9.549939 -50.084438 9
2.058984 -9.730836 -50.048949 9
-0.802291 -9.930249 -50.016723 9
-3.673350 -10.071136 -49.953713 9
-6.538278 -10.289390 -49.919912 9
-9.403703 -10.526670 -49.889562 9
-12.273372 -10.758870 -49.851969 9
-15.158830 -10.921288 -49.778371 9
-18.030765 -11.195017 -49.749089 9
-20.910180 -11.452693 -49.707592 9
-23.801658 -11.676909 -49.646053 9
-26.696948 -11.915082 -49.585520 9
-29.604375 -12.130244 -49.509447 9
-32.508639 -12.394464 -49.449985 9
-35.421656 -12.654582 -49.383350 9
-38.336625 -12.940512 -49.322901 9
-41.268535 -13.194807 -49.242806 9
-44.240158 -13.341018 -49.108508 9
-47.435705 -12.751520 -48.636612 9
-50.986454 -11.071106 -47.664821 9
-55.088550 -7.787602 -45.958549 9
-59.548976 -3.677019 -43.865482 9
-64.593980 1.852344 -41.114364 9
-72.117637 14.167908 -35.257949 8
-74.633717 11.513055 -36.200058 8
-77.468329 9.830349 -36.695421 8
-80.405149 8.456915 -37.044901 8
-83.413750 7.285337 -37.296883 8
-86.488246 6.281530 -37.466403 8
-89.561915 5.268188 -37.634623 8
-92.696443 4.389121 -37.735060 8
-95.839141 3.511275 -37.828823 8
-98.990155 2.633113 -37.916532 8
-102.211735 1.887299 -37.936364 8
-105.585673 1.433562 -37.813242 8
67.483660 8.730721 -39.499538 9
63.744751 3.069024 -42.031962 9
60.374607 -0.273964 -43.517846 9
57.023645 -4.213416 -45.266849 9
53.812465 -7.529090 -46.730940 9
50.712030 -10.339275 -47.963313 9
47.742502 -12.064015 -48.703180 9
44.851848 -13.033246 -49.098621 9
42.011446 -13.350985 -49.196156 9
39.186222 -13.459148 -49.194404 9
36.365715 -13.512888 -49.163122 9
33.546566 -13.610165 -49.146409 9
30.729611 -13.709211 -49.125461 9
27.914134 -13.787751 -49.090222 9
25.100036 -13.900859 -49.065522 9
22.287053 -14.022605 -49.039667 9
19.473586 -14.120858 -48.998128 9
16.660620 -14.240091 -48.960981 9
13.845992 -14.343633 -48.911627 9
11.033680 -14.501295 -48.881655 9
8.217150 -14.620120 -48.828952 9
5.405048 -14.812273 -48.804353 9
2.584634 -14.937834 -48.744359 9
-0.233036 -15.117156 -48.703581 9
-3.054399 -15.289525 -48.654423 9
-5.879789 -15.458355 -48.598397 9
-8.705374 -15.654690 -48.549622 9
-11.540683 -15.815712 -48.479410 9
-14.375763 -16.011278 -48.419608 9
-17.212271 -16.229187 -48.364642 9
-20.064125 -16.394958 -48.280356 9
-22.912257 -16.615760 -48.215807 9
-25.772142 -16.812371 -48.134623 9
-28.624589 -17.077990 -48.079611 9
-31.509569 -17.233221 -47.968136 9
-34.386119 -17.464264 -47.885892 9
-37.263128 -17.728802 -47.813404 9
-40.162106 -17.943911 -47.712263 9
-43.056826 -18.212940 -47.630246 9
-46.114561 -17.949700 -47.294913 9
-49.403128 -16.989513 -46.628185 9
-53.107134 -14.815596 -45.387078 9
-56.870076 -12.669712 -44.148644 9
-61.016167 -9.578306 -42.456770 9
-63.995076 -10.143402 -42.467938 9
-67.039636 -10.547187 -42.397171 9
-73.497437 -1.699996 -37.961325 8
-76.624367 -2.243107 -37.933993 8
-79.761362 -2.790642 -37.902101 8
-82.921163 -3.312588 -37.851334 8
-86.091652 -3.842315 -37.797363 8
-89.273100 -4.380496 -37.740426 8
-92.476125 -4.904217 -37.669494 8
-95.676315 -5.470614 -37.611749 8
-98.917610 -5.983585 -37.521095 8
-102.182723 -6.485498 -37.417592 8
-105.549328 -6.820553 -37.225889 8
-121.615522 10.466528 -28.106061 7
-124.145101 7.955641 -28.922915 7
-127.118838 6.313890 -29.312402 7
-130.202787 4.876394 -29.596141 7
-133.410232 3.650717 -29.769443 7
-136.709833 2.566737 -29.865773 7
-140.014215 1.466441 -29.962383 7
-143.414529 0.498686 -29.985443 7
-146.847312 -0.448899 -29.990012 7
107.754991 4.874790 -36.874893 5
104.049707 2.880750 -37.871840 5
100.915416 2.978381 -37.891630 5
97.816645 3.176236 -37.858814 5
94.717079 3.329309 -37.840678 5
91.624182 3.469113 -37.822640 5
88.529964 3.557175 -37.822542 5
85.453267 3.687087 -37.797074 5
82.375133 3.764650 -37.789878 5
79.297057 3.792621 -37.799692 5
76.232658 3.851022 -37.789510 5
73.165299 3.838318 -37.806337 5
70.113311 3.876176 -37.793905 5
65.596400 -7.697027 -43.147204 9
62.699903 -7.485299 -43.042924 9
59.747294 -7.819280 -43.185544 9
56.572398 -10.619842 -44.464062 9
53.476535 -13.237854 -45.653005 9
50.466069 -15.500568 -46.672520 9
47.563361 -16.871502 -47.274213 9
44.721019 -17.703268 -47.621170 9
41.921778 -17.990602 -47.710771 9
39.138581 -18.024772 -47.677782 9
36.355705 -18.135209 -47.674836 9
33.576557 -18.185618 -47.638739 9
30.798569 -18.298192 -47.626168 9
28.021873 -18.337601 -47.574304 9
25.247115 -18.480522 -47.565188 9
22.471097 -18.531879 -47.508174 9
19.696395 -18.639297 -47.471864 9
16.921856 -18.756660 -47.434817 9
14.147675 -18.891037 -47.400319 9
11.368261 -18.965102 -47.332295 9
8.592615 -19.117682 -47.295467 9
5.811613 -19.230127 -47.234454 9
3.029768 -19.363686 -47.177828 9
0.244202 -19.492229 -47.113347 9
-2.538612 -19.673505 -47.068039 9
-5.333732 -19.788069 -46.985897 9
-8.127264 -19.949626 -46.920193 9
-10.921161 -20.139837 -46.862335 9
-13.726007 -20.293447 -46.781598 9
-16.534544 -20.461137 -46.701766 9
-19.343731 -20.659772 -46.630777 9
-22.163370 -20.838244 -46.544473 9
-24.984202 -21.046549 -46.466431 9
-27.821582 -21.213708 -46.362998 9
-30.655716 -21.433404 -46.278511 9
-33.501761 -21.638838 -46.181250 9
-36.362637 -21.822907 -46.067731 9
-39.220635 -22.057427 -45.972099 9
-42.100455 -22.249417 -45.849959 9
-45.043841 -22.261197 -45.635201 9
-48.190176 -21.649663 -45.114720 9
-51.613263 -20.247958 -44.206559 9
-55.392717 -17.895730 -42.831174 9
-58.670928 -17.265872 -42.275170 9
-61.758448 -17.288991 -42.026297 9
-65.233101 -16.284153 -41.272063 9
-71.358835 -8.208189 -37.075525 8
-74.471795 -8.615653 -36.981398 8
-77.588545 -9.050684 -36.893482 8
-80.723618 -9.476907 -36.793978 8
-83.864438 -9.927298 -36.698892 8
-87.050206 -10.310309 -36.563234 8
-90.227961 -10.753684 -36.449512 8
-93.439702 -11.161813 -36.310632 8
-96.650604 -11.614270 -36.185688 8
-99.890135 -12.047926 -36.043391 8
-103.155063 -12.472780 -35.888487 8
-106.684217 -12.417586 -35.485724 8
-113.418560 -6.231659 -32.006370 8
-118.911215 -2.761528 -29.861463 7
-122.263080 -3.470065 -29.798253 7
-125.663823 -4.127640 -29.700641 7
-129.079647 -4.799037 -29.601009 7
-132.520994 -5.467350 -29.490648 7
-136.005939 -6.104505 -29.355045 7
-139.505017 -6.762762 -29.220551 7
-143.046153 -7.398088 -29.064472 7
-146.597293 -8.064085 -28.914050 7
146.025003 17.623958 -25.492205 6
142.493018 17.676608 -25.626712 6
138.981955 17.722904 -25.756421 6
135.495537 17.775618 -25.875286 6
132.112673 18.073183 -25.868891 6
118.060490 5.736885 -32.144121 5
114.943083 6.248323 -32.001676 5
109.213529 -2.620015 -36.340213 5
105.449735 -4.952712 -37.541545 5
102.329628 -5.041579 -37.662719 5
99.275622 -4.929212 -37.681224 5
96.235097 -4.808289 -37.689242 5
93.196281 -4.727063 -37.709849 5
90.182723 -4.577943 -37.691749 5
87.151601 -4.558405 -37.729172 5
84.147198 -4.455702 -37.720690 5
81.144271 -4.391004 -37.724115 5
78.142857 -4.367503 -37.740986 5
75.152261 -4.331086 -37.745546 5
72.169272 -4.296292 -37.744752 5
69.196849 -4.237523 -37.726437 5
64.939402 -14.312089 -42.527928 9
61.939154 -15.508897 -43.095527 9
59.183014 -14.702277 -42.703185 9
56.246263 -15.660126 -43.145444 9
53.227057 -17.877916 -44.182293 9
50.277716 -19.839943 -45.091930 9
47.420324 -21.066572 -45.645815 9
44.620236 -21.760428 -45.940375 9
41.856763 -21.999136 -46.012455 9
39.106288 -22.049760 -45.989266 9
36.357888 -22.112374 -45.966196 9
33.611518 -22.176105 -45.938057 9
30.866647 -22.252492 -45.910357 9
28.122766 -22.301899 -45.864149 9
25.379115 -22.356983 -45.815018 9
22.636202 -22.446936 -45.776927 9
19.894104 -22.560206 -45.744357 9
17.150134 -22.640417 -45.690295 9
14.405283 -22.729618 -45.634853 9
11.658494 -22.816831 -45.572745 9
8.912394 -22.941424 -45.522859 9
6.163903 -23.063546 -45.466047 9
3.412771 -23.186948 -45.404082 9
0.658768 -23.314159 -45.338149 9
-2.092912 -23.490371 -45.290018 9
-4.855702 -23.609066 -45.208287 9
-7.622089 -23.738147 -45.125650 9
-10.391317 -23.884011 -45.045177 9
-13.161118 -24.060456 -44.973535 9
-15.940647 -24.213910 -44.884733 9
-18.731485 -24.343075 -44.778043 9
-21.514689 -24.549634 -44.702840 9
-24.308621 -24.737422 -44.612361 9
-27.114432 -24.906775 -44.506670 9
-29.926287 -25.088030 -44.400487 9
-32.741034 -25.295083 -44.300575 9
-35.575291 -25.461901 -44.174541 9
-38.402875 -25.694353 -44.074214 9
-41.256390 -25.869306 -43.939092 9
-44.136257 -25.994328 -43.772673 9
-47.179091 -25.621855 -43.353704 9
-49.831968 -26.584887 -43.587626 9
-53.306055 -24.991410 -42.548704 9
-56.644442 -23.970045 -41.783398 9
-60.234341 -22.347174 -40.709016 9
-63.977813 -20.458585 -39.490937 9
-69.747308 -13.264512 -35.608642 8
-72.836768 -13.606072 -35.477655 8
-75.941822 -13.948385 -35.339336 8
-79.054034 -14.314242 -35.205035 8
-82.197670 -14.645498 -35.045370 8
-85.343362 -15.015462 -34.897155 8
-88.507683 -15.385425 -34.740768 8
-91.701835 -15.732730 -34.564543 8
-94.888612 -16.140860 -34.410791 8
-98.127492 -16.483007 -34.214789 8
-101.355734 -16.893667 -34.045025 8
-104.644314 -17.229167 -33.827781 8
-108.584282 -16.357144 -32.978846 8
-115.706315 -9.609245 -29.078945 8
-119.515439 -9.337523 -28.505424 7
-122.942475 -9.832749 -28.318701 7
-126.369939 -10.374087 -28.146120 7
-129.835696 -10.895682 -27.953223 7
-133.341915 -11.397306 -27.739565 7
-136.873216 -11.907438 -27.519818 7
-140.441968 -12.407883 -27.284158 7
-144.027338 -12.933822 -27.050951 7
-147.648077 -13.457142 -26.805098 7
149.397825 -1.320995 -29.975970 6
146.139227 -0.934158 -29.972192 6
142.881670 -0.586790 -29.980241 6
139.630279 -0.266959 -29.994212 6
136.407795 0.086133 -29.983978 6
133.169819 0.354829 -30.008001 6
129.966110 0.675732 -29.998592 6
126.785741 1.024219 -29.968092 6
123.592054 1.293056 -29.969604 6
118.959611 -3.060911 -32.246161 5
116.458873 -0.764877 -31.231080 5
111.885797 -5.460557 -33.656819 5
107.504834 -9.908659 -35.949891 5
104.218520 -10.719197 -36.442401 5
101.195586 -10.637913 -36.488810 5
98.193831 -10.522221 -36.511531 5
95.201814 -10.412847 -36.530658 5
92.211558 -10.343166 -36.562625 5
89.238525 -10.243904 -36.573448 5
86.261955 -10.209209 -36.609387 5
83.302864 -10.137362 -36.620553 5
80.346861 -10.097417 -36.640866 5
77.409017 -10.003444 -36.628222 5
74.469829 -9.962444 -36.635118 5
71.526896 -9.997703 -36.672981 5
67.735359 -16.212098 -39.732387 9
64.634464 -18.124142 -40.676944 9
61.610772 -19.780127 -41.489824 9
58.837425 -19.477277 -41.336790 9
55.993955 -19.890793 -41.528713 9
53.025778 -21.915246 -42.504162 9
50.129437 -23.606879 -43.310767 9
47.311047 -24.698662 -43.817636 9
44.544229 -25.316774 -44.086536 9
41.811483 -25.506673 -44.139625 9
39.088547 -25.576233 -44.127809 9
36.369731 -25.585034 -44.080279 9
33.651214 -25.644953 -44.051942 9
30.934137 -25.709135 -44.019801 9
28.218115 -25.780452 -43.985263 9
25.502965 -25.866074 -43.951848 9
22.787803 -25.939508 -43.906514 9
20.070606 -25.973621 -43.835863 9
17.356141 -26.097365 -43.803409 9
14.639343 -26.191021 -43.750160 9
11.919854 -26.270463 -43.683896 9
9.202880 -26.410954 -43.641767 9
6.476878 -26.473600 -43.555114 9
3.754706 -26.611671 -43.499693 9
1.028654 -26.741590 -43.434148 9
-1.706269 -26.829981 -43.341869 9
-4.441719 -26.952363 -43.260262 9
-7.178369 -27.100592 -43.185287 9
-9.917914 -27.262251 -43.110760 9
-12.667200 -27.397416 -43.016753 9
-15.422953 -27.532484 -42.916340 9
-18.175939 -27.719345 -42.835403 9
-20.947349 -27.846784 -42.718316 9
-23.718675 -28.014463 -42.614853 9
-26.378862 -28.718856 -42.774309 9
-29.173748 -28.832727 -42.631023 9
-31.969363 -28.986853 -42.501240 9
-34.772075 -29.153577 -42.371026 9
-37.586295 -29.317212 -42.232404 9
-40.432604 -29.406444 -42.049176 9
-43.270440 -29.572563 -41.897780 9
-46.157487 -29.617266 -41.677568 9
-49.144654 -29.392996 -41.312955 9
-52.321209 -28.654833 -40.678064 9
-55.762580 -27.233421 -39.684573 9
-59.321650 -25.624609 -38.584088 9
-63.018683 -23.793464 -37.357787 9
-66.739545 -22.072735 -36.175819 9
-71.545455 -17.679502 -33.603146 8
-74.629582 -17.980126 -33.437346 8
-77.718154 -18.312882 -33.279895 8
-80.826887 -18.639458 -33.110875 8
-83.958890 -18.955180 -32.927686 8
-87.105635 -19.282203 -32.741698 8
-90.268445 -19.618712 -32.551851 8
-93.453633 -19.952455 -32.351589 8
-96.670318 -20.266694 -32.131922 8
-99.901888 -20.598578 -31.912191 8
-103.147522 -20.950389 -31.693497 8
-106.618803 -20.915714 -31.259979 8
-111.437216 -18.422016 -29.505913 8
-117.495353 -13.848533 -26.621386 7
-120.918611 -14.267938 -26.385226 7
-124.346805 -14.728430 -26.160533 7
-127.829453 -15.144904 -25.901384 7
-131.329829 -15.583535 -25.643112 7
-134.870132 -16.008850 -25.366319 7
-138.433772 -16.450202 -25.086660 7
-142.037258 -16.883036 -24.790518 7
-145.735642 -17.226549 -24.433182 7
-149.597976 -17.386375 -23.961776 7
147.221910 -7.638739 -29.015117 6
143.981200 -7.364039 -29.074970 6
140.748532 -7.116829 -29.140624 6
137.533279 -6.873068 -29.199833 6
134.337639 -6.624886 -29.248677 6
131.150575 -6.400024 -29.301418 6
127.990451 -6.146003 -29.331362 6
124.811230 -5.993427 -29.405142 6
121.676290 -5.756771 -29.428325 6
117.306104 -9.479807 -31.455828 5
114.173720 -9.473072 -31.578662 5
110.059414 -12.879838 -33.425308 5
106.415392 -14.948775 -34.583632 5
103.328325 -15.187826 -34.806305 5
100.344034 -15.109103 -34.860762 5
97.382924 -14.987804 -34.886586 5
94.420647 -14.917791 -34.931322 5
91.469611 -14.848696 -34.969533 5
88.530917 -14.772434 -34.997189 5
85.600327 -14.705390 -35.022613 5
82.675123 -14.659833 -35.052033 5
79.760786 -14.606036 -35.070488 5
76.852359 -14.567622 -35.089932 5
73.948534 -14.551914 -35.114085 5
71.057812 -14.503033 -35.114810 5
67.464197 -19.543147 -37.673463 9
64.417089 -21.231295 -38.535939 9
61.420328 -22.852680 -39.358204 9
58.467896 -24.436969 -40.155350 9
55.550798 -26.057789 -40.964614 9
52.691116 -27.465116 -41.660125 9
49.903986 -28.361144 -42.091856 9
47.168580 -28.807454 -42.290806 9
44.457393 -29.036357 -42.374024 9
41.764084 -29.022985 -42.328904 9
39.071104 -29.045865 -42.295880 9
36.378504 -29.128912 -42.287039 9
33.689249 -29.143278 -42.237346 9
31.000410 -29.199631 -42.202661 9
28.312288 -29.241495 -42.154457 9
25.624204 -29.285730 -42.101236 9
22.936376 -29.355476 -42.054696 9
20.248929 -29.447271 -42.013092 9
17.558578 -29.493320 -41.942062 9
14.865713 -29.532512 -41.861258 9
12.175364 -29.645520 -41.811599 9
9.481129 -29.732923 -41.742632 9
6.779160 -29.768043 -41.640722 9
4.082524 -29.898319 -41.580817 9
1.378660 -29.992221 -41.495992 9
-1.328505 -30.094950 -41.409209 9
-4.046423 -30.153684 -41.293461 9
-6.762419 -30.268529 -41.199808 9
-9.486396 -30.368651 -41.092036 9
-12.217499 -30.465449 -40.975907 9
-14.954921 -30.567307 -40.855658 9
-17.694319 -30.699384 -40.744170 9
-20.440010 -30.838236 -40.629375 9
-23.204506 -30.926565 -40.481685 9
-25.968839 -31.059792 -40.350173 9
-28.742356 -31.194247 -40.212291 9
-31.526777 -31.325328 -40.065576 9
-34.323448 -31.450721 -39.908738 9
-37.121457 -31.614417 -39.764537 9
-39.944072 -31.730610 -39.588310 9
-42.768590 -31.885511 -39.424796 9
-45.600792 -32.057826 -39.262880 9
-48.573950 -31.821796 -38.879560 9
-51.707737 -31.162568 -38.265636 9
-55.079411 -29.896534 -37.323026 9
-58.623872 -28.274886 -36.181843 9
-62.195857 -26.739785 -35.074085 9
-65.872050 -25.079721 -33.887800 9
-70.464033 -21.192095 -31.506754 8
-73.527465 -21.467184 -31.320374 8
-76.604582 -21.752784 -31.130850 8
-79.674770 -22.099139 -30.964925 8
-82.792917 -22.376028 -30.752924 8
-85.891073 -22.744144 -30.580721 8
-89.024034 -23.078092 -30.381001 8
-92.156535 -23.457682 -30.196551 8
-95.328084 -23.799374 -29.982153 8
-98.472055 -24.242584 -29.813183 8
-101.718741 -24.525185 -29.547121 8
-104.965966 -24.857165 -29.297739 8
-108.815528 -24.111567 -28.447269 8
-115.145387 -18.943909 -25.150547 8
-119.606291 -17.419442 -23.833362 7
-123.195428 -17.551219 -23.414856 7
-126.839486 -17.653505 -22.967506 7
-130.497559 -17.798454 -22.531060 7
-134.047988 -18.182468 -22.215319 7
-137.619450 -18.587970 -21.899265 7
-141.212084 -19.015470 -21.583021 7
-144.868268 -19.401594 -21.230566 7
-148.533662 -19.831641 -20.889748 7
148.948908 -12.570599 -27.239802 6
145.712869 -12.342122 -27.341448 6
142.499891 -12.108020 -27.431283 6
139.293554 -11.906676 -27.529673 6
136.118326 -11.675630 -27.603790 6
132.937878 -11.506600 -27.702021 6
129.779766 -11.327461 -27.786486 6
126.644865 -11.132335 -27.854227 6
123.522532 -10.948482 -27.919653 6
120.403988 -10.801411 -27.996182 6
117.309209 -10.629610 -28.051696 6
111.996211 -17.768683 -31.916766 5
108.983220 -17.698064 -32.005745 5
105.613900 -18.940549 -32.771491 5
102.610146 -18.997615 -32.911111 5
99.681602 -18.828262 -32.925280 5
96.723141 -18.821181 -33.016480 5
93.803840 -18.706076 -33.044112 5
90.879200 -18.660184 -33.100410 5
87.973463 -18.578812 -33.131012 5
85.074850 -18.510516 -33.161196 5
82.178387 -18.479794 -33.203708 5
79.296244 -18.423466 -33.225810 5
76.420199 -18.380712 -33.247866 5
73.551411 -18.343232 -33.265608 5
70.691029 -18.300455 -33.273591 5
67.246101 -22.476625 -35.460147 9
64.237639 -24.028188 -36.279760 9
61.265905 -25.604323 -37.105169 9
58.350692 -27.022841 -37.842156 9
55.463161 -28.521022 -38.613752 9
52.631194 -29.799647 -39.265101 9
49.861516 -30.670516 -39.698790 9
47.137365 -31.182245 -39.940001 9
44.443269 -31.398131 -40.021481 9
41.766922 -31.371184 -39.970627 9
39.088678 -31.437346 -39.961545 9
36.413330 -31.494463 -39.941287 9
33.740935 -31.473433 -39.873981 9
31.068128 -31.528581 -39.839698 9
28.396051 -31.572123 -39.792879 9
25.723992 -31.614522 -39.738939 9
23.052761 -31.702905 -39.702374 9
20.379493 -31.742812 -39.634046 9
17.705473 -31.800738 -39.568516 9
15.027941 -31.831179 -39.482058 9
12.350415 -31.902893 -39.410481 9
9.672367 -32.000222 -39.345631 9
6.988623 -32.064708 -39.256957 9
4.301478 -32.133925 -39.164029 9
1.608349 -32.188881 -39.056869 9
-1.088701 -32.254207 -38.948319 9
-3.782831 -32.381960 -38.865672 9
-6.489184 -32.459065 -38.749570 9
-9.200437 -32.546074 -38.631724 9
-11.912412 -32.669366 -38.525992 9
-14.639475 -32.745455 -38.388346 9
-17.372878 -32.831602 -38.248869 9
-20.104791 -32.968099 -38.128828 9
-22.857861 -33.043217 -37.969073 9
-25.607064 -33.180967 -37.835184 9
-28.364992 -33.321386 -37.695367 9
-31.137901 -33.441185 -37.537149 9
-33.924970 -33.548764 -37.364867 9
-36.685318 -33.800733 -37.262059 9
-39.491315 -33.922694 -37.082188 9
-42.313298 -34.034262 -36.888912 9
-45.162370 -34.102148 -36.664206 9
-48.097465 -33.945452 -36.310430 9
-51.179122 -33.404238 -35.740435 9
-54.440179 -32.423327 -34.922923 9
-57.940120 -30.879092 -33.789162 9
-61.467606 -29.416315 -32.686960 9
-65.105050 -27.809055 -31.493332 9
-69.414330 -24.611848 -29.418869 8
-72.441475 -24.903269 -29.234102 8
-75.495920 -25.170516 -29.026997 8
-78.558319 -25.463699 -28.824838 8
-81.630302 -25.778856 -28.625390 8
-84.770266 -25.985119 -28.356274 8
-87.896015 -26.272805 -28.122267 8
-91.054919 -26.536806 -27.865157 8
-94.207096 -26.863438 -27.632734 8
-97.398642 -27.157036 -27.371642 8
-100.608193 -27.464022 -27.107531 8
-103.870284 -27.719363 -26.803686 8
-107.381668 -27.562110 -26.255999 8
-112.465671 -24.618016 -24.118319 8
-118.761715 -19.731538 -20.854074 7
-122.213390 -20.073283 -20.536627 7
-125.711916 -20.389378 -20.192275 7
-129.207328 -20.766297 -19.870193 7
-132.732464 -21.149012 -19.538774 7
-136.341503 -21.453817 -19.149371 7
-139.950798 -21.817115 -18.780294 7
-143.627185 -22.136501 -18.371949 7
-147.333791 -22.471481 -17.958482 7
-151.085101 -22.802453 -17.528121 7
147.793242 -16.338531 -25.140226 6
144.585513 -16.121945 -25.258479 6
141.394675 -15.915047 -25.372723 6
138.193746 -15.783818 -25.518834 6
135.038742 -15.588850 -25.621298 6
131.888977 -15.429768 -25.734242 6
128.767869 -15.243560 -25.823683 6
125.651163 -15.093846 -25.924097 6
122.571401 -14.886674 -25.984917 6
118.995205 -16.231123 -26.871998 5
115.090059 -18.767275 -28.389335 5
111.018208 -22.096413 -30.321161 5
107.666238 -23.303895 -31.103340 5
104.642859 -23.508471 -31.338839 5
101.709498 -23.457055 -31.429120 5
98.791308 -23.400069 -31.508583 5
95.896237 -23.302232 -31.558446 5
93.000765 -23.253353 -31.626803 5
90.122794 -23.179157 -31.674008 5
87.244757 -23.153683 -31.739653 5
84.417500 -22.934806 -31.694620 5
81.544120 -22.983353 -31.784766 5
78.927661 -21.698295 -31.156814 5
76.073524 -21.678595 -31.195983 5
73.231213 -21.638880 -31.217116 5
70.391804 -21.629650 -31.247144 5
67.078145 -25.039536 -33.089791 9
64.097457 -26.509578 -33.892245 9
61.157351 -27.958030 -34.675911 9
58.260511 -29.347534 -35.421057 9
55.404805 -30.673770 -36.125524 9
52.579726 -32.026388 -36.837145 9
49.832063 -32.798767 -37.233188 9
47.124299 -33.269083 -37.461700 9
44.447651 -33.411781 -37.509042 9
41.782787 -33.412630 -37.474051 9
39.118718 -33.444411 -37.448714 9
36.455828 -33.509470 -37.434295 9
33.795702 -33.526346 -37.387383 9
31.136089 -33.564667 -37.345075 9
28.476829 -33.587170 -37.287492 9
25.818636 -33.688048 -37.264902 9
23.160770 -33.775363 -37.228240 9
20.499741 -33.785966 -37.143712 9
17.838351 -33.834510 -37.072556 9
15.173472 -33.858965 -36.981573 9
12.511547 -33.967449 -36.928643 9
9.843556 -34.024605 -36.841245 9
7.175252 -34.115804 -36.765104 9
4.500536 -34.177100 -36.665869 9
1.818714 -34.215708 -36.547328 9
-0.857676 -34.342039 -36.468859 9
-3.547311 -34.402165 -36.347575 9
-6.242054 -34.469975 -36.223186 9
-8.940377 -34.557237 -36.102008 9
-11.637375 -34.692752 -35.999608 9
-14.353825 -34.755255 -35.850310 9
-17.075394 -34.835693 -35.703238 9
-19.798391 -34.952462 -35.568358 9
-22.536411 -35.038809 -35.409348 9
-25.278710 -35.150067 -35.256216 9
-28.031206 -35.260161 -35.094703 9
-30.794766 -35.368307 -34.924290 9
-33.565024 -35.494256 -34.755700 9
-36.349225 -35.611213 -34.574179 9
-39.150810 -35.710354 -34.374746 9
-41.955602 -35.844795 -34.186503 9
-44.777958 -35.965384 -33.982315 9
-47.672879 -35.900889 -33.667294 9
-50.711791 -35.454186 -33.131396 9
-53.928905 -34.566017 -32.340180 9
-57.403523 -33.056634 -31.191735 9
-60.927847 -31.565211 -30.040139 9
-64.477518 -30.158520 -28.922476 9
-68.579765 -27.463424 -27.068815 8
-71.608483 -27.692754 -26.841470 8
-74.650770 -27.934972 -26.611723 8
-77.716562 -28.167448 -26.366678 8
-80.798484 -28.410038 -26.117365 8
-83.866513 -28.731099 -25.902478 8
-86.975688 -29.006422 -25.651447 8
-90.140603 -29.210787 -25.349453 8
-93.284146 -29.510764 -25.091375 8
-96.459843 -29.793492 -24.812626 8
-99.669748 -30.058273 -24.512498 8
-102.909499 -30.316796 -24.197421 8
-106.295156 -30.355836 -23.743415 8
-110.553586 -28.875721 -22.392430 8
-116.756280 -24.093329 -19.093694 8
-121.188992 -22.663077 -17.726694 7
-124.676910 -22.962384 -17.356903 7
-128.190244 -23.276007 -16.982286 7
-131.752858 -23.566744 -16.580577 7
-135.332304 -23.889371 -16.183871 7
-138.982496 -24.161116 -15.742622 7
-142.649455 -24.468732 -15.308115 7
-146.360118 -24.772574 -14.856368 7
-150.168396 -24.997737 -14.341688 7
146.440309 -20.538242 -23.347490 6
143.247852 -20.376972 -23.506392 6
140.089507 -20.186600 -23.639291 6
136.926117 -20.059557 -23.797927 6
133.794199 -19.905880 -23.932208 6
130.654749 -19.823835 -24.096946 6
127.553364 -19.693622 -24.225613 6
124.491352 -19.504343 -24.312401 6
121.400446 -19.446689 -24.463111 6
118.351578 -19.317985 -24.565524 6
114.408426 -22.038032 -26.232519 5
110.529926 -24.810892 -27.916593 5
107.255744 -25.818687 -28.616077 5
104.254747 -26.006527 -28.854525 5
101.353670 -25.901971 -28.923575 5
98.451081 -25.850778 -29.013795 5
95.570569 -25.763533 -29.076079 5
92.698099 -25.690799 -29.138294 5
89.831438 -25.641528 -29.205402 5
86.979686 -25.574547 -29.254870 5
84.131053 -25.540832 -29.314703 5
81.298977 -25.474173 -29.348671 5
78.469210 -25.442274 -29.393909 5
75.653478 -25.380770 -29.415224 5
72.833396 -25.392539 -29.468947 5
70.024085 -25.390034 -29.507210 5
66.946806 -27.333267 -30.601589 9
64.004440 -28.620357 -31.329376 9
61.090961 -29.951451 -32.073556 9
58.205111 -31.344859 -32.844270 9
55.355826 -32.723604 -33.599588 9
52.554330 -33.947427 -34.262995 9
49.817027 -34.731783 -34.679080 9
47.120336 -35.210394 -34.920953 9
44.454445 -35.373644 -34.983335 9
41.801393 -35.383174 -34.954541 9
39.150477 -35.390166 -34.917214 9
36.500546 -35.416520 -34.883335 9
33.852060 -35.433542 -34.837202 9
31.204129 -35.459305 -34.788700 9
28.556368 -35.478111 -34.729221 9
25.909170 -35.552792 -34.693194 9
23.259681 -35.542402 -34.603329 9
20.612250 -35.638562 -34.564715 9
17.960591 -35.659675 -34.477679 9
15.309345 -35.730013 -34.410431 9
12.654687 -35.781934 -34.325782 9
9.995953 -35.821185 -34.226837 9
7.337959 -35.909806 -34.147740 9
4.672984 -35.963505 -34.042012 9
2.004127 -36.024033 -33.932615 9
-0.668438 -36.095498 -33.821783 9
-3.344198 -36.183247 -33.712444 9
-6.027419 -36.258565 -33.588656 9
-8.712868 -36.360797 -33.472172 9
-11.407198 -36.448800 -33.340121 9
-14.106683 -36.549152 -33.207196 9
-16.814545 -36.645966 -33.064501 9
-19.535488 -36.719500 -32.900934 9
-22.257043 -36.834818 -32.752724 9
-24.994787 -36.918949 -32.579044 9
-27.741413 -37.010072 -32.401128 9
-30.497166 -37.108829 -32.219264 9
-33.262142 -37.216370 -32.034022 9
-36.043217 -37.308480 -31.831674 9
-38.834778 -37.409449 -31.625782 9
-41.629310 -37.546313 -31.431562 9
-44.416856 -37.750096 -31.266610 9
-47.316256 -37.638440 -30.913767 9
-50.299321 -37.333586 -30.441379 9
-54.808954 -32.595228 -27.428619 9
-58.340285 -31.025152 -26.206305 9
-60.401596 -33.673702 -27.388495 9
-63.984772 -32.143670 -26.166419 9
-67.576777 -30.744222 -25.005032 9
-70.885882 -30.198725 -24.322296 8
-73.934744 -30.378647 -24.047233 8
-76.989597 -30.593753 -23.782183 8
-80.053103 -30.836977 -23.523011 8
-83.128696 -31.100333 -23.264999 8
-86.245428 -31.321147 -22.971357 8
-89.369605 -31.576002 -22.686628 8
-92.532948 -31.799033 -22.371986 8
-95.698750 -32.068211 -22.073093 8
-98.894527 -32.328371 -21.757279 8
-102.135733 -32.552845 -21.408399 8
-116.035811 -13.078839 -9.298081 7
-109.437957 -31.677700 -19.881206 8
-115.589079 -26.960021 -16.524065 8
-120.392754 -24.854354 -14.706910 7
-123.894030 -25.105941 -14.291612 7
-127.442415 -25.338410 -13.850612 7
-131.006338 -25.605936 -13.416451 7
-134.655674 -25.798878 -12.921944 7
-138.349358 -25.987448 -12.409303 7
-142.036530 -26.250452 -11.926696 7
-145.779006 -26.494812 -11.416637 7
-149.584469 -26.713112 -10.873948 7
145.962091 -22.732856 -20.479050 6
142.788786 -22.559934 -20.643601 6
139.621190 -22.425604 -20.820094 6
136.469857 -22.304986 -20.994319 6
133.324841 -22.222443 -21.180326 6
130.216129 -22.100333 -21.333816 6
127.123001 -21.988755 -21.483600 6
124.056372 -21.855756 -21.611584 6
121.001075 -21.740798 -21.740386 6
117.944981 -21.679858 -21.890520 6
113.909439 -24.725616 -23.794094 5
111.479307 -22.868999 -22.906011 5
106.923600 -28.062530 -26.002702 5
103.967506 -28.144587 -26.193418 5
101.073414 -28.064701 -26.283793 5
98.196107 -27.970695 -26.357629 5
95.332615 -27.869711 -26.419054 5
92.461312 -27.847602 -26.516547 5
89.620277 -27.747502 -26.561717 5
86.771462 -27.728207 -26.644115 5
83.939373 -27.681693 -26.702943 5
81.106061 -27.691246 -26.785120 5
78.304201 -27.587708 -26.795581 5
75.496962 -27.556668 -26.838727 5
72.695903 -27.538439 -26.881035 5
69.902719 -27.520692 -26.915618 5
66.865412 -29.268669 -27.933327 9
63.942569 -30.488476 -28.646327 9
61.029033 -31.902962 -29.460528 9
58.157505 -33.266010 -30.237957 9
55.330668 -34.527185 -30.950477 9
52.544780 -35.684402 -31.597060 9
49.815891 -36.480512 -32.033545 9
47.993754 -24.079648 -25.057133 9
44.472917 -37.121271 -32.350317 9
41.829887 -37.129082 -32.322109 9
39.189366 -37.123053 -32.278654 9
36.548702 -37.171185 -32.258141 9
33.910302 -37.185283 -32.211038 9
31.272511 -37.172962 -32.141593 9
28.634687 -37.233327 -32.105519 9
25.996324 -37.240511 -32.032026 9
23.357650 -37.280193 -31.969295 9
20.718930 -37.346490 -31.914020 9
18.077716 -37.384520 -31.835261 9
15.433513 -37.410027 -31.741838 9
12.790659 -37.496820 -31.675390 9
10.142161 -37.542755 -31.578227 9
7.488537 -37.573478 -31.464757 9
4.833809 -37.637786 -31.362552 9
2.175450 -37.709069 -31.256532 9
-0.488930 -37.770980 -31.137381 9
-3.160309 -37.822749 -31.004588 9
-5.837615 -37.877812 -30.865718 9
-8.515777 -37.971226 -30.740684 9
-11.196156 -38.090951 -30.622639 9
-13.888675 -38.180373 -30.479232 9
-16.590891 -38.260611 -30.322399 9
-19.294350 -38.377975 -30.178571 9
-22.013317 -38.462680 -30.007717 9
-24.742717 -38.544950 -29.827033 9
-27.479550 -38.640542 -29.645489 9
-30.219028 -38.769622 -29.474655 9
-32.980253 -38.856346 -29.270715 9
-35.751545 -38.951829 -29.063012 9
-38.532718 -39.058056 -28.852614 9
-41.320403 -39.187620 -28.646753 9
-44.135165 -39.272549 -28.405813 9
-46.982541 -39.302477 -28.123454 9
-49.994394 -38.882980 -27.568697 9
-53.174870 -38.050931 -26.761244 9
-56.533359 -36.823948 -25.709568 9
-60.021376 -35.377313 -24.514958 9
-63.609070 -33.814774 -23.237371 9
-67.166117 -32.486865 -22.083320 9
-70.306288 -32.341917 -21.615989 8
-73.322482 -32.565819 -21.356352 8
-76.381616 -32.735109 -21.053424 8
-79.464750 -32.899878 -20.736698 8
-82.537204 -33.139734 -20.453681 8
-85.624922 -33.394413 -20.168304 8
-88.764786 -33.587096 -19.834092 8
-91.930404 -33.778813 -19.487407 8
-95.106972 -34.001240 -19.147224 8
-98.323859 -34.196974 -18.778518 8
-102.943498 -31.788736 -16.806426 8
-104.810760 -34.649699 -18.040469 8
-108.595316 -33.980630 -17.101243 8
-114.438878 -29.789427 -13.970812 8
-119.874719 -26.565111 -11.405927 7
-123.437423 -26.700027 -10.899526 7
-127.015040 -26.874159 -10.402308 7
-130.576748 -27.136379 -9.944796 7
-134.246494 -27.289356 -9.403138 7
-137.919113 -27.503324 -8.883622 7
-141.644005 -27.702845 -8.338459 7
-145.417229 -27.897007 -7.772888 7
-149.213111 -28.125224 -7.211616 7
148.817271 -24.763366 -17.238949 6
145.601277 -24.658127 -17.466933 6
142.432866 -24.499085 -17.652148 6
139.257104 -24.410616 -17.868256 6
136.104529 -24.321587 -18.073346 6
132.998819 -24.169466 -18.230843 6
129.869720 -24.130083 -18.444222 6
126.797111 -23.995926 -18.591775 6
123.740018 -23.869702 -18.733962 6
120.676043 -23.814633 -18.907825 6
117.618657 -23.795498 -19.092779 5
113.548836 -26.974963 -21.131728 5
109.877243 -29.169189 -22.583245 5
106.701595 -29.932882 -23.190808 5
103.765095 -29.983309 -23.373928 5
100.875666 -29.924055 -23.484206 5
98.012506 -29.816798 -23.557676 5
95.138530 -29.798578 -23.673864 5
92.289798 -29.730260 -23.752206 5
89.446147 -29.688833 -23.837367 5
86.624141 -29.600138 -23.886530 5
83.795929 -29.586782 -23.970624 5
80.979743 -29.566063 -24.041896 5
78.178905 -29.515485 -24.087438 5
75.382639 -29.487145 -24.137369 5
72.590589 -29.483880 -24.193360 5
69.805892 -29.486684 -24.244488 5
67.010544 -29.618433 -24.361580 9
63.878155 -32.372754 -25.980797 9
60.997952 -33.596372 -26.709806 9
58.137405 -34.934545 -27.496498 9
55.320183 -36.180922 -28.222202 9
52.544965 -37.309773 -28.872256 9
49.827128 -38.068641 -29.301426 9
47.354418 -35.497704 -27.805390 9
44.501907 -38.680759 -29.614932 9
41.871376 -38.590057 -29.531485 9
39.234928 -38.663752 -29.534922 9
36.602112 -38.707908 -29.513540 9
33.971442 -38.721967 -29.467000 9
31.341141 -38.784210 -29.440430 9
28.711417 -38.785402 -29.370814 9
26.081485 -38.821056 -29.313238 9
23.452015 -38.894922 -29.269884 9
20.819501 -38.900630 -29.179268 9
18.188448 -38.982710 -29.124912 9
15.552861 -39.011235 -29.031649 9
12.915758 -39.060114 -28.942205 9
10.275558 -39.108883 -28.844700 9
7.634616 -39.188818 -28.757255 9
4.988425 -39.252213 -28.652150 9
2.327489 -39.225906 -28.486741 9
-0.332614 -39.261632 -28.349182 9
-2.996764 -39.313045 -28.212505 9
-5.665600 -39.376239 -28.074400 9
-8.339017 -39.453115 -27.935938 9
-11.015751 -39.551950 -27.801924 9
-13.704982 -39.621116 -27.642075 9
-16.403560 -39.685331 -27.470749 9
-19.103130 -39.789657 -27.314341 9
-21.814615 -39.879601 -27.140785 9
-24.534289 -39.976643 -26.962617 9
-27.258560 -40.097648 -26.789726 9
-29.988695 -40.236811 -26.618649 9
-32.741298 -40.330104 -26.411374 9
-35.495870 -40.461607 -26.217589 9
-38.298597 -40.465142 -25.938396 9
-41.100496 -40.525129 -25.683206 9
-43.893203 -40.664912 -25.466035 9
-46.767547 -40.591073 -25.111320 9
-49.733021 -40.299853 -24.615823 9
-52.876291 -39.561517 -23.840290 9
-56.248060 -38.279908 -22.724655 9
-59.722538 -36.856899 -21.509190 9
-63.274710 -35.375696 -20.243323 9
-66.817557 -34.068998 -19.067748 8
-69.829837 -34.224893 -18.767335 8
-72.850572 -34.410131 -18.473630 8
-75.871297 -34.644121 -18.198464 8
-78.950217 -34.791871 -17.858995 8
-82.036519 -34.975406 -17.529697 8
-85.154984 -35.140392 -17.176981 8
-88.288120 -35.327103 -16.825455 8
-91.430823 -35.546306 -16.481690 8
-94.627728 -35.708721 -16.089965 8
-97.842111 -35.891954 -15.698213 8
-101.081658 -36.082002 -15.297494 8
-104.391212 -36.197860 -14.836556 8
-107.989691 -35.853872 -14.070924 8
-113.725328 -31.846463 -10.965625 8
-119.589036 -27.878526 -7.851413 7
-123.168136 -27.982170 -7.303390 7
-126.757859 -28.133635 -6.769885 7
-130.379739 -28.297647 -6.228144 7
-134.079794 -28.404042 -5.632499 7
-137.843762 -28.480794 -5.000218 7
-141.651223 -28.562714 -4.353291 7
-145.463702 -28.707912 -3.729317 7
-149.369089 -28.789735 -3.045062 7
148.683443 -26.167204 -13.901553 6
145.438620 -26.136098 -14.189307 6
142.246450 -26.044203 -14.428501 6
139.063110 -25.988189 -14.678057 6
135.908983 -25.918979 -14.908379 6
132.780963 -25.840863 -15.122272 6
129.677547 -25.754572 -15.320369 6
126.601554 -25.649358 -15.496384 6
123.530357 -25.583959 -15.685794 6
120.484821 -25.499996 -15.853625 6
117.384013 -25.634302 -16.141907 5
113.298541 -28.878656 -18.280073 5
109.689978 -30.895898 -19.670258 5
106.537774 -31.607758 -20.268775 5
103.611082 -31.652945 -20.459253 5
100.742203 -31.549967 -20.551880 5
97.873146 -31.494939 -20.663698 5
95.027688 -31.398254 -20.741452 5
92.179827 -31.358076 -20.843592 5
89.344500 -31.315437 -20.935121 5
86.508233 -31.327893 -21.050253 5
83.706597 -31.231705 -21.091956 5
80.896260 -31.223275 -21.176745 5
78.104448 -31.169802 -21.225978 5
75.320003 -31.122404 -21.270000 5
72.539430 -31.099639 -21.319833 5
69.763761 -31.096112 -21.372318 5
66.786503 -32.546352 -22.275344 9
63.865603 -33.864353 -23.091163 9
60.990742 -35.093472 -23.845621 9
58.143049 -36.371096 -24.620056 9
55.330776 -37.624229 -25.371503 9
52.567660 -38.683757 -26.000230 9
49.846605 -39.552243 -26.507882 9
47.182916 -39.905775 -26.703212 9
44.541913 -40.048623 -26.765943 9
41.913800 -40.033107 -26.726958 9
39.285866 -40.055572 -26.702257 9
36.660896 -40.032365 -26.642394 9
34.034973 -40.094989 -26.625121 9
31.410912 -40.083190 -26.555661 9
28.786585 -40.112878 -26.502563 9
26.163143 -40.204329 -26.477861 9
23.537679 -40.204718 -26.391019 9
20.911445 -40.234729 -26.313492 9
18.285095 -40.299275 -26.248201 9
15.656704 -40.357349 -26.170807 9
13.026333 -40.420391 -26.088067 9
10.394197 -40.495801 -26.004354 9
7.753058 -40.507518 -25.874349 9
5.116399 -40.610467 -25.790252 9
2.469503 -40.655578 -25.663219 9
-0.184300 -40.688845 -25.520562 9
-2.839439 -40.758040 -25.390770 9
-5.507334 -40.781763 -25.225104 9
-8.171360 -40.877918 -25.094096 9
-10.848831 -40.933845 -24.930193 9
-13.532059 -41.002747 -24.765210 9
-16.217711 -41.102894 -24.610101 9
-18.923021 -41.147246 -24.412366 9
-21.637147 -41.198039 -24.209353 9
-24.343966 -41.328642 -24.045373 9
-27.075664 -41.394366 -23.832869 9
-29.818221 -41.463211 -23.612819 9
-32.561039 -41.578148 -23.411259 9
-35.334027 -41.625411 -23.158889 9
-38.100427 -41.745808 -22.941331 9
-40.884207 -41.851561 -22.705011 9
-43.691949 -41.925101 -22.438963 9
-46.530683 -41.950107 -22.132889 9
-49.517652 -41.577930 -21.571707 9
-52.630527 -40.917781 -20.820984 9
-56.033876 -39.535316 -19.610479 9
-59.470197 -38.209956 -18.420108 9
-63.051444 -36.642596 -17.063762 9
-66.435457 -35.737661 -16.103717 8
-69.454728 -35.854416 -15.767364 8
-72.474226 -36.022719 -15.451502 8
-75.530101 -36.155438 -15.101423 8
-78.613837 -36.277102 -14.732179 8
-81.688371 -36.472722 -14.397214 8
-84.775505 -36.691385 -14.064424 8
-87.919966 -36.839677 -13.674291 8
-91.124457 -36.919761 -13.227521 8
-94.297754 -37.120011 -12.843991 8
-97.530109 -37.258912 -12.407602 8
-100.737905 -37.500660 -12.023469 8
-105.607878 -34.743024 -9.686032 8
-107.718305 -37.127531 -10.657421 8
-116.468660 -27.862166 -4.036892 8
-119.612493 -28.667726 -3.938768 7
-123.170219 -28.815734 -3.396107 7
-126.819761 -28.877766 -2.780125 7
-130.543871 -28.889513 -2.113335 7
-134.342028 -28.857671 -1.399321 7
-138.138710 -28.902225 -0.717259 7
-141.966172 -28.972792 -0.033545 7
-145.842798 -29.043537 0.669490 7
-149.877293 -28.962941 1.494764 7
148.561932 -27.547322 -10.537590 6
145.343361 -27.465589 -10.809866 6
142.165209 -27.348842 -11.048226 6
138.997501 -27.262768 -11.293823 6
135.857966 -27.164538 -11.520164 6
132.726036 -27.102510 -11.757421 6
129.609192 -27.058353 -11.994320 6
126.526591 -26.980034 -12.198852 6
124.399527 -24.307767 -10.793328 6
120.390174 -26.908961 -12.627583 6
117.239893 -27.203566 -13.028566 5
113.205746 -30.296356 -15.136065 5
110.785957 -28.529259 -14.248579 5
106.476404 -32.943392 -17.138573 5
103.524493 -33.090495 -17.402109 5
100.681167 -32.916660 -17.459357 5
97.823403 -32.837975 -17.565022 5
94.974684 -32.772764 -17.669214 5
92.133088 -32.727960 -17.776224 5
89.294882 -32.719620 -17.895883 5
86.479244 -32.663971 -17.977255 5
83.665333 -32.649113 -18.074042 5
80.863660 -32.626066 -18.156506 5
78.078409 -32.567815 -18.208322 5
75.298985 -32.523850 -18.259619 5
72.524833 -32.496625 -18.311928 5
69.761866 -32.447759 -18.342014 5
66.795785 -33.848649 -19.241895 9
63.890077 -35.081009 -20.030158 9
61.012957 -36.352831 -20.833080 9
58.165339 -37.661370 -21.649155 9
55.358982 -38.895670 -22.411329 9
52.592165 -40.040866 -23.110767 9
49.890824 -40.726420 -23.523169 9
47.224143 -41.175071 -23.783538 9
44.583949 -41.385405 -23.891045 9
41.958404 -41.432966 -23.891440 9
39.338091 -41.416765 -23.844687 9
36.716885 -41.474364 -23.834162 9
34.099187 -41.432457 -23.754788 9
31.480457 -41.484414 -23.723825 9
28.862207 -41.485643 -23.653553 9
26.243367 -41.499796 -23.582575 9
23.623476 -41.515119 -23.503736 9
21.003434 -41.567760 -23.438999 9
18.379796 -41.575350 -23.338249 9
15.754428 -41.601828 -23.240338 9
13.127338 -41.646443 -23.144797 9
10.497396 -41.695090 -23.043007 9
7.866163 -41.769073 -22.947941 9
5.227406 -41.805965 -22.821433 9
2.583804 -41.844512 -22.687071 9
-0.064811 -41.887494 -22.546503 9
-2.718708 -41.936075 -22.400388 9
-5.377406 -41.996196 -22.252318 9
-8.043608 -42.052130 -22.092577 9
-10.717607 -42.106451 -21.922662 9
-13.395828 -42.182522 -21.756894 9
-16.084573 -42.246914 -21.574600 9
-18.772184 -42.361888 -21.414167 9
-21.478814 -42.428505 -21.214352 9
-24.197752 -42.486478 -20.999551 9
-26.919662 -42.579096 -20.796540 9
-29.668399 -42.608277 -20.544237 9
-32.413677 -42.701383 -20.321768 9
-35.172709 -42.789412 -20.086097 9
-37.946979 -42.870145 -19.835687 9
-40.733218 -42.957903 -19.579360 9
-43.529262 -43.061257 -19.322391 9
-46.409131 -42.948153 -18.918417 9
-49.343558 -42.732791 -18.438507 9
-52.478048 -42.002771 -17.620865 9
-55.856586 -40.688612 -16.418829 9
-59.316245 -39.295942 -15.151110 9
-62.873818 -37.791088 -13.795451 9
-66.159138 -37.135590 -12.965884 8
-69.167602 -37.265926 -12.625587 8
-72.194483 -37.403206 -12.277488 8
-75.267086 -37.485130 -11.881226 8
-78.350453 -37.597912 -11.492017 8
-81.462619 -37.701305 -11.083682 8
-84.591741 -37.823601 -10.674316 8
-87.723337 -37.995596 -10.283866 8
-90.916559 -38.095323 -9.832502 8
-94.128029 -38.216316 -9.380924 8
-97.392641 -38.291868 -8.884996 8
-100.647618 -38.445421 -8.425743 8
-105.537321 -35.664022 -6.003387 8
-107.600218 -38.130489 -7.047822 8
-116.831029 -28.061184 0.294415 8
-119.906118 -29.004346 0.312859 7
-123.572983 -28.990887 0.988859 7
-127.294201 -28.960563 1.694609 7
-131.065081 -28.924451 2.423197 7
-134.923675 -28.826635 3.213307 7
-138.892664 -28.639613 4.084835 7
-142.853376 -28.547356 4.912566 7
-146.923150 -28.376837 5.815801 7
-151.059087 -28.196565 6.748324 7
148.656038 -28.463636 -6.862147 6
145.426802 -28.400737 -7.162555 6
142.232315 -28.317432 -7.437195 6
140.177287 -25.600717 -6.019404 6
135.876982 -28.244426 -8.008894 6
132.758932 -28.148452 -8.238582 6
129.641263 -28.106474 -8.490675 6
126.560119 -28.024841 -8.705851 6
123.468429 -28.027104 -8.962545 6
120.415188 -27.979610 -9.176267 6
117.267429 -28.267458 -9.590175 5
113.203647 -31.439326 -11.808684 5
109.571869 -33.534553 -13.333750 5
106.447481 -34.175502 -13.931194 5
103.548139 -34.152629 -14.100593 5
100.670594 -34.106391 -14.244947 5
97.810171 -34.048519 -14.371758 5
94.948831 -34.044859 -14.522338 5
92.106970 -34.017162 -14.647790 5
89.291210 -33.930789 -14.726619 5
86.466804 -33.929486 -14.848685 5
83.666576 -33.868869 -14.923929 5
80.867734 -33.849256 -15.015007 5
78.081306 -33.816378 -15.088148 5
75.298259 -33.814773 -15.171150 5
72.533600 -33.757348 -15.209868 5
69.766862 -33.759096 -15.275905 5
66.822443 -35.035786 -16.124955 9
63.915023 -36.299374 -16.955989 9
61.049712 -37.499357 -17.737824 9
58.207538 -38.779503 -18.559957 9
55.400042 -40.045695 -19.364086 9
52.643358 -41.108342 -20.032640 9
49.935837 -41.897294 -20.522216 9
47.276145 -42.294377 -20.759524 9
44.641690 -42.458322 -20.843170 9
42.017861 -42.525190 -20.857656 9
39.399516 -42.534014 -20.827216 9
36.783064 -42.529495 -20.779610 9
34.166789 -42.559961 -20.744876 9
31.551447 -42.586609 -20.698893 9
28.936494 -42.629356 -20.654041 9
26.320496 -42.606602 -20.559511 9
23.703863 -42.628216 -20.483665 9
21.087341 -42.690455 -20.424194 9
18.466947 -42.697770 -20.321507 9
15.843435 -42.701225 -20.207379 9
13.219345 -42.745919 -20.109947 9
10.589927 -42.764586 -19.987158 9
7.962438 -42.850220 -19.897141 9
5.324477 -42.868097 -19.755539 9
2.685295 -42.922844 -19.627802 9
0.043714 -43.000059 -19.504899 9
-2.610019 -43.027361 -19.341302 9
-5.271463 -43.049825 -19.165204 9
-7.934563 -43.110213 -19.003474 9
-10.605315 -43.169408 -18.831430 9
-13.281922 -43.240841 -18.657477 9
-15.967601 -43.308843 -18.471637 9
-18.663729 -43.370245 -18.271796 9
-21.365520 -43.451234 -18.074465 9
-24.087798 -43.486202 -17.837856 9
-26.811798 -43.563374 -17.617936 9
-29.542844 -43.658224 -17.399068 9
-32.300624 -43.695432 -17.133007 9
-35.065785 -43.755897 -16.871263 9
-37.836299 -43.846357 -16.618112 9
-40.620498 -43.937449 -16.354629 9
-43.427401 -44.002057 -16.063179 9
-46.291946 -43.935901 -15.676081 9
-49.267790 -43.593201 -15.098139 9
-52.387179 -42.911209 -14.287138 9
-55.788158 -41.538084 -13.012183 9
-59.288309 -40.041996 -11.640401 9
-62.863954 -38.500441 -10.221458 9
-66.013804 -38.200886 -9.599289 8
-69.051859 -38.255068 -9.195743 8
-72.105182 -38.328534 -8.791851 8
-75.159857 -38.454182 -8.409241 8
-78.236319 -38.583419 -8.015722 8
-81.363829 -38.653717 -7.569449 8
-84.510897 -38.739409 -7.119414 8
-87.675684 -38.845223 -6.668593 8
-90.881126 -38.925265 -6.185986 8
-94.137844 -38.962779 -5.659818 8
-97.381474 -39.086812 -5.176760 8
-100.682782 -39.160558 -4.644220 8
-103.976904 -39.308286 -4.146140 8
-107.783027 -38.603047 -3.048921 8
-114.156758 -33.541547 1.058754 8
-120.709407 -28.487532 5.205611 7
-124.459441 -28.377286 5.978796 7
-128.322102 -28.161512 6.845066 7
-132.281628 -27.875016 7.781575 7
-136.312505 -27.564700 8.756672 7
-140.437928 -27.200076 9.792624 7
-144.728605 -26.683604 10.959483 7
-148.978761 -26.324563 12.039911 7
145.709051 -28.902485 -3.200510 6
142.459925 -28.927021 -3.562150 6
139.275659 -28.863155 -3.852598 6
136.082896 -28.878154 -4.181689 6
132.936033 -28.841147 -4.464002 6
129.836261 -28.741711 -4.693139 6
126.736807 -28.695762 -4.944823 6
123.660639 -28.643145 -5.180031 6
120.600634 -28.600982 -5.410042 6
117.425183 -28.954983 -5.884486 5
115.013183 -27.067254 -4.898538 5
109.638691 -34.461817 -9.891940 5
106.509712 -35.113148 -10.517406 5
103.589000 -35.162310 -10.743337 5
