ply
format ascii 1.0
element vertex 1378
property float x
property float y
property float z
property int scalar_Label
end_header
-67.333019 -34.130492 23.112877 8
-70.465976 -33.967110 23.369575 8
-73.628808 -33.730334 23.667765 8
-76.797881 -33.547166 23.947549 8
-80.007863 -33.256413 24.285343 8
-83.217919 -33.052207 24.589285 8
-86.456729 -32.808111 24.919426 8
-89.719645 -32.550624 25.263341 8
-93.033990 -32.181508 25.668049 8
-96.354784 -31.879760 26.048386 8
-99.716936 -31.519213 26.464726 8
-103.054038 -31.331304 26.806335 8
-107.599634 -27.328376 28.989291 8
85.667357 -18.899986 32.960942 5
81.827075 -20.044894 32.282281 5
78.173279 -20.743629 31.826004 5
74.583723 -21.347726 31.423008 5
71.063363 -21.825751 31.088106 5
67.649904 -22.024103 30.894540 5
64.697799 -20.582057 31.492549 5
58.533300 -31.582897 26.150981 9
54.305397 -35.758869 24.081610 9
50.389731 -39.057514 22.439704 9
46.594961 -42.198724 20.880871 9
43.161536 -44.024807 19.956909 9
40.008226 -44.720552 19.578795 9
36.970633 -44.948607 19.430027 9
33.991487 -44.938249 19.401089 9
31.019675 -44.941059 19.372002 9
28.051173 -44.980948 19.331344 9
25.101616 -44.956472 19.327409 9
22.155587 -44.959917 19.316207 9
19.217725 -44.957018 19.314036 9
16.292461 -44.902887 19.342253 9
13.357591 -44.985485 19.311321 9
10.438943 -44.973943 19.331179 9
7.528789 -44.917007 19.378607 9
4.615005 -44.949899 19.389176 9
1.710297 -44.909637 19.440532 9
-1.194383 -44.910841 19.478054 9
-4.094723 -44.870504 19.541313 9
-6.994461 -44.845023 19.603425 9
-9.894226 -44.857543 19.653344 9
-12.792024 -44.791561 19.746685 9
-15.691105 -44.795106 19.812796 9
-18.590732 -44.772814 19.897224 9
-21.492818 -44.697819 20.012860 9
-24.396717 -44.666277 20.113753 9
-27.303080 -44.642762 20.216853 9
-30.213462 -44.603274 20.333684 9
-33.129210 -44.543640 20.466297 9
-36.044568 -44.560866 20.568180 9
-38.983530 -44.341868 20.789712 9
-41.947497 -43.958320 21.096772 9
-45.016143 -42.697477 21.832763 9
-52.576312 -2.393504 41.390794 9
-51.601744 -37.382665 24.674856 9
-55.091818 -33.976574 26.471323 9
-62.533115 -4.084537 41.083824 9
-65.782751 -25.365904 31.145105 8
-68.428253 -28.449468 29.834533 8
-71.677386 -28.049566 30.219885 8
-74.954360 -27.613868 30.630351 8
-78.276072 -27.071407 31.100703 8
-81.605082 -26.610270 31.539496 8
-84.974111 -26.081888 32.019296 8
55.938223 -30.388940 30.732373 9
51.504494 -35.572634 28.107909 9
47.515039 -39.348821 26.184303 9
43.892956 -41.854714 24.892847 9
40.622588 -42.957581 24.297611 9
38.490404 -38.327180 26.521712 9
34.539585 -43.219947 24.081201 9
31.532247 -43.265235 24.025055 9
28.540535 -43.277040 23.991873 9
25.557273 -43.291904 23.963702 9
22.586450 -43.277204 23.956498 9
19.616899 -43.307853 23.933523 9
16.663393 -43.265140 23.952923 9
13.707277 -43.296007 23.942677 9
10.760936 -43.289795 23.956989 9
7.821844 -43.255186 23.991595 9
4.883941 -43.252825 24.016765 9
1.952666 -43.205154 24.070509 9
-0.717393 -38.374903 26.476185 9
-3.697635 -38.382746 26.516170 9
-6.833895 -43.160706 24.221583 9
-9.759703 -43.140508 24.287312 9
-12.685130 -43.119350 24.359892 9
-15.610727 -43.057302 24.458959 9
-18.537470 -43.056400 24.534391 9
-21.466663 -42.979859 24.653455 9
-24.397847 -42.942768 24.759582 9
-27.333563 -42.865917 24.891785 9
-30.271434 -42.832434 25.009153 9
-33.214857 -42.774352 25.145208 9
-36.161980 -42.736577 25.277842 9
-39.127967 -42.534750 25.498185 9
-42.135552 -41.987039 25.896459 9
-45.270729 -40.375929 26.828513 9
-48.595031 -37.465241 28.413111 9
-52.115901 -33.533641 30.514203 9
-55.869356 -28.563031 33.142741 9
53.704475 -27.553452 36.210497 9
48.845107 -34.723993 32.508088 9
44.852418 -38.657566 30.451341 9
41.437713 -40.241189 29.589799 9
38.266786 -40.801391 29.252448 9
35.219707 -40.808516 29.201369 9
32.160798 -40.944394 29.092437 9
29.138335 -40.930705 29.065961 9
26.110324 -41.010629 28.999284 9
23.106385 -40.988720 28.990887 9
20.104525 -41.005443 28.969942 9
17.113151 -40.994764 28.969698 9
14.125370 -41.006860 28.964850 9
11.145303 -41.000269 28.976269 9
8.170789 -40.986045 28.998372 9
5.196844 -41.018714 29.003664 9
2.231949 -40.981655 29.050918 9
-0.727361 -40.886783 29.134145 9
-3.689184 -40.862721 29.188489 9
-6.648009 -40.794073 29.272150 9
-9.608050 -40.776742 29.336751 9
-12.567164 -40.721097 29.427535 9
-15.527206 -40.651823 29.532071 9
-18.488680 -40.630111 29.619455 9
-21.453498 -40.508429 29.764294 9
-24.421241 -40.427818 29.895319 9
-27.394078 -40.316911 30.048670 9
-30.373808 -40.171071 30.226763 9
-33.356279 -40.086033 30.381119 9
-36.347841 -39.955135 30.565859 9
-39.326437 -40.071002 30.632396 9
-42.407050 -39.120460 31.248318 9
-45.664821 -36.712907 32.614104 9
-49.147925 -32.840459 34.736170 9
-53.089936 -26.017129 38.375259 9
51.550674 -24.096375 42.127539 9
46.437466 -32.608111 37.626665 9
42.576612 -35.985583 35.802538 9
39.238557 -37.111464 35.155688 9
36.116797 -37.251309 35.028251 9
33.022297 -37.310614 34.950210 9
29.942267 -37.348113 34.891037 9
26.876598 -37.355413 34.855029 9
23.819879 -37.359470 34.828173 9
20.767014 -37.393817 34.793067 9
17.724331 -37.407926 34.775854 9
14.689099 -37.415169 34.769581 9
11.662058 -37.399182 34.782700 9
8.640867 -37.371194 34.809380 9
5.621450 -37.371442 34.828766 9
2.608711 -37.329494 34.877336 9
-0.402979 -37.312050 34.920529 9
-3.410098 -37.243600 34.997481 9
-6.417740 -37.208603 35.064421 9
-9.424867 -37.181915 35.134382 9
-12.431268 -37.120021 35.229954 9
-15.438719 -37.045235 35.339591 9
-18.448194 -36.962657 35.460673 9
-21.460027 -36.900065 35.578794 9
-24.476129 -36.791859 35.728082 9
-27.496249 -36.695776 35.878567 9
-30.523663 -36.551663 36.061606 9
-33.556735 -36.421376 36.245052 9
-36.596270 -36.296277 36.433444 9
-39.667337 -35.877926 36.782667 9
-44.919536 -12.181619 49.306531 9
-46.286366 -30.862848 39.691347 9
40.843905 -30.224153 42.915865 9
37.554844 -30.806838 42.542016 9
34.371784 -30.912679 42.430636 9
31.190643 -31.082168 42.293574 9
28.041467 -31.126263 42.231446 9
24.899530 -31.186754 42.168684 9
21.766256 -31.251582 42.111669 9
18.642527 -31.308947 42.066647 9
15.530916 -31.326912 42.050575 9
12.425257 -31.348803 42.040372 9
9.325851 -31.365190 42.041033 9
6.238105 -31.294993 42.095695 9
3.150360 -31.263069 42.137904 9
0.067472 -31.192529 42.208581 9
-3.013333 -31.103701 42.296918 9
-6.094904 -31.044307 42.377503 9
-9.174823 -30.925438 42.497716 9
-12.255582 -30.745178 42.658628 9
-15.340000 -30.598220 42.809798 9
-18.428447 -30.385373 43.004165 9
-21.521220 -30.236714 43.172362 9
-24.621716 -29.987976 43.402137 9
-27.724765 -29.864715 43.573038 9
-149.437531 -9.198345 -28.559387 7
-147.502545 -13.644215 -26.712687 7
-149.874185 3.658336 -29.782382 7
-146.108747 1.281949 -29.990068 7
-142.571349 -1.314547 -29.968301 7
-139.256337 -4.142442 -29.712578 7
-136.276486 -7.345359 -29.082775 7
-133.822092 -11.168556 -27.840749 7
-132.766921 -16.679028 -24.929695 7
-149.567527 10.834316 -27.969580 7
-145.377703 8.903464 -28.659054 7
-141.365041 6.833413 -29.187946 7
-137.466973 4.678078 -29.619334 7
-133.719725 2.389851 -29.906148 7
-130.152484 -0.075320 -30.006863 7
-126.790475 -2.760785 -29.882291 7
-123.719468 -5.784251 -29.418089 7
-120.971370 -9.209864 -28.558949 7
-115.247007 -9.022594 -31.378782 8
-107.571194 -6.240251 -36.755621 8
-104.019314 -8.499224 -37.035296 8
-101.478542 -12.078410 -36.019734 8
-99.506894 -16.481190 -34.229170 8
-98.381216 -22.154774 -31.253349 8
-94.382369 -23.897413 -32.105507 8
-145.977016 15.124779 -25.908200 7
-141.605895 13.403561 -26.843755 7
-137.382581 11.584028 -27.654662 7
-133.269213 9.696332 -28.378317 7
-129.295810 7.700451 -28.974414 7
-125.435030 5.616469 -29.468881 7
-121.734204 3.381911 -29.798692 7
-118.177968 1.001597 -29.974260 7
-110.571525 3.477591 -35.228671 8
-105.257930 3.400792 -37.747820 8
-101.808313 1.108573 -37.954945 8
-98.535296 -1.398616 -37.947636 8
-95.386107 -4.068821 -37.784727 8
-92.456091 -7.044746 -37.328791 8
-89.758788 -10.369662 -36.545736 8
-87.463660 -14.312811 -35.181527 8
-86.039667 -19.609066 -32.539657 8
-83.361453 -23.172139 -31.622957 8
-79.408469 -24.828326 -32.551302 8
-236.881763 138.759156 -63.616205 0
-149.527818 18.500772 -19.885539 7
-144.484465 17.346521 -21.544161 7
-138.405085 17.319021 -24.462344 7
-133.999797 15.705959 -25.524466 7
-129.706862 14.032766 -26.500691 7
-125.537882 12.279580 -27.372098 7
-121.517633 10.410288 -28.102612 7
-117.585410 8.482704 -28.760004 7
-109.816785 11.062007 -34.277099 8
-104.820192 10.594179 -36.434741 8
-101.128431 8.635480 -36.978111 8
-97.535750 6.581992 -37.418477 8
-94.055642 4.407233 -37.731781 8
-90.669612 2.124615 -37.935952 8
-87.403473 -0.310692 -37.988875 8
-84.263267 -2.920331 -37.873447 8
-81.255624 -5.728580 -37.570590 8
-78.467333 -8.879221 -36.943414 8
-75.978420 -12.520700 -35.855485 8
-73.991264 -17.005648 -33.976513 8
-72.533573 -22.446596 -31.220038 8
-68.662111 -24.118972 -32.130176 8
-56.141499 -19.104559 -41.793855 9
-50.232799 -16.804809 -46.323497 9
-46.841048 -18.836628 -46.788466 9
-44.550027 -22.928358 -45.374585 9
-44.925378 -32.295884 -39.216152 9
-234.954051 145.666139 -63.101079 0
-231.702056 142.775801 -62.437988 0
-226.005483 140.823820 -63.596142 0
-222.354437 138.161972 -63.300670 0
-147.115125 21.629099 -16.526324 7
-142.185352 20.359615 -18.097147 7
-137.463129 18.962440 -19.486528 7
-132.797702 17.579232 -20.865326 7
-126.652946 17.825594 -24.092855 7
-122.315624 16.272168 -25.208955 7
-118.129405 14.610488 -26.184285 7
-110.946943 16.401025 -30.997458 8
-105.274759 16.660212 -34.028396 8
-101.318672 15.017469 -34.924052 8
-97.530294 13.216096 -35.636164 8
-93.849992 11.316335 -36.235219 8
-90.208006 9.398306 -36.810167 8
-86.655354 7.391288 -37.287767 8
-83.205485 5.268217 -37.643072 8
-79.875510 2.994412 -37.844221 8
-76.605723 0.641664 -37.969556 8
-73.432133 -1.850456 -37.960453 8
-70.409642 -4.577133 -37.725534 8
-67.553854 -7.582696 -37.227449 8
-60.525301 -3.985820 -43.263470 9
-55.563250 -3.438281 -46.219879 9
-50.842291 -3.138062 -48.894722 9
-46.998311 -4.211695 -50.214133 9
-43.771789 -6.321334 -50.536227 9
-40.955292 -9.180862 -50.157926 9
-38.323505 -12.433315 -49.432098 9
-35.828201 -16.020761 -48.422293 9
-33.667825 -20.371455 -46.743537 9
-32.182794 -26.259654 -43.709668 9
-29.514340 -29.866391 -42.802305 9
-242.386329 145.264162 -52.755097 0
-230.424895 145.357637 -58.470230 0
-220.417330 144.961305 -62.901567 0
-217.279535 142.136308 -62.268427 0
-214.159222 139.324871 -61.644411 0
-211.162609 136.483083 -60.946277 0
-150.650242 25.161719 -10.467039 7
-145.280072 24.204843 -12.515354 7
-140.117651 23.144746 -14.394347 7
-135.135074 21.997049 -16.128847 7
-130.375431 20.706792 -17.658650 7
-125.704957 19.399828 -19.138949 7
-121.198083 17.991141 -20.472799 7
-111.917345 21.924678 -27.946347 8
-105.532771 22.915802 -31.912616 8
-102.222871 20.518970 -31.972851 8
-98.247518 18.923923 -32.934225 8
-94.360922 17.269407 -33.815999 8
-90.529127 15.590919 -34.660006 8
-86.806385 13.814406 -35.387355 8
-83.153507 11.981659 -36.046933 8
-79.576515 10.077986 -36.625533 8
-76.075310 8.095900 -37.118068 8
-72.662073 6.009845 -37.500745 8
-69.330576 3.818838 -37.776154 8
-63.973460 4.693921 -41.205173 9
-59.110635 4.979396 -43.980446 9
-54.334690 5.269705 -46.719614 9
-49.815907 5.281174 -49.140476 9
-46.023231 4.193962 -50.440269 9
-42.739269 2.285556 -50.921964 9
-39.706724 -0.059327 -50.982137 9
-36.744275 -2.547501 -50.915131 9
-33.847450 -5.184329 -50.719799 9
-31.033918 -8.018663 -50.353928 9
-28.311825 -11.085823 -49.789547 9
-25.759934 -14.571818 -48.859664 9
-23.402067 -18.568103 -47.490398 9
-21.466007 -23.628915 -45.187991 9
-19.923540 -29.794989 -41.941075 9
-246.574814 146.075636 -44.565420 0
-236.951113 145.212046 -48.597522 0
-224.805061 145.436058 -54.697051 0
-212.357661 146.011378 -61.218118 0
-209.273948 143.214180 -60.604648 0
-206.254404 140.410988 -59.961864 0
-203.208039 137.636675 -59.360704 0
-149.947485 26.710971 -5.076042 7
-144.131996 26.130188 -7.679024 7
-138.679113 25.317579 -9.936210 7
-133.388348 24.449960 -12.077141 7
-128.379222 23.396208 -13.946450 7
-123.518628 22.277076 -15.698913 7
-118.827491 21.060981 -17.301126 7
-106.473432 28.374404 -28.944717 8
-101.814493 27.499639 -30.783932 8
-97.655954 26.132560 -32.019920 8
-95.470329 22.477457 -30.614403 8
-91.471417 20.978450 -31.686567 8
-87.552853 19.431771 -32.689268 8
-83.735732 17.803874 -33.587769 8
-80.003138 16.108141 -34.400359 8
-76.310503 14.397289 -35.187534 8
-72.719689 12.581706 -35.853742 8
-69.171528 10.735439 -36.482170 8
-65.721580 8.772305 -36.983062 8
-58.999370 11.777132 -42.699146 9
-54.185025 12.113923 -45.542711 9
-49.683396 12.096659 -47.978134 9
-45.821572 11.152102 -49.431687 9
-42.443289 9.459627 -50.112131 9
-39.286354 7.407099 -50.429811 9
-36.161640 5.299807 -50.698322 9
-33.076189 3.118520 -50.900584 9
-30.050539 0.816163 -50.992996 9
-27.074670 -1.599951 -50.986117 9
-24.181041 -4.207237 -50.809006 9
-21.338593 -6.959925 -50.510245 9
-18.578540 -9.940129 -50.016416 9
-15.945669 -13.270755 -49.218716 9
-13.450167 -17.010943 -48.071216 9
-11.255021 -21.591655 -46.189063 9
-9.856518 -28.327165 -42.398950 9
-6.310189 -29.910928 -43.329168 9
-243.196001 145.268665 -38.697670 0
-231.494253 145.168890 -44.517746 0
-219.731594 145.318607 -50.567712 0
-205.372564 146.689457 -58.875707 0
-201.449653 144.258678 -58.991817 0
-198.485210 141.480196 -58.362147 0
-195.493767 138.729947 -57.773824 0
-150.431602 27.176316 1.802626 7
-143.868219 27.225848 -1.724421 7
-137.887792 26.866745 -4.651417 7
-132.283646 26.266135 -7.209402 7
-126.973913 25.483043 -9.484617 7
-121.844319 24.617686 -11.610443 7
-111.703421 29.228863 -20.380468 8
-103.929938 31.616879 -26.283114 8
-99.479836 30.514100 -27.891441 8
-95.311650 29.161846 -29.174508 8
-91.184679 27.823285 -30.451128 8
-87.104128 26.490168 -31.712483 8
-84.450491 23.429466 -30.969213 8
-80.968015 21.402973 -31.421777 8
-77.130395 19.868156 -32.424769 8
-73.385314 18.255553 -33.327709 8
-69.713048 16.583849 -34.154640 8
-66.081530 14.891829 -34.950680 8
-64.810051 9.758763 -32.011609 8
-54.738607 17.795948 -43.268366 9
-50.097064 17.963154 -45.956816 9
-46.136431 17.175456 -47.598338 9
-42.649668 15.686365 -48.486875 9
-39.365009 13.892128 -49.053239 9
-36.132365 12.025717 -49.545343 9
-32.942463 10.095655 -49.974359 9
-29.792862 8.099106 -50.339649 9
-26.674706 6.045395 -50.652738 9
-23.615710 3.873103 -50.854908 9
-20.603283 1.595231 -50.962394 9
-17.627269 -0.778246 -50.987946 9
-14.712521 -3.311763 -50.872398 9
-11.834130 -5.966384 -50.657172 9
-9.047534 -8.884011 -50.211585 9
-6.349914 -12.086026 -49.522382 9
-3.766636 -15.666335 -48.509627 9
-1.386459 -19.895607 -46.933856 9
0.567556 -25.444197 -44.200102 9
3.033220 -29.851996 -42.561131 9
-237.164001 145.366599 -34.893026 0
-225.390644 145.362284 -41.018630 0
-214.656257 145.201623 -46.486792 0
-203.448937 145.434701 -52.514570 0
-193.794099 145.273895 -57.430893 0
-190.894298 142.514763 -56.803099 0
-187.948974 139.790746 -56.231831 0
-185.051108 137.062544 -55.637915 0
-145.748134 26.315827 6.982689 7
-138.448925 27.117717 2.401175 7
-132.038112 27.236426 -1.195590 7
-126.201623 26.929595 -4.169602 7
-120.707414 26.399245 -6.796943 7
-107.256859 34.506240 -20.164318 8
-101.907085 34.284631 -22.950912 8
-97.465437 33.165786 -24.583025 8
-93.195058 31.926127 -26.037390 8
-88.957310 30.717231 -27.501740 8
-84.810982 29.466599 -28.890312 8
-80.799958 28.112654 -30.133615 8
-76.793945 26.811605 -31.418177 8
-73.636071 24.450304 -31.461740 8
-70.673432 21.825374 -31.209541 8
-66.953155 20.243961 -32.146385 8
-65.102149 16.023458 -30.121481 8
-56.483015 21.681449 -39.079774 9
-51.008793 23.021874 -43.140041 9
-46.854478 22.507429 -45.116479 9
-43.203330 21.281623 -46.298580 9
-39.829375 19.651652 -47.036470 9
-36.509013 17.959586 -47.704191 9
-33.205016 16.263184 -48.364587 9
-29.978150 14.450404 -48.902203 9
-26.790234 12.579786 -49.381007 9
-23.609785 10.704782 -49.857485 9
-20.479802 8.738166 -50.244240 9
-17.381693 6.707584 -50.571822 9
-14.335807 4.562267 -50.792069 9
-11.336229 2.302291 -50.908464 9
-8.350189 -0.011131 -50.983854 9
-5.418928 -2.481109 -50.920518 9
-2.539289 -5.117661 -50.713160 9
0.297114 -7.918626 -50.368253 9
3.062102 -10.976362 -49.803425 9
5.724214 -14.405763 -48.918323 9
8.243972 -18.361571 -47.579506 9
10.468054 -23.355697 -45.332072 9
12.303425 -29.799660 -41.828243 9
-229.839162 145.932548 -32.230879 0
-219.714413 145.409801 -37.257594 0
-207.134119 146.016679 -44.504416 0
-198.594106 145.295308 -48.532088 0
-186.456059 146.198496 -55.785143 0
-183.457093 143.523881 -55.296371 0
-180.621093 140.797472 -54.683784 0
-177.780559 138.087280 -54.091253 0
-149.762555 17.037362 23.426675 7
-133.985021 26.052083 7.776845 7
-126.711681 27.083221 2.913315 7
-120.528199 27.188819 -0.646058 7
-105.226142 37.191210 -16.788469 8
-100.300299 36.495689 -19.047416 8
-95.760285 35.468923 -20.844907 8
-91.296922 34.437205 -22.600338 8
-86.961005 33.336051 -24.236540 8
-82.764996 32.140939 -25.728006 8
-78.614913 30.958420 -27.207697 8
-74.573846 29.705104 -28.577360 8
-70.609270 28.414938 -29.880787 8
-66.713341 27.092496 -31.125800 8
-65.432042 22.175370 -28.203959 8
-58.601499 25.083435 -34.286566 9
-53.278903 26.062522 -38.075025 9
-48.047712 27.089510 -41.851121 9
-44.087335 26.317375 -43.565538 9
-40.612955 24.844753 -44.485106 9
-37.185986 23.332977 -45.352891 9
-33.828124 21.739235 -46.124632 9
-30.505879 20.112843 -46.856175 9
-27.222989 18.442001 -47.536613 9
-23.978580 16.722241 -48.163139 9
-20.775268 14.941992 -48.725682 9
-17.589014 13.141556 -49.267966 9
-14.434040 11.287986 -49.757408 9
-11.330001 9.332466 -50.146574 9
-8.255932 7.309157 -50.472892 9
-5.213823 5.205049 -50.725649 9
-2.196642 3.026812 -50.913899 9
0.768505 0.698906 -50.966244 9
3.711896 -1.719655 -50.943894 9
6.624115 -4.264872 -50.814928 9
9.485391 -7.006401 -50.516654 9
12.281200 -10.009708 -49.992590 9
15.020529 -13.280785 -49.243788 9
17.626972 -17.089459 -48.027512 9
20.057175 -21.645333 -46.164856 9
21.893960 -28.453014 -42.307483 9
25.390304 -29.883774 -43.375457 9
-222.219550 146.630452 -29.967238 0
-213.936853 145.502595 -33.653577 0
-201.579643 146.103182 -40.991686 0
-193.690469 145.175716 -44.629707 0
-183.224500 145.460998 -50.674219 0
-176.222326 144.485965 -53.790142 0
-173.398129 141.797239 -53.217969 0
-170.646278 139.089902 -52.594966 0
-167.864151 136.408725 -52.013943 0
-137.300634 17.062905 23.777612 7
-122.369275 25.891433 8.386326 7
-103.897342 39.127765 -12.437336 8
-98.954170 38.422934 -14.754647 8
-94.213325 37.595123 -16.865192 8
-89.673156 36.631640 -18.760097 8
-85.226886 35.643761 -20.586333 8
-80.882053 34.616391 -22.327893 8
-76.632600 33.550071 -23.988627 8
-72.543042 32.354941 -25.462313 8
-68.481335 31.191357 -26.948150 8
-65.723644 28.323712 -26.378585 8
-65.270626 22.204861 -21.990784 8
-55.657744 29.043078 -32.826762 9
-50.292251 30.127655 -36.803124 9
-45.241381 30.927678 -40.382711 9
-41.047881 30.560541 -42.576426 9
-38.163545 28.186529 -42.481391 9
-34.721359 26.724873 -43.410812 9
-31.314588 25.241653 -44.307065 9
-27.952296 23.716617 -45.149435 9
-24.634501 22.143607 -45.933234 9
-21.339073 20.557549 -46.697960 9
-18.096587 18.895818 -47.378140 9
-14.892681 17.177763 -47.996912 9
-11.703741 15.444801 -48.599573 9
-8.542736 13.665858 -49.154958 9
-5.426774 11.796484 -49.619359 9
-2.343895 9.852849 -50.012114 9
0.722101 7.863894 -50.364719 9
3.774904 5.832261 -50.681388 9
6.771562 3.641810 -50.849031 9
9.763734 1.410100 -50.987088 9
12.718502 -0.959865 -51.002918 9
15.631455 -3.498743 -50.870895 9
18.526833 -6.155984 -50.643650 9
21.355438 -9.101392 -50.164147 9
24.138177 -12.305652 -49.467130 9
26.854164 -15.875896 -48.459773 9
29.420803 -20.159813 -46.831669 9
31.666845 -25.905816 -43.918643 9
34.475596 -29.847111 -42.703702 9
-208.332530 145.539188 -29.971973 0
-198.327439 145.291908 -35.494314 0
-187.475139 145.592002 -41.950336 0
-178.524225 145.321276 -46.858135 0
-169.136571 145.422232 -52.321362 0
-166.379392 142.745570 -51.736850 0
-163.605581 140.089446 -51.182213 0
-160.853207 137.436074 -50.621203 0
-103.124212 40.476724 -7.255861 8
-98.031911 39.889984 -9.810709 8
-93.061708 39.279334 -12.278516 8
-88.337242 38.495307 -14.468932 8
-83.709860 37.694861 -16.592804 8
-79.274985 36.756110 -18.498119 8
-74.944633 35.773357 -20.310757 8
-70.675678 34.794495 -22.093688 8
-66.549468 33.708539 -23.711820 8
-65.482416 28.535586 -20.323791 8
-58.662281 31.251430 -26.519164 9
-53.003525 32.589353 -30.951305 9
-47.626124 33.722787 -35.059517 9
-42.891343 34.075155 -38.179020 9
-38.938625 33.350623 -39.996298 9
-35.310357 32.186928 -41.281292 9
-31.752035 30.964768 -42.482390 9
-28.940586 28.511955 -42.283162 9
-25.552109 27.057915 -43.209286 9
-22.188240 25.596449 -44.118333 9
-18.882331 24.061584 -44.939066 9
-15.592295 22.525984 -45.753145 9
-12.348087 20.927094 -46.494047 9
-9.130022 19.297420 -47.198821 9
-5.955988 17.593215 -47.822812 9
-2.787728 15.890080 -48.447639 9
0.346003 14.119821 -49.003181 9
3.440400 12.261699 -49.470523 9
6.536306 10.405703 -49.943963 9
9.582130 8.417199 -50.288264 9
12.620120 6.392362 -50.603358 9
15.623617 4.250876 -50.811116 9
18.598799 1.994790 -50.916938 9
21.574340 -0.304788 -50.993155 9
24.505423 -2.796696 -50.897838 9
27.420262 -5.414736 -50.699283 9
30.303199 -8.231773 -50.331935 9
33.138280 -11.335548 -49.718669 9
35.913194 -14.816961 -48.782225 9
38.604093 -18.831508 -47.388696 9
41.088832 -23.985066 -44.997959 9
43.976254 -27.737487 -43.935427 9
-202.446673 145.693433 -26.611585 0
-192.882142 145.338000 -31.956445 0
-180.896941 146.179900 -39.719251 0
-173.840943 145.175386 -43.056437 0
-162.354993 146.263037 -50.733510 0
-159.465063 143.685679 -50.323525 0
-156.742644 141.046435 -49.766863 0
-154.040102 138.409417 -49.203417 0
-103.082092 41.056513 -0.936264 8
-97.520611 40.913966 -4.192969 8
-92.297162 40.533294 -7.057695 8
-87.343277 39.967481 -9.614237 8
-82.507455 39.374901 -12.081048 8
-77.950370 38.552956 -14.198603 8
-73.393219 37.826183 -16.395441 8
-69.082519 36.881421 -18.271605 8
-65.857514 34.585489 -18.412251 8
-65.485729 28.412347 -13.726729 8
-56.227880 34.463412 -24.203872 9
-50.622554 35.744310 -28.655465 9
-45.188794 36.981949 -32.970706 9
-40.875193 36.715152 -35.407048 9
-37.039747 35.811321 -37.047175 9
-33.380528 34.697530 -38.415464 9
-29.798070 33.517367 -39.686942 9
-26.194587 32.430385 -41.048270 9
-22.702111 31.207630 -42.236613 9
-19.216724 30.024025 -43.454599 9
-16.527209 27.383767 -43.030941 9
-13.222668 25.905509 -43.910008 9
-9.945711 24.404171 -44.756755 9
-6.694941 22.878089 -45.570720 9
-3.483112 21.294805 -46.318331 9
-0.299702 19.669705 -47.018264 9
2.869796 18.029991 -47.701011 9
6.000792 16.312600 -48.301494 9
9.115381 14.562137 -48.868667 9
12.201214 12.740663 -49.364911 9
15.274691 10.882332 -49.827397 9
18.331057 8.967446 -50.237637 9
21.337863 6.891568 -50.493074 9
24.357952 4.825194 -50.767353 9
27.345067 2.619653 -50.914449 9
30.318356 0.318477 -50.980672 9
33.269273 -2.123476 -50.925169 9
36.209875 -4.683771 -50.773211 9
39.120167 -7.459570 -50.435860 9
41.999723 -10.488325 -49.883472 9
44.786729 -14.081379 -48.832461 9
47.327503 -19.044995 -46.552473 9
49.415779 -26.640624 -41.922600 9
-195.123500 146.427947 -24.678788 0
-187.459032 145.384232 -28.458395 0
-175.849794 146.149964 -36.150624 0
-168.806124 145.184214 -39.623937 0
-159.562977 145.343315 -45.376691 0
-152.700463 144.596341 -48.927889 0
-150.031235 141.971416 -48.363763 0
-147.344050 139.366053 -47.829449 0
-144.689419 136.754905 -47.273061 0
-104.171761 40.448972 7.187662 8
-97.839110 41.042414 2.772984 8
-92.167815 41.082107 -0.781583 8
-86.805362 40.918892 -3.981429 8
-81.704197 40.585373 -6.882638 8
-76.880930 40.041002 -9.441710 8
-72.218511 39.408649 -11.831641 8
-67.772678 38.604189 -13.949068 8
-65.739030 34.703128 -12.042348 8
-65.448448 28.341630 -7.047148 8
-54.157213 37.166750 -21.285690 9
-48.308388 38.804491 -26.277735 9
-43.234548 39.525596 -30.042136 9
-39.076977 39.022274 -32.240190 9
-35.270345 38.067957 -33.854464 9
-31.545272 37.054917 -35.372420 9
-27.900445 35.976512 -36.789458 9
-24.298597 34.887864 -38.173685 9
-20.763857 33.741832 -39.471663 9
-17.239725 32.634095 -40.796491 9
-13.787421 31.448867 -42.015749 9
-10.371041 30.246190 -43.200689 9
-7.650994 27.674838 -42.840406 9
-4.372812 26.236022 -43.751874 9
-1.129836 24.753655 -44.608315 9
2.075768 23.215772 -45.398672 9
5.266256 21.666235 -46.172499 9
8.430949 20.075535 -46.899167 9
11.560117 18.412073 -47.546964 9
14.671120 16.710811 -48.155160 9
17.762852 14.962107 -48.715265 9
20.844241 13.183567 -49.247178 9
23.907748 11.346971 -49.723326 9
26.943560 9.412132 -50.105037 9
29.963498 7.402212 -50.418552 9
32.974587 5.328822 -50.677737 9
35.987550 3.219431 -50.911607 9
38.969594 0.943520 -50.994003 9
41.937942 -1.458705 -50.968386 9
44.849165 -4.191441 -50.642447 9
47.621033 -7.677915 -49.622614 9
50.243135 -12.105669 -47.751299 9
52.635222 -18.056884 -44.508375 9
-182.093979 145.416176 -24.962364 0
-173.004255 145.180698 -30.445917 0
-163.104473 145.496704 -36.906579 0
-154.987875 145.214508 -41.746054 0
-146.094470 145.471947 -47.531469 0
-143.420380 142.887744 -47.016232 0
-140.803112 140.286053 -46.452597 0
-138.171592 137.700780 -45.913797 0
-100.328031 38.826484 13.237761 8
-92.976731 40.591705 7.091273 8
-87.008865 41.024581 2.933877 8
-81.509556 41.080803 -0.613496 8
-76.299188 40.938766 -3.813840 8
-71.338057 40.624537 -6.714099 8
-66.669574 40.061459 -9.222678 8
-65.691974 34.725390 -5.404663 8
-65.531000 28.104834 0.001558 8
-52.301689 39.568551 -17.988424 9
-46.317725 41.398590 -23.336920 9
-41.498426 41.744751 -26.708820 9
-37.439948 41.081523 -28.756874 9
-33.590260 40.182483 -30.477299 9
-29.839328 39.200990 -32.067954 9
-27.534056 35.858096 -30.772857 9
-22.487586 37.198141 -35.125841 9
-18.888345 36.164665 -36.581949 9
-15.366660 35.053596 -37.925820 9
-11.885619 33.924708 -39.230734 9
-8.409574 32.843881 -40.574223 9
-4.995407 31.696548 -41.824688 9
-1.644809 30.469057 -42.969710 9
1.099297 27.954762 -42.659689 9
4.326741 26.495838 -43.537473 9
7.540814 25.034878 -44.406873 9
10.736091 23.555978 -45.251212 9
13.879309 21.969595 -45.974878 9
17.023547 20.401610 -46.716357 9
20.143960 18.783304 -47.402719 9
23.239536 17.103074 -48.023713 9
26.320199 15.380553 -48.602005 9
29.392803 13.629550 -49.153464 9
32.435991 11.773424 -49.600885 9
35.478098 9.893039 -50.029505 9
38.496167 7.899232 -50.350747 9
41.521343 5.891687 -50.667225 9
44.492527 3.619293 -50.731795 9
47.349128 0.775672 -50.252037 9
50.113244 -2.643097 -49.239187 9
52.750964 -6.909364 -47.446391 9
55.299180 -12.001482 -44.915720 9
57.297279 -20.625176 -39.113639 9
-176.385460 145.603309 -21.867222 0
-167.818642 145.207682 -27.037583 0
-156.681324 146.154847 -35.022266 0
-150.204917 145.185251 -38.355228 0
-139.723246 146.273922 -46.042875 0
-136.953799 143.773297 -45.672148 0
-134.345961 141.204125 -45.139707 0
-131.766037 138.629174 -44.585738 0
-129.488276 135.896691 -43.702859 0
-89.270173 38.780239 13.355689 8
-82.223636 40.510134 7.292028 8
-76.379250 41.036662 3.035150 8
-71.045956 41.107240 -0.501874 8
-65.967237 41.003975 -3.726462 8
-65.758204 34.596786 1.590446 8
-57.457646 38.982085 -7.559992 9
-50.613574 41.734988 -14.372093 9
-44.629310 43.555560 -19.830995 9
-39.999744 43.608921 -22.903208 9
-35.973848 42.876280 -24.913940 9
-32.082899 42.021423 -26.733975 9
-28.211217 41.218016 -28.586573 9
-24.465513 40.287104 -30.249799 9
-20.778170 39.330404 -31.854326 9
-17.136759 38.364297 -33.422187 9
-13.564792 37.340668 -34.897095 9
-10.023996 36.324023 -36.358895 9
-6.553143 35.234618 -37.714449 9
-3.134023 34.099122 -38.998323 9
0.287342 33.024943 -40.337087 9
3.666950 31.918357 -41.622310 9
6.972190 30.697643 -42.763231 9
9.722242 28.197968 -42.455870 9
12.934704 26.792274 -43.381695 9
16.121773 25.352407 -44.263221 9
19.266839 23.826954 -45.045932 9
22.408018 22.309448 -45.834201 9
25.533387 20.763727 -46.589527 9
28.635489 19.160793 -47.282426 9
31.708443 17.471485 -47.884319 9
34.780580 15.776134 -48.481946 9
37.842765 14.039495 -49.039434 9
40.878141 12.190457 -49.485435 9
43.897875 10.252269 -49.847030 9
46.821563 7.875980 -49.775667 9
49.661998 5.038117 -49.259988 9
52.401286 1.568899 -48.144515 9
55.079548 -2.456792 -46.519260 9
57.744671 -6.899519 -44.534009 9
58.902167 -20.322707 -33.953348 9
-169.850041 146.162987 -19.707019 0
-162.617039 145.251480 -23.694000 0
-153.330454 145.430110 -29.997324 0
-145.352056 145.195802 -35.073497 0
-137.301389 145.171254 -40.382321 0
-130.608710 144.637942 -44.346888 0
-128.025577 142.092463 -43.827462 0
-125.478571 139.535975 -43.275324 0
-122.916745 136.994587 -42.747093 0
-78.429227 38.751290 13.436688 8
-71.674861 40.442848 7.460005 8
-65.981557 41.026051 3.154798 8
-65.755813 34.557994 8.633081 8
-56.789236 39.769146 -1.885558 9
-49.250000 43.444509 -10.116194 9
-43.250111 45.263537 -15.705110 9
-38.706341 45.164224 -18.653897 9
-34.607075 44.515038 -20.828432 9
-30.654107 43.732212 -22.789893 9
-26.749670 42.959028 -24.728183 9
-22.937194 42.118896 -26.547670 9
-19.151136 41.316027 -28.382753 9
-15.486524 40.378489 -30.020422 9
-11.872060 39.422168 -31.609078 9
-8.298628 38.459299 -33.165439 9
-4.777206 37.463778 -34.659464 9
-1.285102 36.475847 -36.141301 9
2.140257 35.412471 -37.513743 9
5.510567 34.288017 -38.797097 9
8.891163 33.243856 -40.157912 9
12.202336 32.094304 -41.381508 9
15.484135 30.923895 -42.568133 9
18.250779 28.459445 -42.286610 9
21.432074 27.062836 -43.211121 9
24.582888 25.609473 -44.066751 9
27.718561 24.134618 -44.894400 9
30.841710 22.640889 -45.698097 9
33.935805 21.069355 -46.415599 9
37.022681 19.480414 -47.113986 9
40.097960 17.853270 -47.772270 9
43.152183 16.143671 -48.345708 9
46.127174 14.103674 -48.580088 9
49.016238 11.645251 -48.394565 9
51.816817 8.678992 -47.709890 9
54.565352 5.280083 -46.615831 9
57.313135 1.621749 -45.297189 9
60.046370 -2.425355 -43.632533 9
58.839200 -29.926570 -18.976116 9
66.108428 -32.019522 -22.070820 5
-163.446789 146.695453 -17.533811 0
-157.456719 145.287276 -20.353442 0
-148.821209 145.230126 -26.178847 0
-140.656245 145.138518 -31.653613 0
-132.491888 145.230268 -37.291822 0
-124.356217 145.495424 -43.065468 0
-121.809983 142.966394 -42.543157 0
-120.759193 139.620565 -40.274857 3
-67.761295 38.780586 13.427438 8
-65.815803 34.435568 15.966635 8
-56.901824 39.488331 5.388466 9
-48.156815 44.771921 -5.280121 9
-42.145467 46.570897 -10.983112 9
-37.616113 46.412034 -13.933090 9
-35.097628 43.281986 -12.867530 9
-29.351697 45.237406 -18.529469 9
-25.364982 44.568948 -20.656607 9
-21.499352 43.792286 -22.605124 9
-17.678431 43.026542 -24.533122 9
-13.944858 42.191380 -26.340024 9
-10.221322 41.421043 -28.198022 9
-6.623442 40.493536 -29.830704 9
-3.083857 39.523934 -31.386421 9
0.448333 38.610502 -32.987327 9
3.917885 37.636308 -34.491692 9
7.347651 36.642338 -35.951573 9
10.724236 35.591561 -37.324886 9
14.048958 34.477041 -38.606360 9
17.380192 33.435461 -39.957423 9
20.646428 32.284294 -41.166903 9
23.887012 31.114312 -42.342400 9
27.117865 29.965643 -43.530475 9
29.836610 27.329382 -43.046140 9
32.971161 25.910051 -43.928301 9
36.085902 24.448771 -44.759904 9
39.187357 22.959039 -45.557410 9
42.263429 21.389552 -46.266936 9
45.292145 19.640006 -46.784288 9
48.224603 17.478164 -46.869576 9
51.077444 14.899567 -46.530223 9
53.865146 11.890697 -45.764130 9
56.657195 8.704891 -44.844036 9
59.461267 5.345593 -43.778263 9
62.256774 1.659582 -42.416540 9
67.592837 -8.527192 -37.017747 5
70.632329 -11.963756 -36.045714 5
73.630514 -16.123737 -34.402770 5
76.420019 -22.707810 -30.462840 5
-151.897900 145.518402 -17.503053 0
-142.661688 145.821319 -24.237791 0
-135.786993 145.173093 -28.457157 0
-127.292314 145.498737 -34.693313 0
-122.261752 144.199014 -37.030914 3
-117.146921 143.036005 -39.551290 3
-114.610427 140.518815 -39.038774 3
-65.848672 27.141934 29.994777 8
-47.698424 45.202867 0.897740 9
-44.080631 43.458853 -0.038280 9
-36.718179 47.366803 -8.729697 9
-32.411050 46.948917 -11.352817 9
-28.232871 46.443673 -13.806197 9
-24.118449 45.945040 -16.220834 9
-20.161970 45.288210 -18.381045 9
-16.272414 44.612952 -20.477526 9
-12.480351 43.857223 -22.432490 9
-8.720028 43.132580 -24.393337 9
-5.074396 42.275944 -26.153784 9
-1.431422 41.496136 -27.982035 9
2.112123 40.594318 -29.629621 9
5.608620 39.667125 -31.221031 9
9.061260 38.715199 -32.759078 9
12.468162 37.727588 -34.232478 9
15.855683 36.761098 -35.711328 9
19.188301 35.724099 -37.087443 9
22.472077 34.620195 -38.368329 9
25.748624 33.552956 -39.677289 9
29.012123 32.507154 -40.996405 9
32.216643 31.342596 -42.166016 9
35.401140 30.162918 -43.307636 9
38.157040 27.593957 -42.885235 9
41.266519 26.172356 -43.753716 9
44.342081 24.644375 -44.501410 9
47.326589 22.765086 -44.865450 9
50.227117 20.499215 -44.818625 9
53.055317 17.824693 -44.348928 9
55.867435 14.924877 -43.662513 9
58.688553 11.879022 -42.849020 9
58.895518 -5.446011 -27.208664 9
58.882941 -26.486667 -8.030182 9
67.000650 0.214655 -37.999544 5
70.106408 -2.257486 -37.905427 5
73.217397 -4.889950 -37.668571 5
76.324205 -7.813156 -37.163605 5
79.431625 -11.086023 -36.340171 5
82.521812 -15.032334 -34.890856 5
85.540619 -20.600319 -31.914054 5
-146.180870 145.843020 -14.906164 0
-139.098350 145.177424 -19.380601 0
-130.498289 145.429244 -25.792479 0
-123.749750 144.921815 -30.171286 0
-117.668523 144.203384 -33.874717 3
-111.116823 143.875513 -38.276405 3
-108.596366 141.383152 -37.779885 3
-48.146307 44.351868 9.060314 9
-40.928769 47.730723 0.769322 9
-36.054497 47.963639 -2.921301 9
-31.603198 47.706513 -5.853223 9
-27.263708 47.402610 -8.660981 9
-23.087643 46.956229 -11.218695 9
-18.994755 46.484939 -13.693054 9
-14.990269 45.971950 -16.064713 9
-11.099235 45.362086 -18.264453 9
-7.303398 44.674956 -20.323554 9
-3.592398 43.918084 -22.256412 9
0.113913 43.243095 -24.261368 9
3.665208 42.336684 -25.939501 9
7.253153 41.589595 -27.791337 9
10.733032 40.685944 -29.419534 9
14.181130 39.784241 -31.026099 9
17.578683 38.834501 -32.551102 9
20.950457 37.890830 -34.062599 9
24.283317 36.914967 -35.515586 9
27.575880 35.894995 -36.897975 9
30.829361 34.824736 -38.204870 9
34.053962 33.724889 -39.462824 9
37.279665 32.684649 -40.776324 9
40.421320 31.419773 -41.819782 9
43.464369 29.838567 -42.497310 9
46.371421 27.743789 -42.598326 9
49.290203 25.635017 -42.693712 9
52.032017 22.707417 -41.898611 9
54.913211 20.231186 -41.622602 9
57.728894 17.310743 -40.884645 9
58.908695 5.754434 -30.926063 9
58.845651 -14.206967 -12.239814 9
66.170879 7.115062 -37.322433 5
69.300157 5.094813 -37.642993 5
72.430556 2.974479 -37.869965 5
75.564337 0.738098 -37.990027 5
78.696781 -1.697474 -37.922184 5
81.845242 -4.239681 -37.765109 5
84.998125 -7.065649 -37.345165 5
88.159333 -10.264981 -36.581382 5
91.330067 -14.034265 -35.290940 5
94.500868 -18.951499 -32.927198 5
-139.812577 146.504116 -13.167769 0
-133.801226 145.380442 -16.547358 0
-125.226561 145.695696 -23.171933 0
-120.447764 144.201433 -25.289816 3
-113.109134 144.196856 -30.698093 3
-106.064434 144.201865 -35.897139 3
-102.684271 142.230412 -36.529245 3
-100.217140 139.745096 -36.002183 3
-41.066816 47.214219 8.437145 9
-35.893574 47.796197 4.114786 9
-31.101985 47.978589 0.452719 9
-26.554244 47.934915 -2.814790 9
-22.250200 47.635680 -5.659789 9
-18.004543 47.366896 -8.489778 9
-13.888634 46.999355 -11.129709 9
-9.805954 46.694939 -13.804156 9
-5.896889 46.187265 -16.157065 9
-2.099863 45.570521 -18.323042 9
1.537820 44.730437 -20.158737 9
5.182777 43.992284 -22.095496 9
8.789888 43.263991 -24.012736 9
12.301766 42.410183 -25.739630 9
15.831682 41.683126 -27.599157 9
19.256015 40.785577 -29.217928 9
22.655470 39.901843 -30.830429 9
26.002128 38.953776 -32.341815 9
29.330522 38.027056 -33.858941 9
32.612564 37.037026 -35.280617 9
35.885889 36.088350 -36.734082 9
39.098977 35.014011 -38.022486 9
42.217372 33.671012 -38.984254 9
45.198218 31.855204 -39.393252 9
48.087884 29.661638 -39.373786 9
50.937314 27.228997 -39.095179 9
53.814549 24.806672 -38.844968 9
56.684676 22.234339 -38.444626 9
58.885990 16.206498 -34.255414 9
58.926288 -1.962619 -16.892794 9
65.202855 12.966290 -35.683968 5
68.350749 11.245808 -36.292343 5
71.490376 9.420439 -36.792873 5
74.633732 7.544473 -37.246121 5
77.777199 5.567854 -37.601561 5
80.924178 3.481753 -37.853161 5
84.074879 1.240249 -37.957086 5
87.240761 -1.094268 -37.981252 5
90.418733 -3.619464 -37.829901 5
93.613245 -6.385745 -37.457913 5
96.828337 -9.503659 -36.762261 5
100.074507 -13.047629 -35.679111 5
103.355379 -17.566666 -33.685149 5
-128.436231 145.635701 -13.856160 0
-123.355839 144.194785 -16.322989 3
-115.792948 144.194091 -22.050939 3
-108.544268 144.200705 -27.545766 3
-101.619220 144.197061 -32.783599 3
-96.817866 143.092899 -35.354045 3
-94.384395 140.619669 -34.814122 3
-43.122404 43.890387 20.487001 9
-36.361031 46.670281 12.743546 9
-34.131155 42.737588 14.919781 9
-26.250592 47.800977 4.121586 9
-21.635482 47.930552 0.566370 9
-14.092232 53.278020 -10.253846 4
-9.678002 53.569199 -13.813183 4
-6.182151 52.331199 -15.195849 4
-2.594069 51.328930 -16.874981 4
0.403526 49.225547 -17.038679 4
2.943636 46.166018 -15.927088 9
6.612979 45.447011 -17.936728 9
10.250998 44.755553 -19.948002 9
13.846996 44.065742 -21.927710 9
17.391781 43.351062 -23.843157 9
20.850347 42.515391 -25.574497 9
24.316898 41.786924 -27.414546 9
26.848140 38.573994 -26.131337 9
31.028664 39.986730 -30.589311 9
34.333198 39.052357 -32.102228 9
37.622475 38.145348 -33.628667 9
40.865536 37.162397 -35.044697 9
43.910453 35.551904 -35.698309 9
46.868262 33.617342 -35.968358 9
49.766210 31.406447 -35.921586 9
52.648036 29.049240 -35.717479 9
55.560472 26.723939 -35.564957 9
58.456925 24.214721 -35.218277 9
58.886323 9.006633 -20.611702 9
58.898702 -10.579093 -1.403897 9
67.298459 16.583189 -34.174708 5
70.451767 14.987499 -34.903150 5
73.599601 13.323227 -35.558177 5
76.751569 11.639289 -36.194784 5
79.898439 9.844069 -36.716326 5
83.047835 7.964423 -37.154692 5
86.206242 6.031007 -37.544667 5
89.368230 3.940366 -37.780731 5
92.546140 1.785748 -37.963356 5
95.736643 -0.551096 -37.974002 5
98.948182 -3.036019 -37.852278 5
102.185197 -5.717104 -37.554141 5
105.450884 -8.880527 -36.800836 5
108.757962 -14.407101 -33.754490 5
-118.579763 144.198500 -13.045832 3
-111.119139 144.205213 -18.853231 3
-104.004217 144.198063 -24.375481 3
-97.194313 144.186931 -29.654064 3
-91.067214 143.928419 -34.157021 3
-88.624768 141.492279 -33.659837 3
-39.428927 41.600824 27.549854 9
-32.260848 45.111016 18.596391 9
-26.542673 46.687353 12.678468 9
-13.840082 60.221639 -10.482089 4
-9.541344 60.320882 -13.841281 4
-6.070866 59.090558 -15.240963 4
-2.532451 58.045694 -16.874732 4
0.432612 55.965523 -17.036343 4
3.213443 53.507884 -16.678203 4
5.877194 50.767139 -15.945473 4
8.007814 46.808056 -13.587754 9
11.637835 46.061895 -15.575667 9
15.287169 45.458400 -17.718253 9
18.892548 44.856530 -19.826597 9
22.414816 44.151693 -21.766454 9
25.892457 43.427908 -23.651027 9
29.306387 42.624659 -25.405337 9
32.715311 41.897749 -27.229751 9
36.057115 41.063340 -28.893289 9
39.329271 40.092133 -30.364679 9
39.584130 28.939068 -19.354639 9
45.545321 37.201424 -32.101827 9
48.488992 35.163160 -32.248150 9
51.395677 32.921995 -32.160340 9
54.320634 30.673941 -32.076492 9
57.261255 28.404376 -31.979945 9
58.889520 19.627017 -24.363400 9
58.893868 1.252139 -5.888791 9
66.166258 21.336722 -31.475221 5
69.335638 19.916535 -32.391486 5
72.494315 18.430558 -33.230899 5
75.646859 16.887687 -34.005788 5
78.802133 15.336469 -34.771538 5
81.951539 13.689363 -35.433716 5
85.104817 12.002504 -36.055978 5
88.260395 10.231714 -36.592695 5
91.422857 8.388891 -37.059198 5
94.593351 6.437795 -37.419833 5
97.778020 4.414367 -37.715264 5
100.979344 2.298982 -37.927528 5
104.199829 0.027061 -37.993414 5
107.440194 -3.109108 -37.200902 5
110.738308 -8.452413 -34.225548 5
114.307897 -24.086731 -21.084116 5
-113.832038 144.195753 -9.747222 3
-106.503988 144.191777 -15.590710 3
-99.455926 144.207618 -21.227135 3
-92.738707 144.201723 -26.574617 3
-86.298587 144.193411 -31.695538 3
-82.974719 142.338833 -32.481957 3
-80.545531 139.927772 -31.995131 3
-22.379764 73.558309 -10.548909 1
-19.704379 70.997520 -10.015727 1
-17.009537 68.437479 -9.494952 1
-14.063657 66.253228 -9.549669 4
-9.460404 66.845499 -13.725428 1
-5.884443 65.844061 -15.471375 1
-2.473545 64.620708 -16.858996 4
0.455127 62.553310 -17.006102 4
3.219542 60.159698 -16.688763 4
5.860042 57.481872 -15.981137 4
8.346865 54.422959 -14.760949 4
10.603281 50.769210 -12.749860 4
12.890065 47.040101 -10.681334 9
16.640007 46.621765 -13.131396 9
20.309372 46.132645 -15.443460 9
23.880142 45.511346 -17.540726 9
27.417378 44.910111 -19.629487 9
30.884721 44.224002 -21.574142 9
34.312292 43.524902 -23.471658 9
37.671409 42.716579 -25.201231 9
40.983558 41.847438 -26.829075 9
44.122185 40.465154 -27.793465 9
47.117236 38.587223 -28.135192 9
50.057026 36.464033 -28.179095 9
53.011911 34.336965 -28.227079 9
55.967914 32.142384 -28.202992 9
58.515120 27.945931 -25.803837 9
58.936605 12.687049 -10.395740 9
64.867196 25.107290 -27.668907 5
68.085494 23.957591 -28.906107 5
71.292078 22.790912 -30.113576 5
74.483468 21.572028 -31.252391 5
77.645678 20.169857 -32.176868 5
80.803269 18.725815 -33.051293 5
83.955517 17.209876 -33.844148 5
87.110690 15.675654 -34.616924 5
90.265416 14.061609 -35.303598 5
93.424815 12.390606 -35.931570 5
96.589009 10.610958 -36.447576 5
99.765847 8.807683 -36.945178 5
102.955211 6.922258 -37.363864 5
106.157128 4.680405 -37.420524 5
109.384884 1.273833 -36.290637 5
112.693090 -4.277996 -33.002361 5
116.226812 -14.778446 -24.768948 5
119.719869 -17.882438 -24.136449 6
123.214180 -20.033262 -24.485023 6
-101.860724 144.202104 -12.375096 3
-94.945059 144.202536 -18.033778 3
-88.326233 144.197107 -23.439570 3
-81.971607 144.194046 -28.627823 3
-77.394804 143.183080 -31.328892 3
-75.000215 140.778832 -30.818248 3
-38.497337 104.825016 -23.274179 3
-36.019798 102.404640 -22.750931 3
-33.514516 100.001487 -22.263899 3
-31.023382 97.566333 -21.728268 3
-28.509237 95.141607 -21.217953 3
-26.003872 92.687060 -20.665572 3
-23.476910 90.239471 -20.133720 3
-19.507638 77.457187 -9.956759 1
-16.871860 74.883616 -9.363896 1
-15.144724 70.851152 -6.519387 1
-10.839514 70.873214 -9.958902 1
-6.630221 70.887260 -13.309812 1
-2.632689 70.683585 -16.260886 1
0.274064 68.638625 -16.415689 1
3.233861 66.688210 -16.707455 1
5.829482 64.026744 -15.961965 4
8.301826 61.057589 -14.792346 4
10.624214 57.687153 -13.079282 4
12.698344 53.650283 -10.466902 4
14.143361 47.991247 -5.651725 9
17.870118 47.463294 -8.015854 9
21.601579 47.069324 -10.520390 9
25.249388 46.591613 -12.867228 9
28.865464 46.154626 -15.228012 9
32.383548 45.568895 -17.351627 9
35.851166 44.949491 -19.396378 9
39.261531 44.264393 -21.323305 9
42.529970 43.215310 -22.752258 9
45.646386 41.700421 -23.568074 9
48.637789 39.734527 -23.807294 9
51.601969 37.618572 -23.863066 9
54.601270 35.583962 -24.027748 9
57.600624 33.487843 -24.123460 9
58.961962 23.433623 -14.550067 9
58.880128 4.621814 5.387573 9
66.843885 28.024556 -25.446133 5
70.023341 26.690614 -26.469054 5
72.902353 23.384679 -25.173673 5
76.390078 24.156077 -28.649605 5
79.585310 23.037767 -29.900323 5
82.765386 21.847707 -31.059563 5
85.923492 20.476089 -32.006014 5
89.078082 19.049704 -32.887806 5
92.229648 17.534933 -33.669742 5
95.387408 16.023025 -34.455329 5
98.548170 14.429706 -35.152978 5
101.716043 12.768657 -35.780250 5
104.893666 11.014138 -36.311871 5
108.081566 8.527301 -36.072143 5
111.312084 4.646646 -34.385216 5
114.636019 -0.581718 -31.337810 5
118.021330 -4.577788 -29.636161 6
121.431622 -7.546391 -29.036202 6
124.920191 -11.115650 -27.854655 6
128.561581 -16.070025 -25.316772 6
132.173505 -19.491338 -24.374708 6
-97.256054 144.197936 -9.110094 3
-90.448752 144.195424 -14.820780 3
-83.923465 144.192486 -20.289604 3
-77.642842 144.201467 -25.561071 3
-71.906938 144.009488 -30.161626 3
-69.508018 141.637311 -29.683743 3
-67.115142 139.261442 -29.192388 3
-45.422129 117.884704 -24.702180 3
-42.985479 115.503262 -24.195639 3
-40.531829 113.129393 -23.706583 3
-38.081627 110.741614 -23.195345 3
-35.615151 108.359429 -22.698864 3
-33.563919 105.496997 -21.345812 3
-32.008750 102.012396 -18.918825 3
-30.433078 98.465118 -16.437349 3
-28.749624 94.959529 -14.083990 3
-25.576396 93.275087 -14.887078 3
-21.360944 93.005210 -18.046764 3
-18.138063 91.501506 -19.073870 3
-15.598643 89.068942 -18.546489 3
-15.956068 82.357766 -11.080452 1
-19.221012 70.898573 3.835146 1
-14.824347 70.831928 0.334769 1
-7.450323 75.774871 -10.942726 1
-3.983207 74.629687 -12.523780 1
-0.941869 72.803647 -13.025269 1
1.863421 70.561058 -12.884212 1
5.875414 70.580281 -16.140899 1
8.531259 68.089469 -15.603212 1
12.260842 67.748143 -18.235524 1
12.604097 60.327253 -10.527477 4
12.215843 50.818272 0.019407 4
16.551128 51.580764 -4.272257 4
18.948364 47.901477 -2.223830 9
22.810337 47.757878 -5.150934 9
26.557515 47.473343 -7.829596 9
30.208917 47.073730 -10.302968 9
33.794842 46.623772 -12.665096 9
37.342953 46.194270 -15.014471 9
40.749959 45.450389 -16.907677 9
44.010085 44.314479 -18.256315 9
47.103548 42.642682 -18.889309 9
50.115884 40.659560 -19.116934 9
53.126789 38.625673 -19.283746 9
56.147162 36.575742 -19.435857 9
58.756516 32.565027 -17.138521 9
58.904905 16.003490 0.678953 9
65.588637 31.995155 -21.860257 5
68.796056 30.817733 -23.084370 5
71.982798 29.565695 -24.206765 5
75.155469 28.256746 -25.251781 5
78.324513 26.946514 -26.287833 5
81.482410 25.563267 -27.231339 5
84.662023 24.390975 -28.415623 5
87.837746 23.230415 -29.604884 5
91.010344 22.087715 -30.806369 5
94.168345 20.778114 -31.810854 5
97.321456 19.350223 -32.678531 5
100.478775 17.909553 -33.530833 5
103.639538 16.376540 -34.280842 5
106.805062 14.488099 -34.644094 5
109.990548 11.631121 -33.966877 5
113.240231 7.287824 -31.720912 5
116.621088 1.025396 -27.487229 5
119.882781 1.038348 -29.967353 6
123.237201 -1.288900 -29.973564 6
126.637086 -3.856882 -29.747955 6
130.098001 -6.752911 -29.207444 6
133.642582 -10.099105 -28.236472 6
137.343527 -14.466098 -26.270499 6
141.128794 -18.879064 -24.312648 6
-92.654397 144.199369 -5.840376 3
-85.936626 144.204690 -11.628875 3
-79.506687 144.202719 -17.156403 3
-73.338353 144.198199 -22.450912 3
-67.391283 144.207382 -27.564741 3
-64.083690 142.492548 -28.564650 3
-61.694334 140.142860 -28.092469 3
-54.542415 133.072833 -26.608405 3
-52.148469 130.717993 -26.113793 3
-49.766246 128.348389 -25.588074 3
-47.341495 126.010439 -25.127476 3
-44.944300 123.641706 -24.604997 3
