ply
format ascii 1.0
element vertex 1434
property float x
property float y
property float z
property int scalar_Label
end_header
118.960614 14.608390 26.216080 6
119.624726 12.900451 27.065588 6
120.216927 11.184201 27.816006 6
120.737770 9.455891 28.468003 6
121.147429 7.697602 28.967757 6
121.505769 5.925378 29.395916 6
121.779903 4.123568 29.707994 6
121.971902 2.288300 29.906644 6
122.077572 0.413170 29.986046 6
122.112143 -1.500091 29.966615 6
122.033517 -3.474773 29.791250 6
121.833754 -5.521062 29.448951 6
121.584556 -7.610839 29.036500 6
121.136071 -9.823278 28.350752 6
120.498377 -12.164395 27.404863 6
119.637878 -14.663342 26.152764 6
118.576177 -17.320929 24.623139 6
119.223186 -19.043502 25.408357 6
114.393086 -24.029633 18.750750 5
112.869760 -27.175171 16.576439 5
111.679285 -30.184528 14.848557 5
98.817060 -40.882001 -2.772592 5
107.877150 -37.351514 9.439006 5
24.800877 140.672074 -95.043357 3
19.900763 139.206172 -101.403077 3
11.093771 139.208715 -112.917809 3
1.620689 139.197037 -125.307319 3
-1.840435 136.603970 -129.765303 0
101.986598 39.902449 7.803950 5
105.149886 38.038731 11.950002 5
106.817679 36.143090 14.129469 5
108.073661 34.255663 15.765877 5
108.981421 32.364025 16.942712 5
109.748335 30.479171 17.932409 5
110.479572 28.609878 18.873167 5
111.219812 26.761535 19.823729 5
111.834327 24.909571 20.607004 5
112.473213 23.077456 21.420302 5
112.990280 21.234555 22.071397 5
111.741499 18.994214 20.397603 5
114.164645 17.616551 23.552005 5
114.508099 15.762480 23.968609 5
114.522144 13.820518 23.949501 5
117.046827 12.616429 27.233719 6
117.625421 10.878522 27.954355 6
118.121809 9.124674 28.564800 6
118.552428 7.356152 29.086633 6
118.900692 5.563302 29.497910 6
119.145907 3.733767 29.771238 6
119.309759 1.870553 29.935075 6
119.389939 -0.031841 29.986245 6
119.382130 -1.979986 29.918903 6
119.293277 -3.975768 29.742059 6
119.061724 -6.052533 29.374089 6
118.687661 -8.218154 28.814962 6
118.225168 -10.453678 28.135884 6
117.484679 -12.862442 27.085853 6
114.488815 -16.517173 23.047158 5
111.816738 -20.114201 19.430537 5
113.553085 -21.307996 21.647980 5
112.670884 -23.996512 20.393835 5
111.684104 -26.797518 18.996722 5
110.576464 -29.727995 17.434674 5
109.345164 -32.797585 15.703561 5
107.231113 -36.517086 12.794378 5
24.216763 143.164579 -89.410150 3
24.208999 139.616666 -89.326739 3
16.887358 139.192522 -98.675662 3
7.948432 139.201701 -110.106525 3
-1.662605 139.194937 -122.400065 3
99.088085 39.842959 8.005286 5
103.087367 38.018035 13.131915 5
105.184577 36.152829 15.814922 5
106.604823 34.282233 17.627083 5
107.715340 32.417178 19.039864 5
108.541447 30.546102 20.085727 5
109.195314 28.671937 20.908673 5
109.888548 26.821032 21.780478 5
110.439425 24.962101 22.467716 5
111.033942 23.124553 23.209320 5
111.547314 21.283629 23.844968 5
112.001047 19.440010 24.402265 5
112.479638 17.611117 24.989807 5
112.832941 15.758710 25.414562 5
113.158677 13.903391 25.802115 5
113.604879 12.086748 26.342863 5
113.924589 10.238019 26.719168 5
114.238466 8.389881 27.086196 5
112.701849 5.911956 25.069387 5
114.481762 4.561389 27.319887 5
114.492835 2.598125 27.291430 5
114.513170 0.629139 27.272876 5
114.519717 -1.354979 27.234508 5
114.530389 -3.347805 27.199377 5
114.468764 -5.383344 27.068909 5
114.515855 -7.382850 27.076490 5
114.382666 -9.478630 26.849296 5
113.937321 -11.745414 26.216792 5
113.509115 -14.032145 25.603739 5
113.028496 -16.375297 24.920245 5
112.533506 -18.757636 24.215333 5
112.038426 -21.172659 23.507381 5
111.229525 -23.803121 22.390460 5
110.427926 -26.474715 21.279549 5
109.439783 -29.307422 19.923562 5
108.282893 -32.301150 18.345100 5
106.023533 -36.075529 15.333442 5
23.669932 142.076765 -83.770854 3
22.231969 139.194926 -85.507392 3
13.853767 139.189418 -95.984408 3
4.797055 139.199026 -107.313023 3
96.249655 39.788172 8.339748 5
92.671065 37.417798 3.842335 5
98.037503 35.694101 10.568786 5
104.643183 34.258405 18.849646 5
105.954174 32.411286 20.484374 5
106.960942 30.561857 21.735927 5
107.831526 28.720310 22.815196 5
108.496457 26.868675 23.634946 5
109.104372 25.023470 24.381747 5
109.639223 23.178574 25.035440 5
110.084816 21.326816 25.575665 5
110.567375 19.492059 26.160933 5
110.997744 17.654218 26.679269 5
111.313543 15.794454 27.052271 5
111.739445 13.968202 27.562208 5
112.636446 12.284508 28.662879 5
112.953842 10.445656 29.033768 5
112.933953 8.501145 28.979152 5
112.797086 6.508463 28.775828 5
113.965448 4.963366 30.212642 5
114.684900 3.281510 31.083698 5
114.794028 1.378466 31.185488 5
114.792744 -0.575200 31.146727 5
114.786738 -2.541175 31.100368 5
114.692964 -4.556307 30.941791 5
112.955681 -7.328316 28.710966 5
112.894667 -9.385024 28.589513 5
112.943366 -11.402991 28.604542 5
112.301243 -13.779423 27.746722 5
111.516885 -16.265285 26.707140 5
111.025859 -18.634876 26.035147 5
110.481339 -21.065989 25.293292 5
109.899393 -23.553017 24.501738 5
109.205490 -26.142679 23.566226 5
108.137541 -29.000909 22.155335 5
106.717251 -32.135160 20.295861 5
102.672547 -37.026616 15.113661 5
23.088326 141.035718 -78.322600 3
19.309859 139.191663 -82.914277 3
10.799723 139.196229 -93.325842 3
1.649101 139.196450 -104.523071 3
93.279677 39.727713 8.565746 5
97.255581 37.860896 13.438187 5
100.116668 36.020074 16.942052 5
102.246966 34.191982 19.548415 5
103.917663 32.373859 21.589940 5
105.096168 30.540104 23.026590 5
106.061455 28.708237 24.200612 5
106.854802 26.874747 25.162629 5
66.900699 17.901432 -23.884452 9
108.182232 23.218903 26.765405 5
108.711681 21.386939 27.400446 5
109.102054 19.535283 27.863713 5
110.130190 17.841759 29.108925 5
110.923338 16.114802 30.064709 5
110.947032 14.199374 30.074618 5
111.828015 12.521999 31.136294 5
112.389436 10.769252 31.804532 5
112.675152 8.939566 32.133049 5
112.867356 7.079992 32.345566 5
113.037242 5.210461 32.529517 5
113.172755 3.325115 32.670064 5
113.246113 1.411319 32.733019 5
113.243397 -0.539884 32.701211 5
113.235628 -2.503336 32.661924 5
113.142499 -4.514215 32.516343 5
113.010719 -6.556404 32.321857 5
112.830673 -8.636779 32.066581 5
112.529291 -10.793272 31.660497 5
111.923587 -13.123225 30.878160 5
110.931376 -15.684765 29.618030 5
110.701367 -17.890213 29.294847 5
109.128696 -20.851632 27.315520 5
108.467964 -23.368125 26.457720 5
107.608346 -26.038849 25.352710 5
106.404079 -28.962336 23.820434 5
104.397294 -32.439866 21.295539 5
22.571512 143.438610 -72.975993 3
22.563652 139.998874 -72.944480 3
16.342899 139.208542 -80.380740 3
7.760116 139.198042 -90.654434 3
-1.531281 139.207689 -101.778095 3
90.256497 39.665946 8.786853 5
94.277073 37.780989 13.605343 5
97.194392 35.923981 17.099958 5
99.235138 34.066976 19.542537 5
101.115556 32.250863 21.792127 5
99.420483 30.031189 19.752204 5
103.909116 28.641582 25.129034 5
104.847048 26.822504 26.246036 5
105.698338 25.012874 27.258390 5
106.547645 23.224403 28.267664 5
107.769447 21.533062 29.723189 5
108.738463 19.818584 30.874770 5
109.318706 18.037190 31.559166 5
109.825311 16.249434 32.154477 5
110.231528 14.444487 32.628576 5
110.591028 12.632437 33.045859 5
110.892589 10.807437 33.392838 5
111.142521 8.968393 33.677067 5
111.316235 7.104458 33.868994 5
111.531338 5.252058 34.109822 5
111.627849 3.355280 34.207418 5
111.689042 1.439330 34.261748 5
111.702019 -0.502948 34.257294 5
111.688237 -2.465573 34.219803 5
111.617582 -4.463042 34.113062 5
111.447344 -6.517366 33.885693 5
111.263092 -8.594904 33.640487 5
111.014743 -10.720534 33.317206 5
110.664774 -12.916323 32.870667 5
110.219921 -15.184517 32.308889 5
109.657202 -17.542510 31.604136 5
108.594343 -20.202966 30.296352 5
106.620115 -23.420670 27.890258 5
105.552106 -26.201824 26.572926 5
103.885746 -29.388961 24.533577 5
99.747024 -34.152703 19.514983 5
22.007580 142.406823 -67.761800 3
21.552961 139.201207 -68.271607 3
13.434653 139.201197 -77.779758 3
4.732206 139.195855 -87.972880 3
-4.667092 139.202174 -98.983196 3
66.210725 40.999028 -15.581832 9
87.190342 39.603473 9.017929 5
91.272834 37.701340 13.803151 5
94.224758 35.826401 17.262195 5
96.293765 33.951875 19.685449 5
98.205477 32.118885 21.923833 5
99.836358 30.304522 23.832474 5
101.205057 28.498579 25.433237 5
102.488318 26.716626 26.933397 5
103.705145 24.957807 28.355248 5
104.933632 23.233402 29.790387 5
106.002915 21.509288 31.038413 5
106.790151 19.751423 31.955216 5
107.452187 17.983050 32.724750 5
108.001359 16.201221 33.361468 5
108.482917 14.412332 33.918441 5
108.866773 12.604626 34.360356 5
109.229644 10.795733 34.777208 5
109.517126 8.967587 35.105155 5
109.754790 7.124621 35.374185 5
109.915917 5.255099 35.552929 5
110.062704 3.377121 35.714361 5
110.125044 1.463668 35.776187 5
110.152442 -0.470541 35.796488 5
110.096819 -2.446907 35.718808 5
110.022031 -4.443156 35.618085 5
109.850450 -6.494346 35.403156 5
109.609169 -8.593442 35.105797 5
109.325449 -10.731645 34.757988 5
108.928107 -12.945908 34.276096 5
108.371637 -15.265080 33.606616 5
107.683798 -17.683361 32.782078 5
106.730737 -20.279151 31.645150 5
104.815257 -23.448802 29.376464 5
102.542743 -26.899615 26.687017 5
99.744713 -30.749076 23.378581 5
21.484635 141.384502 -62.627027 3
18.747749 139.193014 -65.758803 3
10.510994 139.200843 -75.199590 3
1.705484 139.193697 -85.292522 3
66.635468 43.538707 -10.742170 9
65.502669 41.051634 -12.041481 9
84.093494 39.540972 9.275004 5
88.195748 37.618862 13.978144 5
91.204339 35.727149 17.427097 5
93.342755 33.838711 19.878123 5
95.215707 31.981421 22.024614 5
96.947358 30.158767 24.008944 5
98.283738 28.328827 25.539890 5
99.516050 26.518733 26.951368 5
100.944191 24.774278 28.587273 5
102.259729 23.047204 30.093930 5
103.421677 21.324106 31.424336 5
104.387149 19.588717 32.529307 5
105.178634 17.837121 33.434626 5
105.854608 16.075476 34.207344 5
106.405824 14.295901 34.836853 5
106.883805 12.506560 35.382234 5
107.284112 10.702538 35.838391 5
107.573816 8.869967 36.167555 5
107.861274 7.038048 36.493992 5
108.065870 5.179355 36.725241 5
108.208681 3.297084 36.885467 5
108.265516 1.379155 36.946917 5
108.259166 -0.570145 36.935725 5
108.212614 -2.545076 36.878246 5
108.095695 -4.560404 36.739870 5
107.910079 -6.619199 36.522504 5
107.616101 -8.742819 36.180635 5
107.299803 -10.897397 35.812955 5
106.744242 -13.187791 35.170570 5
106.058524 -15.572482 34.378624 5
105.114669 -18.123513 33.290257 5
103.736928 -20.946450 31.703780 5
100.895153 -24.620817 28.437108 5
98.548487 -28.128079 25.738085 5
20.982667 140.379731 -57.590987 3
21.004272 137.046832 -57.574393 3
7.584588 139.201762 -72.623266 3
-1.348387 139.202368 -82.643626 3
63.179542 45.973927 -10.386078 9
66.210061 43.575281 -6.987739 9
64.983609 41.109746 -8.362577 9
80.822052 39.471187 9.397667 5
85.065131 37.534948 14.156123 5
88.113082 35.624724 17.574623 5
90.269581 33.716867 19.993683 5
92.253086 31.850323 22.218904 5
93.941511 30.002252 24.113394 5
95.345306 28.160948 25.688871 5
96.602744 26.334754 27.100379 5
98.081727 24.578386 28.760422 5
99.467888 22.844243 30.316512 5
100.629107 21.102083 31.620519 5
101.598491 19.348726 32.709566 5
102.454488 17.593141 33.671615 5
103.227031 15.837233 34.540229 5
103.888665 14.070009 35.284630 5
104.462272 12.292421 35.930477 5
104.913998 10.490583 36.439822 5
105.299102 8.675299 36.874620 5
105.598465 6.837217 37.213445 5
105.839915 4.981311 37.487499 5
105.986094 3.091688 37.654908 5
106.036095 1.163304 37.714665 5
106.045471 -0.787755 37.729051 5
105.982769 -2.776089 37.662816 5
105.821728 -4.816155 37.486534 5
105.554178 -6.916443 37.191061 5
105.174262 -9.084998 36.769848 5
104.690816 -11.323636 36.232811 5
103.974644 -13.698504 35.435177 5
102.976260 -16.245343 34.321519 5
101.749013 -18.951643 32.951665 5
99.900887 -22.032176 30.886364 5
96.851877 -25.827645 27.475786 5
94.370167 -29.425262 24.701351 5
89.247090 -34.616545 18.967853 5
17.147838 140.841930 -56.321944 3
20.065929 136.287866 -53.148793 3
20.491152 132.842202 -52.704567 3
20.491303 129.590331 -52.725016 3
20.504589 126.349397 -52.730231 3
59.116981 48.451851 -10.628498 9
64.810821 46.000767 -4.384639 9
65.986785 43.615287 -3.094511 9
66.907680 41.253638 -2.083531 9
77.497351 39.400474 9.530572 5
81.881249 37.449697 14.339919 5
84.968944 35.520692 17.728300 5
87.226194 33.600822 20.206468 5
89.208461 31.713697 22.383517 5
90.922204 29.847999 24.266530 5
92.331931 27.987065 25.816599 5
93.636355 26.147385 27.251609 5
95.134079 24.373350 28.898941 5
96.592905 22.631457 30.503993 5
97.711326 20.861359 31.736219 5
98.710594 19.094083 32.838201 5
99.596396 17.325439 33.816183 5
100.366123 15.549578 34.667315 5
101.019839 13.761152 35.391684 5
101.611506 11.969169 36.048447 5
102.114353 10.163057 36.608276 5
102.528233 8.338537 37.071024 5
102.869324 6.496369 37.454440 5
103.087357 4.616579 37.703458 5
103.229140 2.709270 37.869393 5
103.324175 0.781146 37.984590 5
103.300569 -1.196988 37.970308 5
103.185644 -3.220371 37.856511 5
102.962524 -5.300390 37.624751 5
102.608574 -7.451922 37.250274 5
102.152109 -9.669265 36.764142 5
101.491442 -12.003273 36.055054 5
100.648882 -14.453736 35.147515 5
99.544196 -17.068305 33.953775 5
98.080240 -19.908191 32.367611 5
95.584224 -23.335022 29.652818 5
92.820646 -26.996453 26.646466 5
89.598861 -31.010220 23.140096 5
13.653985 137.801545 -54.669938 3
16.315098 133.418403 -51.857649 3
18.904782 129.159117 -49.119557 3
20.011511 125.536691 -47.967010 3
20.002967 122.354263 -48.007004 3
20.015705 119.178422 -48.022866 3
54.763416 50.990326 -11.087247 9
60.587083 48.426301 -4.842446 9
65.127624 46.017690 0.027210 9
65.925526 43.657761 0.883870 9
66.933612 41.327123 1.966858 9
74.112749 39.328563 9.668884 5
78.647902 37.363428 14.536032 5
81.749148 35.413378 17.866089 5
84.068056 33.477142 20.357847 5
86.105417 31.574290 22.548359 5
87.829448 29.688774 24.403546 5
89.307453 27.816032 25.995590 5
90.593124 25.953285 27.382074 5
92.154853 24.168303 29.065182 5
93.660408 22.413820 30.688672 5
94.791018 20.626187 31.910817 5
95.787170 18.838523 32.989464 5
96.660616 17.047366 33.937226 5
97.431312 15.251831 34.775513 5
98.113711 13.450791 35.519832 5
98.733328 11.646854 36.197544 5
99.194769 9.810468 36.706455 5
99.587342 7.960551 37.142290 5
99.922334 6.097231 37.517165 5
100.144804 4.199944 37.772256 5
100.282880 2.272842 37.937731 5
100.317447 0.305085 37.993163 5
100.252756 -1.706776 37.943154 5
100.077850 -3.771789 37.776027 5
99.823158 -5.883293 37.524415 5
99.430686 -8.069253 37.126306 5
98.865057 -10.351555 36.543933 5
98.148256 -12.728956 35.800927 5
97.177297 -15.256152 34.787236 5
95.920903 -17.960384 33.469583 5
94.252846 -20.917391 31.713199 5
91.114908 -24.680985 28.387085 5
79.031470 -33.209098 15.501971 5
84.193529 -32.893503 21.052114 5
66.594322 -44.989971 2.282998 9
7.010953 139.370676 -56.250166 3
9.831366 134.883507 -53.350652 3
12.546083 130.536401 -50.558500 3
15.167091 126.319040 -47.861326 3
17.785960 122.194260 -45.163439 3
19.534995 118.449493 -43.373244 3
19.584100 115.309615 -43.360401 3
19.570542 112.202540 -43.411359 3
56.664248 50.905001 -4.880022 9
61.260603 48.406905 -0.060079 9
64.993553 46.031075 3.855540 9
66.033401 43.702772 4.947536 9
65.203281 41.337704 4.079338 9
70.673080 39.255758 9.820361 5
75.308726 37.272674 14.687417 5
78.468282 35.304057 18.007201 5
80.870972 33.353017 20.534116 5
82.955669 31.433479 22.728471 5
84.692636 29.528299 24.559086 5
86.187905 27.636665 26.137175 5
87.613243 25.773339 27.642856 5
89.168976 23.967327 29.286148 5
90.637909 22.185903 30.839293 5
91.829447 20.389122 32.102494 5
92.786892 18.573770 33.121200 5
93.702663 16.771469 34.097129 5
94.455847 14.952164 34.903577 5
95.137564 13.131040 35.636064 5
95.729614 11.300013 36.275547 5
96.202399 9.446807 36.791050 5
96.593512 7.576835 37.222000 5
96.892863 5.683179 37.557865 5
97.133303 3.771968 37.833090 5
97.202001 1.802743 37.929596 5
97.216561 -0.191544 37.970574 5
97.125649 -2.232259 37.902348 5
96.943129 -4.319258 37.739500 5
96.628879 -6.472772 37.440138 5
96.150443 -8.712357 36.970426 5
95.556006 -11.025587 36.380882 5
94.712793 -13.476244 35.532827 5
93.623921 -16.074832 34.429738 5
92.201353 -18.874383 32.979868 5
90.190593 -22.013794 30.917705 5
86.805510 -25.912556 27.422884 5
66.815604 -38.454959 6.596630 9
77.474891 -35.422729 17.771169 5
66.241379 -43.998369 6.098875 9
-0.436856 141.223280 -58.464519 3
3.060978 136.422494 -54.954494 3
5.941097 131.970633 -52.071612 3
8.753227 127.642656 -49.254245 3
11.419293 123.461156 -46.582440 3
14.060203 119.378882 -43.932695 3
16.618185 115.411792 -41.364266 3
19.064917 111.563747 -38.906308 3
19.077723 108.492308 -38.937201 3
19.093741 105.431184 -38.962580 3
19.104409 102.382134 -38.991229 3
52.680785 53.435337 -4.890487 9
57.223726 50.849367 -0.233229 9
61.022537 48.394234 3.662404 9
64.234756 46.039852 6.957906 9
66.528230 43.754738 9.312423 9
64.403000 41.380103 7.135315 9
67.354377 39.190599 10.167848 5
71.961092 37.183662 14.899863 5
75.138125 35.193731 18.166475 5
77.597145 33.225122 20.697779 5
79.678423 31.283008 22.842833 5
81.485634 29.363612 24.707986 5
83.047511 27.459057 26.322719 5
84.481899 25.575961 27.807894 5
86.099225 23.758079 29.481793 5
87.569695 21.955809 31.006217 5
88.734748 20.133160 32.218649 5
89.758494 18.310032 33.287375 5
90.633191 16.478572 34.204498 5
91.440171 14.650851 35.053399 5
92.084629 12.800703 35.736972 5
92.709398 10.957690 36.401589 5
93.173562 9.082452 36.902942 5
93.563259 7.192441 37.329312 5
93.834103 5.270844 37.635305 5
94.012539 3.320536 37.848067 5
94.106792 1.339885 37.976080 5
94.081748 -0.687168 37.983491 5
93.977607 -2.751825 37.911517 5
93.713423 -4.888085 37.677466 5
93.334641 -7.085834 37.327943 5
92.814730 -9.361263 36.835960 5
92.095073 -11.745555 36.141780 5
91.130771 -14.267541 35.199766 5
89.918413 -16.940339 34.006709 5
88.281835 -19.857093 32.383091 5
85.576135 -23.345065 29.671351 5
82.470573 -27.124957 26.555370 5
78.920955 -31.238785 22.990644 5
66.895938 -39.903450 10.791376 9
66.122832 -42.904861 10.068200 9
60.697185 -48.522570 4.609038 9
-3.890668 137.992065 -56.549015 3
-0.879239 133.448060 -53.615807 3
2.068462 129.028814 -50.741341 3
4.895100 124.749781 -47.983156 3
7.643431 120.590710 -45.298733 3
10.331265 116.541613 -42.670453 3
12.928449 112.607786 -40.128672 3
15.458917 108.777617 -37.649623 3
17.933097 105.044526 -35.223032 3
18.635461 101.841099 -34.567123 3
18.682259 98.824140 -34.564975 3
18.680480 95.828330 -34.608887 3
53.288106 53.341227 -0.209601 9
57.021052 50.810550 3.532055 9
60.444428 48.384158 6.965201 9
63.163793 46.046315 9.693910 9
65.714645 43.778824 12.255424 9
65.815764 41.496851 12.360681 9
66.733474 39.255566 13.287173 9
66.901528 36.992030 13.463333 9
71.709279 35.078775 18.296222 5
74.279646 33.096563 20.885812 5
76.384469 31.134592 23.009844 5
78.229113 29.197313 24.874348 5
79.806415 27.272862 26.472154 5
81.288010 25.374579 27.975414 5
82.918895 23.536735 29.629772 5
84.463814 21.725074 31.199269 5
85.601531 19.876523 32.361887 5
86.660084 18.039056 33.446549 5
87.547119 16.189530 34.360723 5
88.367543 14.344272 35.209581 5
89.043902 12.481640 35.915556 5
89.548015 10.588166 36.450501 5
90.058983 8.704344 36.993842 5
90.384360 6.775861 37.352928 5
90.691084 4.844016 37.694959 5
90.843555 2.865594 37.884283 5
90.915607 0.857652 37.994881 5
90.838399 -1.206951 37.957995 5
90.684409 -3.309408 37.846226 5
90.397701 -5.474018 37.603768 5
89.949212 -7.718082 37.201737 5
89.359063 -10.041146 36.660427 5
88.531484 -12.489322 35.884409 5
87.483115 -15.066541 34.890596 5
86.033247 -17.862854 33.499014 5
84.206845 -20.885462 31.735097 5
80.725325 -24.753618 28.324847 5
77.851363 -28.444248 25.525021 5
72.920562 -33.265074 20.681304 5
64.994694 -39.795084 12.862562 9
66.265551 -41.698768 14.205020 9
62.435059 -46.367987 10.474995 9
-7.948136 134.978871 -55.213925 3
-4.884772 130.474114 -52.306651 3
-1.876920 126.089312 -49.447942 3
1.025680 121.836890 -46.686660 3
3.822960 117.711302 -44.023135 3
6.580398 113.687882 -41.393558 3
9.224667 109.784388 -38.869876 3
11.824812 105.976834 -36.384736 3
14.331330 102.274888 -33.986783 3
16.798531 98.660897 -31.623027 3
18.204250 95.360841 -30.294985 3
18.226320 92.397762 -30.319137 3
53.046635 53.277748 3.521975 9
56.556575 50.777860 6.962014 9
59.448482 48.377108 9.797940 9
62.051877 46.052370 12.353017 9
64.494501 43.794204 14.752513 9
66.468773 41.585426 16.694481 9
65.255110 39.278782 15.509984 9
66.930775 37.113065 17.163126 9
68.258668 34.965084 18.477006 5
67.000257 32.624615 17.255271 9
72.995831 30.980338 23.152644 5
74.772591 29.012289 24.912431 5
76.480481 27.080478 26.606375 5
78.034118 25.169764 28.150702 5
79.755776 23.323627 29.861436 5
81.200732 21.473628 31.302429 5
82.450142 19.623036 32.553316 5
83.496161 17.762074 33.606471 5
84.386454 15.892145 34.508683 5
85.201365 14.024542 35.338727 5
85.855536 12.135640 36.013030 5
86.395806 10.230276 36.577553 5
86.875437 8.317545 37.084512 5
87.192098 6.366094 37.433801 5
87.452542 4.400057 37.729998 5
87.573576 2.391228 37.891790 5
87.629755 0.357313 37.992214 5
87.524316 -1.737201 37.936765 5
87.329812 -3.874232 37.796519 5
86.951051 -6.092574 37.478622 5
86.490723 -8.361788 37.083573 5
85.766677 -10.757255 36.433732 5
84.868219 -13.254604 35.616590 5
83.658511 -15.919583 34.498984 5
82.075936 -18.793251 33.021330 5
79.836254 -22.020627 30.907286 5
76.100491 -26.021475 27.340863 5
72.876683 -29.900349 24.278875 5
66.846231 -35.276669 18.492294 9
65.263784 -38.582336 17.039574 9
66.507299 -40.469146 18.337662 9
62.287395 -45.282994 14.330981 9
53.655734 -52.690831 6.049636 9
-8.881424 127.472565 -50.950442 3
-5.840057 123.130823 -48.132714 3
-2.864298 118.906320 -45.371582 3
0.005646 114.806887 -42.705758 3
2.798182 110.819294 -40.108341 3
5.512246 106.939652 -37.580592 3
8.135512 103.166865 -35.134541 3
10.706205 99.487363 -32.733813 3
13.194323 95.904780 -30.407339 3
17.784309 91.962076 -26.062322 3
17.792281 89.039028 -26.103069 3
52.602003 53.222374 6.983518 9
55.724982 50.753177 9.975948 9
58.426618 48.370371 12.566679 9
60.817887 46.057496 14.862102 9
62.902820 43.801886 16.865979 9
64.939028 41.599532 18.825507 9
66.616008 39.433708 20.442574 9
65.198145 37.126074 19.091591 9
66.912400 35.008174 20.749170 9
67.330909 32.821927 21.165530 5
69.571118 30.826352 23.332209 5
71.376942 28.838775 25.084091 5
73.082499 26.883808 26.741762 5
74.692664 24.957854 28.309868 5
76.500388 23.101759 30.069313 5
77.961316 21.232450 31.498022 5
79.166675 19.352148 32.683573 5
80.211953 17.468781 33.717583 5
81.109130 15.578093 34.611598 5
81.929807 13.689621 35.434275 5
82.634521 11.790732 36.147855 5
83.141215 9.856056 36.673855 5
83.609177 7.918893 37.164876 5
83.951394 5.953376 37.537700 5
84.159193 3.951498 37.784146 5
84.313189 1.931803 37.981432 5
84.244206 -0.161921 37.967932 5
84.170320 -2.267176 37.952260 5
83.871268 -4.460535 37.724091 5
83.464349 -6.709781 37.395701 5
82.853392 -9.055806 36.875501 5
82.079684 -11.491776 36.203184 5
81.057922 -14.059420 35.297713 5
79.726205 -16.795699 34.100525 5
77.878111 -19.803419 32.415571 5
74.909151 -23.374449 29.668356 5
71.618401 -27.191671 26.620965 5
67.375521 -31.568979 22.674803 5
66.201595 -34.585749 21.652648 9
65.903458 -37.211085 21.466708 9
65.333650 -40.001217 21.026522 9
61.455207 -44.587745 17.452315 9
55.337946 -50.534560 11.764475 9
-9.839172 120.158055 -46.810287 3
-6.814834 115.968620 -44.072757 3
-3.872179 111.895172 -41.405137 3
-1.032135 107.938814 -38.827289 3
1.734657 104.087246 -36.312019 3
4.406124 100.341727 -33.880243 3
7.035107 96.686024 -31.482722 3
17.385962 91.526547 -21.845416 3
17.393339 88.632672 -21.892217 3
51.559330 53.187782 9.820482 9
54.623995 50.734293 12.691749 9
57.110606 48.365695 15.023381 9
59.268896 46.060459 17.049690 9
61.387521 43.810969 19.041567 9
63.280737 41.609212 20.824537 9
64.942226 39.445679 22.392600 9
62.847381 37.102437 20.437215 9
65.375851 35.036777 22.824395 9
66.353514 32.903209 23.758441 9
66.897777 30.750379 24.288331 9
67.916190 28.662344 25.265715 5
69.612824 26.683112 26.881805 5
71.336452 24.749240 28.525410 5
73.209077 22.880055 30.310852 5
74.618066 20.980251 31.663582 5
75.861253 19.084179 32.862993 5
76.915014 17.180447 33.887003 5
77.829765 15.271548 34.782941 5
78.615348 13.353792 35.560097 5
79.282236 11.424142 36.228357 5
79.832674 9.478081 36.789906 5
80.274020 7.512514 37.251726 5
80.575564 5.514347 37.585192 5
80.804903 3.496899 37.853655 5
80.871986 1.429911 37.973037 5
80.837447 -0.674630 38.000186 5
80.635131 -2.842915 37.873470 5
80.335080 -5.058409 37.658511 5
79.837625 -7.360953 37.262489 5
79.180791 -9.745222 36.721182 5
78.293113 -12.245742 35.968274 5
77.108055 -14.899174 34.942201 5
75.560768 -17.745352 33.583139 5
73.476765 -20.874528 31.729422 5
69.632101 -24.848069 28.243913 5
66.850776 -28.461685 25.754296 9
66.896444 -30.845349 25.896908 9
65.568673 -33.904017 24.768202 9
66.575082 -35.855237 25.809594 9
63.789189 -39.732458 23.338478 9
60.127503 -44.168264 20.063694 9
55.293094 -49.363770 15.712549 9
-7.815257 108.974597 -40.120666 3
-4.877980 105.036463 -37.516477 3
-2.084234 101.218817 -35.037149 3
0.646731 97.497650 -32.609065 3
16.957734 91.105971 -17.734869 3
16.969276 88.239363 -17.783120 3
8.226327 75.087308 -26.038083 1
8.294336 72.133249 -26.012043 1
8.262203 69.194631 -26.073808 1
8.304759 66.252295 -26.062964 1
50.191045 53.164406 12.322917 9
53.346213 50.719197 15.213435 9
55.705990 48.361673 17.377000 9
57.809454 46.063964 19.308429 9
59.795440 43.818431 21.135087 9
61.567190 41.617011 22.768036 9
63.172208 39.453187 24.250821 9
64.715857 37.326301 25.680114 9
66.046531 35.222813 26.916684 9
65.883081 33.025832 26.784633 9
65.206815 30.772355 26.185018 9
66.876644 28.758155 27.741329 9
66.923443 26.583967 27.811165 9
67.870449 24.530890 28.709708 5
69.811506 22.648053 30.522492 5
71.208138 20.723557 31.838336 5
72.464221 18.806857 33.027714 5
73.511644 16.879263 34.028259 5
74.444782 14.951383 34.926542 5
75.244061 13.014201 35.704695 5
75.892492 11.058236 36.347257 5
76.447155 9.091033 36.906586 5
76.850683 7.093883 37.330286 5
77.164334 5.076910 37.674531 5
77.319840 3.016889 37.877023 5
77.367703 0.922053 37.984104 5
77.270656 -1.223853 37.961897 5
77.040824 -3.423181 37.821685 5
76.652684 -5.690357 37.540407 5
76.145743 -8.018454 37.154360 5
75.346565 -10.476019 36.505730 5
74.357859 -13.036813 35.688586 5
73.029919 -15.767967 34.567062 5
71.288363 -18.714473 33.074174 5
68.779727 -22.042855 30.889456 5
66.881218 -25.188537 29.265605 9
66.461449 -27.737298 28.990215 9
65.565126 -30.531105 28.286775 9
66.643895 -32.422186 29.378718 9
64.514841 -35.871492 27.567387 9
62.123108 -39.529462 25.525271 9
58.568025 -43.877152 22.438675 9
54.373621 -48.686623 18.784007 9
-8.817714 102.129609 -36.244032 3
-5.986467 98.341761 -33.790085 3
16.550080 90.689640 -13.680144 3
15.691586 88.013676 -14.513042 3
6.219209 83.863041 -23.119696 1
8.318261 80.598747 -21.290561 1
7.737884 77.756376 -21.859287 1
7.846957 74.819369 -21.805276 1
7.823804 71.903888 -21.865439 1
7.815243 68.990191 -21.908098 1
7.822630 66.078280 -21.932042 1
48.345332 53.156728 14.376252 9
51.864971 50.708267 17.529651 9
54.177350 48.358508 19.602647 9
56.165878 46.066239 21.388332 9
58.101938 43.823861 23.130286 9
59.774903 41.622254 24.639272 9
61.323043 39.457172 26.039374 9
62.775326 37.325165 27.356538 9
64.135978 35.222529 28.594499 9
65.387718 33.143988 29.737701 9
66.489864 31.081120 30.749606 9
65.652428 28.832102 30.024067 9
65.454115 26.636786 29.875461 9
66.806120 24.642815 31.120756 9
66.978572 22.505603 31.311062 9
67.727826 20.462016 32.021684 5
68.960270 18.517932 33.168289 5
70.054046 16.575547 34.193296 5
70.951676 14.617674 35.045290 5
71.752481 12.657556 35.813337 5
72.422044 10.683326 36.466696 5
72.922297 8.680414 36.971421 5
73.346989 6.665544 37.411523 5
73.624857 4.616458 37.723384 5
73.746201 2.524291 37.898523 5
73.766573 0.398723 37.986763 5
73.663115 -1.771641 37.967864 5
73.365115 -4.014747 37.778950 5
72.924886 -6.321430 37.466996 5
72.249356 -8.730141 36.949347 5
71.408606 -11.225691 36.288862 5
70.272400 -13.864031 35.370001 5
68.793285 -16.676248 34.151182 5
66.888989 -19.710140 32.560037 9
66.842281 -22.036582 32.624872 9
64.920508 -25.180085 31.029652 9
65.885960 -27.110332 32.001296 9
66.230602 -29.309631 32.425551 9
64.507331 -32.486265 31.022612 9
62.483288 -35.871133 29.360357 9
60.112415 -39.501045 27.398972 9
56.946297 -43.622436 24.743574 9
53.136432 -48.190890 21.530040 9
16.113551 93.103558 -9.649328 3
16.120272 90.285782 -9.716587 3
14.338634 87.805799 -11.345712 3
10.580474 85.626427 -14.703185 1
10.514746 82.767704 -14.821393 1
7.894367 80.287000 -17.174805 1
5.330841 77.736487 -19.474825 1
4.844594 74.873767 -19.948872 1
4.923414 71.941685 -19.922494 1
4.997934 69.015755 -19.895067 1
5.025439 66.098893 -19.904107 1
45.580081 53.178248 15.622167 9
49.954314 50.705659 19.455633 9
52.639542 48.355437 21.809929 9
54.630331 46.069181 23.558185 9
56.415783 43.829407 25.129782 9
57.919593 41.625539 26.457620 9
59.487740 39.461908 27.845430 9
60.907861 37.328516 29.106659 9
62.197432 35.220641 30.256602 9
63.356281 33.132992 31.295077 9
64.470404 31.068486 32.297537 9
65.511124 29.022031 33.238779 9
66.404032 26.981540 34.053512 9
65.946975 24.780328 33.687448 9
64.830277 22.467368 32.746750 9
66.051248 20.494547 33.859257 9
66.926779 18.489559 34.671995 9
66.930769 16.341420 34.724350 9
67.448524 14.290419 35.230183 5
68.176934 12.292224 35.923672 5
68.842686 10.293535 36.565438 5
69.354790 8.270075 37.075948 5
69.764386 6.228339 37.500074 5
69.968509 4.136924 37.747972 5
70.102778 2.024894 37.938359 5
70.078781 -0.136427 37.994177 5
69.905904 -2.350816 37.923870 5
69.561969 -4.631572 37.708367 5
69.037591 -6.989011 37.339815 5
68.294219 -9.444004 36.785009 5
67.331790 -12.005859 36.044356 5
66.921635 -14.398977 35.789064 9
66.633242 -16.766381 35.644115 9
64.983639 -19.691709 34.321733 9
63.957419 -22.417049 33.546569 9
66.644974 -23.607243 35.996449 9
65.440343 -26.438873 35.075509 9
64.104602 -29.375100 34.047220 9
62.309595 -32.574905 32.628318 9
60.345635 -35.919139 31.070851 9
58.100616 -39.471195 29.278707 9
55.269650 -43.398852 26.990000 9
51.357439 -47.986886 23.780004 9
15.733989 92.670270 -5.705555 3
15.737452 89.880355 -5.780544 3
13.004356 87.597844 -8.194124 3
12.199788 84.923215 -8.952209 1
12.156504 82.113763 -9.053307 1
2.735288 80.667233 -17.188881 1
-0.416214 78.157708 -19.947650 1
-1.086679 75.276308 -20.574540 1
14.693435 70.622913 -7.082855 1
14.672299 67.861847 -7.139670 1
16.012901 64.992026 -6.022885 4
15.980251 62.253534 -6.079695 4
15.954650 59.516041 -6.125645 4
15.960415 56.778341 -6.139864 4
41.753227 53.232441 15.993207 9
47.533121 50.712617 20.948025 9
50.565581 48.355766 23.548006 9
52.823354 46.070390 25.486830 9
54.596246 43.832424 27.013209 9
56.198790 41.633151 28.397138 9
57.620927 39.465396 29.629900 9
58.956669 37.327370 30.792152 9
60.225847 35.216887 31.900857 9
61.326555 33.122819 32.868499 9
62.453714 31.056900 33.862343 9
63.387738 28.996370 34.693922 9
64.265448 26.949996 35.480644 9
65.053881 24.911010 36.194231 9
65.857662 22.890903 36.924396 9
66.430029 20.851099 37.459613 9
66.002195 18.651574 37.141409 9
65.189468 16.366441 36.497656 9
65.168024 14.210908 36.535682 9
65.830797 12.192616 37.163098 9
66.430893 10.172168 37.740306 9
66.788195 8.104669 38.113370 9
66.914329 5.983319 38.292523 9
66.993714 3.846819 38.435582 9
66.847170 1.644079 38.389694 9
66.921284 -0.506282 38.536194 9
67.009507 -2.657791 38.698689 9
66.845975 -4.893274 38.650665 9
66.251662 -7.281285 38.240158 9
65.604190 -9.711399 37.789286 9
64.757273 -12.237681 37.173858 9
65.536786 -14.201714 37.945557 9
66.243774 -16.182030 38.658977 9
66.231993 -18.435161 38.766117 9
65.425233 -21.021380 38.203949 9
64.331086 -23.760705 37.404108 9
63.143245 -26.581650 36.531235 9
61.791961 -29.519853 35.526755 9
60.079056 -32.673952 34.223913 9
58.229943 -35.952869 32.813940 9
56.122604 -39.422684 31.194604 9
53.315277 -43.316889 28.995048 9
41.367656 -52.021264 19.121958 9
12.540712 101.262070 -3.898721 2
12.540665 98.442432 -3.998747 2
14.921395 95.109033 -2.102794 3
15.329954 92.250061 -1.849136 3
15.346230 89.484054 -1.918093 3
13.610692 87.041803 -3.448346 1
13.620660 84.267639 -3.512544 1
13.585695 81.506160 -3.609083 1
10.818841 79.140300 -5.990019 1
10.791121 76.351510 -6.070706 1
11.836443 73.439379 -5.246248 1
15.611477 70.268502 -2.126337 1
15.629149 67.545755 -2.152243 1
17.050816 64.712933 -0.994826 4
17.067335 62.014139 -1.011255 4
17.055364 59.319496 -1.046529 4
17.056331 56.625747 -1.065887 4
37.191508 53.308067 15.824300 9
44.506183 50.730591 21.956832 9
39.476722 48.412036 17.729394 9
50.733427 46.069853 27.181204 9
52.745591 43.834909 28.874946 9
54.269506 41.634309 30.162828 9
55.686550 39.466132 31.364989 9
56.948737 37.323409 32.441077 9
58.198446 35.209805 33.510552 9
59.353044 33.117890 34.503997 9
60.326346 31.035790 35.349070 9
61.305525 28.976243 36.202806 9
62.096062 26.916190 36.902021 9
62.898546 24.874515 37.614958 9
63.718855 22.852234 38.346498 9
64.379651 20.822111 38.948000 9
64.918239 18.784149 39.450818 9
65.232799 16.715024 39.769800 9
65.495008 14.639217 40.048833 9
66.028037 12.621116 40.558301 9
66.500876 10.598236 41.021135 9
66.560142 8.486123 41.142098 9
64.689313 5.897952 39.655164 9
64.654388 3.728130 39.706641 9
64.726005 1.579698 39.851287 9
64.710362 -0.598413 39.927400 9
64.699520 -2.782690 40.011854 9
64.654370 -4.985377 40.072118 9
65.732675 -6.835607 41.071489 9
66.077685 -8.911498 41.464345 9
65.464844 -11.320208 41.065562 9
64.761286 -13.786728 40.596820 9
64.734791 -16.027744 40.695097 9
63.921301 -18.584251 40.146000 9
63.029401 -21.204038 39.537926 9
61.686518 -24.045161 38.563082 9
60.868819 -26.708852 38.029158 9
59.489476 -29.654081 37.038049 9
57.905653 -32.741891 35.885818 9
56.129984 -35.975484 34.583614 9
53.982409 -39.450412 32.984081 9
51.088311 -43.368810 30.780757 9
8.193440 107.425695 -3.023804 2
11.836276 103.640107 -0.171337 2
12.130191 100.764657 -0.042753 2
12.160085 97.964952 -0.123692 2
14.915733 94.583055 2.028552 3
14.964729 91.829503 1.975957 3
14.973390 89.091370 1.896038 3
13.723312 86.584873 0.791630 1
13.744271 83.841143 0.732519 1
13.361075 81.165508 0.347978 1
10.408484 78.849398 -2.136401 1
10.410485 76.082436 -2.195304 1
12.473511 73.078586 -0.558928 1
16.856680 69.886744 2.986566 1
16.861578 67.210375 2.947977 1
16.823311 64.540430 2.879337 4
16.812972 61.870122 2.838950 4
16.819371 59.200721 2.817632 4
16.847825 56.532234 2.819744 4
31.982580 53.401712 15.227428 9
40.154058 50.772470 21.925646 9
45.190046 48.363824 26.055153 9
48.237890 46.066878 28.557248 9
50.406719 43.828464 30.342209 9
52.304587 41.634550 31.909075 9
53.770679 39.467929 33.125751 9
55.012609 37.323865 34.162619 9
56.180218 35.203933 35.142616 9
57.278399 33.105495 36.069704 9
58.278301 31.023046 36.920178 9
59.221636 28.957042 37.728233 9
59.998329 26.892240 38.403601 9
60.799422 24.846899 39.102926 9
61.555145 22.811766 39.768981 9
62.209179 20.776206 40.355639 9
62.539612 18.699195 40.681280 9
62.427554 16.547083 40.648920 9
62.446707 14.412884 40.728326 9
62.947064 12.372606 41.205523 9
63.417724 10.333385 41.662438 9
63.773627 8.274332 42.029630 9
63.642133 6.100737 42.003094 9
63.225213 3.845206 41.748322 9
63.211908 1.680562 41.827517 9
63.217886 -0.485716 41.926984 9
63.056203 -2.707925 41.894539 9
62.849459 -4.955413 41.830258 9
63.039876 -7.089571 42.093730 9
62.828934 -9.359813 42.035699 9
62.143065 -11.807369 41.597330 9
61.915939 -14.117795 41.536682 9
61.917279 -16.358836 41.666311 9
61.010468 -18.957485 41.065981 9
59.512791 -21.824234 39.994441 9
58.639306 -24.485403 39.434565 9
58.423154 -26.902778 39.411660 9
57.180881 -29.784998 38.567544 9
55.687214 -32.825481 37.528725 9
53.893688 -36.057545 36.257143 9
51.512007 -39.631596 34.522414 9
47.470954 -44.097842 31.467543 9
7.696978 109.736170 0.917936 2
8.737571 106.620074 1.615539 2
11.767166 103.038229 3.906039 2
11.771451 100.263638 3.792874 2
11.731712 97.506741 3.650675 2
14.041922 94.252660 5.391161 3
14.560939 91.424143 5.708475 3
14.542145 88.716657 5.602182 3
13.132171 86.260964 4.389012 1
13.129507 83.544139 4.306800 1
10.350109 81.255758 2.007523 1
10.029336 78.559191 1.681348 1
10.048590 75.815667 1.633265 1
12.042193 72.848204 3.173284 1
19.908196 69.325444 9.427553 1
19.931531 66.713752 9.402273 1
15.915991 64.424735 6.143287 4
15.924453 61.771063 6.116524 4
15.919946 59.120343 6.084968 4
15.931831 56.470479 6.072165 4
27.188195 53.480501 15.088416 9
35.605886 50.816883 21.833286 9
41.070905 48.376355 26.214194 9
45.147106 46.060393 29.485574 9
47.886507 43.818984 31.688857 9
49.923548 41.622357 33.333063 9
51.551690 39.457089 34.653620 9
52.923232 37.316309 35.772692 9
54.114482 35.195474 36.751471 9
55.253318 33.097833 37.692503 9
56.187924 31.007342 38.474003 9
57.064895 28.931426 39.213536 9
57.845178 26.863186 39.879786 9
58.640334 24.813079 40.562151 9
58.978644 22.715254 40.882793 9
59.196604 20.603930 41.111475 9
59.378247 18.488225 41.315557 9
59.355704 16.336774 41.360814 9
59.593507 14.229715 41.618866 9
60.005010 12.158907 42.020184 9
60.345220 10.078037 42.368893 9
60.671115 7.997075 42.710566 9
60.978015 5.914078 43.041493 9
60.861014 3.726163 43.038960 9
60.921384 1.575918 43.182623 9
60.891988 -0.604236 43.259585 9
60.770731 -2.818628 43.268380 9
60.455951 -5.101792 43.128433 9
60.181558 -7.387853 43.025921 9
59.696328 -9.757917 42.761523 9
59.299986 -12.118499 42.573339 9
59.414202 -14.317728 42.795176 9
58.701508 -16.825747 42.367850 9
57.233549 -19.647892 41.350041 9
56.259917 -22.324392 40.730268 9
55.832566 -24.815476 40.548397 9
55.679100 -27.214100 40.588543 9
54.877278 -29.907682 40.124486 9
53.413480 -32.928506 39.147495 9
51.373821 -36.264190 37.727284 9
48.420172 -40.097969 35.600857 9
6.819232 109.292834 4.380225 2
7.314381 106.343499 4.628137 2
11.365487 102.529873 7.652631 2
11.395445 99.775368 7.554180 2
10.585717 97.217247 6.807277 2
12.585740 94.050859 8.258543 3
14.187191 91.019714 9.406747 3
14.204818 88.330715 9.325166 3
11.975407 86.041507 7.493282 1
12.001997 83.335602 7.430114 1
9.686668 80.988585 5.540768 1
9.665446 78.271814 5.451677 1
9.659777 75.556855 5.380884 1
10.973444 72.694668 6.349622 1
18.374020 69.244692 12.094373 1
18.424172 66.640258 12.087460 1
14.506126 64.350123 8.975574 4
14.515036 61.707996 8.947333 4
14.486712 59.070090 8.895786 4
14.502024 56.431293 8.884338 4
22.252170 53.561604 14.946096 9
30.937038 50.862373 21.747810 9
36.568725 48.390873 26.160430 9
41.087426 46.048270 29.705337 9
36.981646 43.658623 26.489623 9
47.028040 41.595188 34.380698 9
48.976234 39.431796 35.923713 9
50.631682 37.298379 37.241730 9
51.911573 35.178615 38.269787 9
53.031978 33.075565 39.177326 9
54.074281 30.990542 40.028128 9
54.904472 28.906737 40.717164 9
55.530553 26.817113 41.250786 9
55.523389 24.659683 41.293085 9
55.897540 22.551849 41.638712 9
56.077994 20.420470 41.837426 9
56.314382 18.298883 42.084646 9
56.872880 16.235467 42.588379 9
57.347659 14.165681 43.031178 9
57.726258 12.083697 43.403401 9
58.070603 9.998825 43.753497 9
58.293732 7.890025 44.013694 9
58.482291 5.773022 44.251712 9
58.571992 3.630237 44.417556 9
58.590885 1.465020 44.533246 9
58.521157 -0.730461 44.585089 9
58.389819 -2.952120 44.594282 9
58.108629 -5.228968 44.492489 9
57.832494 -7.518792 44.400233 9
57.347800 -9.890956 44.152041 9
56.875150 -12.279533 43.919244 9
56.137854 -14.781100 43.487923 9
55.396401 -17.311932 43.060069 9
54.464230 -19.942581 42.491846 9
53.401595 -22.657544 41.830334 9
52.934330 -25.171745 41.634871 9
52.019703 -27.893699 41.102110 9
51.714706 -30.390613 41.045238 9
50.661703 -33.235880 40.421287 9
48.076775 -36.814401 38.632268 9
42.914499 -41.674720 34.883707 9
2.832976 109.697885 5.439724 2
3.055641 106.803074 5.463677 2
8.739180 102.577692 9.649708 2
8.944586 99.780722 9.678029 2
9.006735 97.027801 9.604111 2
8.124403 94.481230 8.816770 3
13.143215 90.754396 12.537386 3
12.805206 88.148163 12.179774 3
10.550305 85.871549 10.364130 1
10.586372 83.176401 10.303856 1
9.267245 80.689235 9.213874 1
9.283439 77.991702 9.150778 1
9.334747 75.294342 9.120948 1
9.486258 72.590673 9.174212 1
16.505169 69.198592 14.492574 1
16.563789 66.599016 14.489012 1
13.376889 64.254633 12.004966 4
13.344588 61.629994 11.943403 4
13.361352 59.003902 11.925594 4
13.376476 56.379867 11.912675 4
17.140217 53.645937 14.779831 9
26.100659 50.909726 21.637952 9
31.961803 48.405653 26.126209 9
36.667094 46.034310 29.733985 9
40.313849 43.755865 32.535503 9
43.452873 41.548627 34.952833 9
45.892265 39.386202 36.838693 9
47.785991 37.251586 38.311070 9
49.350799 35.139210 39.536098 9
50.565135 33.035387 40.497278 9
51.404650 30.925143 41.176043 9
51.246406 28.731704 41.095544 9
51.302673 26.556272 41.184463 9
52.159644 24.479647 41.891214 9
53.058350 22.426205 42.634530 9
53.431987 20.312625 42.980955 9
54.039865 18.242139 43.511278 9
54.623062 16.178069 44.027447 9
55.086461 14.101628 44.456855 9
55.412952 12.004825 44.786586 9
55.758638 9.915129 45.135852 9
55.970624 7.799052 45.388126 9
56.174183 5.680732 45.639013 9
56.223137 3.523582 45.777325 9
56.244052 1.354329 45.899582 9
56.137965 -0.855168 45.930697 9
56.017130 -3.078155 45.956158 9
55.759682 -5.351521 45.883644 9
55.435474 -7.659197 45.766426 9
54.972266 -10.027186 45.550056 9
54.451335 -12.434038 45.296389 9
53.773466 -14.916601 44.930738 9
53.016639 -17.453327 44.512433 9
52.094743 -20.079583 43.976927 9
50.973288 -22.815368 43.298854 9
49.518654 -25.721763 42.378508 9
48.619899 -28.448670 41.884389 9
46.930538 -31.543101 40.805700 9
46.556717 -34.120881 40.721653 9
43.004860 -38.142955 38.269421 9
30.954194 -46.185688 29.488624 9
-3.253174 107.774078 4.857402 2
5.623614 102.741047 11.307284 2
5.740094 99.957930 11.259379 2
5.850026 97.186220 11.213757 2
5.052663 94.612059 10.499425 3
11.257341 90.657194 15.010205 3
10.465592 88.139993 14.315635 3
9.070849 85.712737 13.177068 1
9.116472 83.027579 13.119507 1
7.257086 80.629526 11.645539 1
7.283071 77.935791 11.586034 1
7.379843 75.238003 11.586151 1
7.438618 72.550499 11.564552 1
14.270315 69.189127 16.617518 1
14.288697 66.594404 16.580532 1
11.075646 64.250120 14.130582 4
11.113055 61.621708 14.120048 4
11.141410 58.996567 14.109189 4
11.100806 56.376495 14.053111 4
11.811796 53.734563 14.566553 9
21.124659 50.958373 21.531629 9
27.254158 48.420659 26.118339 9
32.080765 46.019722 29.734915 9
35.843482 43.713460 32.560016 9
39.125730 41.481181 35.030519 9
42.106564 39.313019 37.280360 9
44.358402 37.175409 38.989103 9
46.238442 35.065466 40.424306 9
46.642138 32.885213 40.759009 9
46.773132 30.688491 40.894874 9
48.252468 28.627773 42.045029 9
48.552350 26.467442 42.317636 9
49.544914 24.397263 43.113420 9
50.417640 22.331315 43.824443 9
51.115404 20.256945 44.409582 9
51.796094 18.192846 44.986872 9
52.307324 16.112029 45.442577 9
52.745724 14.025888 45.848954 9
53.144475 11.938029 46.230820 9
53.430988 9.831702 46.534156 9
53.649422 7.712278 46.792006 9
53.815597 5.580674 47.016260 9
53.858371 3.417381 47.154155 9
53.906152 1.250445 47.301296 9
53.781946 -0.967662 47.326396 9
53.626621 -3.204101 47.334264 9
53.408396 -5.469639 47.301488 9
53.010758 -7.802411 47.142083 9
52.570718 -10.166001 46.957785 9
52.013959 -12.586828 46.693935 9
51.338122 -15.070443 46.349187 9
50.489435 -17.640758 45.884368 9
49.414254 -20.324368 45.260626 9
48.055459 -23.151946 44.436792 9
46.196488 -26.219576 43.255010 9
43.372597 -29.734764 41.376549 9
42.694984 -32.437543 41.080668 9
41.523496 -35.381323 40.432259 9
34.670194 -40.882144 35.649423 9
2.161566 102.981666 12.754834 2
2.274598 100.188540 12.695812 2
2.387967 97.405097 12.644534 2
0.646596 95.011533 11.251290 3
5.661099 91.277100 14.782181 3
5.788690 88.554091 14.764882 3
7.661106 85.543582 16.026745 1
7.614328 82.885247 15.897337 1
2.843668 80.920473 12.327324 1
2.939184 78.194315 12.313906 1
3.081115 75.468770 12.341490 1
4.707909 72.585657 13.461293 1
12.106030 69.171799 18.808158 1
-0.845191 67.713406 9.283920 1
8.301119 64.280734 15.925549 4
8.301181 61.650093 15.885254 4
8.385515 59.016913 15.913377 4
8.337205 56.392643 15.851165 4
8.347604 53.766730 15.838643 4
15.981524 51.008737 21.414082 9
22.346586 48.436455 26.067706 9
27.379965 46.004831 29.752836 9
31.258120 43.670106 32.598207 9
34.635863 41.410691 35.082935 9
37.727467 39.217562 37.363650 9
40.055368 37.055421 39.090656 9
42.250604 34.937749 40.725753 9
42.674856 32.735535 41.070362 9
42.922220 30.525879 41.291175 9
44.141156 28.416154 42.227896 9
45.518078 26.350015 43.285165 9
46.753466 24.296064 44.243953 9
47.727653 22.233017 45.016917 9
48.527855 20.164174 45.667898 9
49.271663 18.101710 46.282809 9
49.853484 16.025476 46.784697 9
50.311724 13.936450 47.201720 9
50.686043 11.837656 47.562908 9
51.035120 9.737881 47.911071 9
51.264894 7.615539 48.177867 9
51.424992 5.477456 48.399557 9
51.493227 3.315505 48.560181 9
51.453599 1.122044 48.648337 9
51.362637 -1.092142 48.705234 9
51.193837 -3.336569 48.711849 9
50.915328 -5.623601 48.645363 9
50.518836 -7.960062 48.500123 9
50.013778 -10.347671 48.283287 9
49.369387 -12.800804 47.973053 9
48.507811 -15.351292 47.513859 9
47.469086 -17.993563 46.935203 9
46.119516 -20.783124 46.141758 9
44.200414 -23.829037 44.949148 9
41.278287 -27.321084 43.048971 9
38.527504 -30.827980 41.284181 9
37.763035 -33.595550 40.950111 9
34.684494 -37.377428 38.975733 9
23.303181 -44.883841 31.108256 9
-1.226431 100.419591 14.160488 2
-1.390195 97.684651 13.904318 2
1.880129 91.534514 15.972577 3
2.003760 88.797215 15.944998 3
6.431075 85.345860 18.989219 1
6.081046 82.748945 18.641070 1
-1.831697 81.241448 12.908773 1
-3.438292 78.716087 11.675443 1
-3.319137 75.948135 11.679841 1
0.947524 72.731725 14.652504 1
1.045937 70.026399 14.658189 1
9.684133 66.587328 20.771910 1
4.802899 64.364095 17.235478 4
4.832819 61.718785 17.214624 4
4.884507 59.074890 17.216405 4
4.904688 56.434973 17.202718 4
4.954186 53.795854 17.217039 4
10.698974 51.060267 21.311795 9
17.304944 48.452632 26.029891 9
22.540180 45.989511 29.774409 9
26.545626 43.625638 32.645674 9
30.085108 41.340212 35.189692 9
33.230407 39.119744 37.457555 9
35.707430 36.936125 39.253126 9
37.864324 34.788055 40.825285 9
38.159446 32.548629 41.072319 9
38.489578 30.317179 41.350293 9
39.951303 28.202215 42.442286 9
41.745601 26.155140 43.776948 9
43.223234 24.108553 44.890583 9
44.421160 22.056126 45.809726 9
45.429147 20.000857 46.598563 9
46.280383 17.941068 47.280880 9
46.928029 15.863182 47.823462 9
47.526656 13.787572 48.336527 9
47.936727 11.685583 48.720898 9
48.301189 9.579342 49.078417 9
48.567182 7.455625 49.371630 9
48.680625 5.298430 49.562350 9
