ply
format ascii 1.0
element vertex 1376
property float x
property float y
property float z
property int scalar_Label
end_header
55.860288 -1.440943 46.075817 9
55.751684 -3.990355 46.060993 9
55.472221 -6.622201 45.890558 9
55.088258 -9.316964 45.626608 9
54.612995 -12.074035 45.281652 9
53.968418 -14.932175 44.783364 9
53.219119 -17.869991 44.192140 9
52.295180 -20.925412 43.443321 9
51.131318 -24.138255 42.476738 9
49.156855 -27.803485 40.763676 9
35.228152 -37.660579 27.977824 9
39.716213 -38.248900 32.271321 9
-40.696625 138.911631 -38.971020 3
-38.844111 134.741283 -37.377407 3
-37.074916 130.651935 -35.853448 3
-35.312118 126.621797 -34.328955 3
-33.560342 122.650804 -32.808306 3
-31.856936 118.745302 -31.325860 3
4.772459 108.280002 2.166215 2
8.754404 104.540262 5.757737 2
10.508458 101.274892 7.312820 2
10.512364 98.323707 7.267883 2
12.744113 95.073225 9.270503 3
12.796857 92.155470 9.278980 3
-0.294190 90.697153 -2.768838 3
15.221486 86.110314 11.436385 1
18.477304 82.967757 14.397168 1
19.822024 80.049531 15.608319 1
20.370594 77.215271 16.092702 1
20.405363 74.420602 16.109294 1
20.421210 71.628970 16.112353 1
20.437138 68.838832 16.119322 1
20.423700 66.049950 16.103156 1
13.394448 63.215374 9.648803 4
13.377980 60.334606 9.637635 4
13.355758 57.452552 9.625140 4
13.342841 54.569224 9.625148 4
13.655384 51.703022 9.927905 9
20.655739 49.321043 16.373624 9
25.834424 46.964991 21.149815 9
29.890800 44.631664 24.898609 9
33.155847 42.313520 27.923914 9
35.797708 40.000105 30.380162 9
38.194527 37.718427 32.614368 9
40.394794 35.465865 34.671017 9
42.275286 33.214340 36.437145 9
45.044153 31.163817 39.020242 9
47.174937 29.060142 41.020811 9
48.385677 26.820729 42.180946 9
49.390710 24.562972 43.155515 9
50.206146 22.282076 43.959410 9
50.914998 19.990287 44.668753 9
51.533764 17.687233 45.298726 9
52.045900 15.364508 45.834286 9
52.488073 13.027835 46.309061 9
52.814569 10.660489 46.681373 9
53.075241 8.272845 46.996900 9
53.266302 5.860610 47.252286 9
53.394501 3.422810 47.453803 9
53.431821 0.946627 47.576023 9
53.337679 -1.586906 47.582130 9
53.181532 -4.157423 47.535629 9
52.904481 -6.791080 47.383057 9
52.540273 -9.479739 47.155372 9
52.044997 -12.246044 46.812874 9
51.376648 -15.114336 46.317715 9
50.545622 -18.087915 45.679745 9
49.480270 -21.207528 44.834381 9
48.050145 -24.546146 43.663963 9
46.038143 -28.226948 41.972739 9
25.328931 -41.435448 23.366627 9
31.574354 -41.242687 29.171404 9
-47.922712 143.746490 -39.649570 3
-43.438172 138.792602 -35.758904 3
-41.604832 134.639778 -34.229686 3
-39.779480 130.548356 -32.700448 3
-38.005156 126.526955 -31.209880 3
-36.258078 122.567696 -29.736890 3
-34.524920 118.666074 -28.269715 3
2.424509 108.225323 4.756172 2
6.687234 104.448959 8.512919 2
8.130742 101.244140 9.749099 2
8.179018 98.289244 9.739369 2
10.503996 95.032930 11.776194 3
10.530522 92.122568 11.756399 3
-3.014703 90.701290 -0.436883 3
13.032659 86.079892 13.927982 1
16.285266 82.944886 16.817415 1
17.626864 80.031572 17.996398 1
18.233888 77.197621 18.520384 1
18.239730 74.408231 18.508886 1
18.270581 71.619679 18.524036 1
18.240571 68.834154 18.488725 1
18.272070 66.048102 18.512829 1
11.081812 63.216701 12.056023 4
11.087514 60.339020 12.065464 4
11.095435 57.460899 12.081216 4
11.107999 54.582091 12.105463 4
11.111488 51.701543 12.125888 4
16.242436 49.181541 16.753591 9
21.410123 46.794332 21.417426 9
25.551288 44.438537 25.162861 9
28.857584 42.095165 28.162054 9
31.579386 39.762250 30.639830 9
34.024461 37.458482 32.872394 9
36.206190 35.174836 34.871775 9
38.166323 32.907537 36.675462 9
41.464923 30.919410 39.681684 9
43.935508 28.856960 41.948175 9
45.254186 26.622741 43.185388 9
46.399510 24.380116 44.270427 9
47.345385 22.116073 45.180055 9
48.167463 19.840580 45.982122 9
48.845303 17.543263 46.658456 9
49.398955 15.223414 47.227129 9
49.864892 12.885945 47.720870 9
50.229919 10.523142 48.128011 9
50.513832 8.136658 48.466361 9
50.686123 5.713105 48.708836 9
50.792634 3.262848 48.896495 9
50.792722 0.768723 48.993253 9
50.694753 -1.771022 49.006768 9
50.532381 -4.348271 48.967201 9
50.214067 -7.001615 48.793307 9
49.755732 -9.731606 48.499581 9
49.159099 -12.543874 48.087893 9
48.408555 -15.451464 47.544745 9
47.376751 -18.517856 46.757620 9
46.006028 -21.781923 45.676137 9
44.119947 -25.341900 44.144971 9
41.044703 -29.547604 41.569432 9
31.651418 -37.013348 33.419711 9
-50.256178 143.493597 -35.984664 3
-46.191409 138.677169 -32.560475 3
-44.372689 134.540301 -31.089925 3
-42.548624 130.460492 -29.606979 3
-40.730932 126.439777 -28.122048 3
-38.960026 122.485659 -26.670677 3
-37.222766 118.592966 -25.241566 3
0.056272 108.174361 7.328733 2
0.134854 105.130994 7.328702 2
4.296679 101.445099 10.912925 2
4.369069 98.470932 10.918609 2
7.762249 95.059727 13.841662 3
7.838461 92.141081 13.861222 3
-6.162609 90.750799 1.533812 3
10.905453 86.043652 16.472559 1
14.111512 82.920486 19.254098 1
15.456068 80.011867 20.406963 1
16.098019 77.179954 20.947838 1
16.106443 74.394417 20.937110 1
16.114325 71.610572 20.930445 1
16.094453 68.828499 20.903940 1
16.115012 66.046290 20.917467 1
8.350092 63.215378 14.098530 4
8.304448 60.334077 14.063134 4
8.326292 57.453111 14.091692 4
8.311391 54.569987 14.092678 4
8.433715 51.692817 14.218844 4
11.675607 49.034861 17.088240 9
16.939636 46.624175 21.736449 9
21.124801 44.242003 25.440984 9
24.435792 41.868974 28.381665 9
27.234410 39.515110 30.876119 9
29.738238 37.189600 33.115302 9
31.935108 34.879084 35.088585 9
34.092737 32.614160 37.030728 9
37.487709 30.612918 40.060288 9
39.925928 28.516815 42.254060 9
41.504429 26.307875 43.697722 9
42.815306 24.077440 44.910289 9
43.928049 21.830406 45.952775 9
44.876272 19.566734 46.854744 9
45.676525 17.283840 47.630821 9
46.316695 14.972431 48.270576 9
46.862312 12.643992 48.831434 9
47.262464 10.279723 49.269077 9
47.566864 7.888560 49.627090 9
47.752836 5.459165 49.885860 9
47.861425 2.999940 50.081359 9
47.819865 0.482453 50.150387 9
47.707087 -2.071660 50.161928 9
47.461141 -4.688617 50.062289 9
47.040905 -7.390046 49.816051 9
46.512284 -10.157421 49.480846 9
45.720323 -13.059303 48.922546 9
44.764346 -16.065006 48.227907 9
43.345091 -19.312976 47.138203 9
41.385991 -22.857770 45.588364 9
38.602689 -26.855183 43.333979 9
29.753017 -33.854982 35.849170 9
23.572919 -39.802066 30.688132 9
-52.796606 143.300395 -32.516542 3
-48.996249 138.575392 -29.407663 3
-47.107749 134.432723 -27.922179 3
-45.255968 130.358022 -26.459750 3
-43.461331 126.353610 -25.038073 3
-41.654310 122.402022 -23.597890 3
-39.914365 118.518559 -22.207383 3
-38.188191 114.690179 -20.821128 3
-36.490062 110.918096 -19.451525 3
0.487796 101.636470 12.160343 2
0.587040 98.643481 12.182924 2
4.516003 95.151682 15.494905 3
4.560999 92.228319 15.482457 3
-9.003837 90.765598 3.798772 3
8.085198 86.072911 18.420026 1
7.385980 83.268007 17.784845 1
2.349178 80.748065 13.431120 1
-13.520636 78.716225 -0.218960 1
2.391564 74.889830 13.421379 1
2.443735 71.963017 13.450813 1
5.978287 68.972987 16.475735 1
6.051542 66.094122 16.533603 1
4.890145 63.209557 15.536273 4
4.890205 60.317487 15.541388 4
4.912276 57.425471 15.570468 4
4.915940 54.532135 15.588811 4
4.911412 51.636937 15.605195 4
7.071033 48.889301 17.484375 9
12.319970 46.446153 22.019545 9
16.552071 44.036661 25.685588 9
19.933479 41.639892 28.625245 9
22.812357 39.265016 31.137391 9
25.368674 36.916520 33.376476 9
27.687437 34.594220 35.415436 9
30.035312 32.330851 37.482841 9
33.551152 30.321234 40.554210 9
35.777912 28.160037 42.524080 9
37.344313 25.920878 43.931759 9
38.713601 23.674841 45.174237 9
39.927511 21.423329 46.287355 9
40.980533 19.158793 47.266526 9
41.892524 16.879647 48.128869 9
42.619294 14.568637 48.836794 9
43.238026 12.239336 49.456415 9
43.699273 9.873061 49.945699 9
44.042561 7.475138 50.338583 9
44.250293 5.035081 50.620277 9
44.332767 2.550521 50.799797 9
44.239589 -0.000963 50.834522 9
44.073208 -2.590723 50.811923 9
43.722261 -5.262807 50.637588 9
43.189264 -8.024141 50.314091 9
42.419154 -10.904158 49.795191 9
41.412653 -13.912725 49.082115 9
39.982698 -17.138468 48.017126 9
38.181940 -20.576594 46.645898 9
35.819187 -24.328473 44.807927 9
32.565436 -28.569603 42.227060 9
22.985567 -35.914298 34.321713 9
13.279750 -43.602776 26.333038 9
-47.993835 130.262646 -23.338186 3
-46.136374 126.255118 -21.906226 3
-44.367823 122.322228 -20.540161 3
-42.585573 118.440008 -19.154408 3
-40.823442 114.614402 -17.777431 3
-39.141402 110.854073 -16.459649 3
-37.440067 107.139850 -15.118029 3
-35.780079 103.480513 -13.803534 3
-3.631450 95.881507 13.079293 3
0.441884 92.412237 16.439351 3
1.293195 89.389637 17.104070 3
-1.425858 86.724952 14.779078 1
-1.375784 83.771848 14.782466 1
-4.559903 81.043872 12.076920 1
-4.421479 72.096144 12.126168 1
1.353175 69.011853 16.963637 1
1.425636 66.107088 17.019042 1
0.257029 63.196626 16.037809 4
0.259817 60.278746 16.045613 4
0.197399 57.358278 16.004135 4
0.415519 54.447403 16.203652 4
0.448624 51.530128 16.253299 4
2.245264 48.732341 17.788573 9
7.600171 46.264556 22.314831 9
11.887615 43.827964 25.949190 9
15.311280 41.403938 28.862740 9
18.279092 39.008123 31.397830 9
21.089461 36.662199 33.804735 9
23.206755 34.283253 35.634463 9
25.872329 32.038428 37.927473 9
29.520763 30.021344 41.047107 9
31.512294 27.791086 42.782213 9
33.071624 25.521953 44.159199 9
34.481936 23.255735 45.415313 9
35.663160 20.968975 46.483707 9
36.729269 18.679083 47.459843 9
37.623579 16.367524 48.296481 9
38.380194 14.036199 49.022289 9
39.005469 11.681228 49.642746 9
39.496744 9.296476 50.155824 9
39.813815 6.864533 50.528246 9
40.011503 4.395213 50.805957 9
40.071685 1.877656 50.974120 9
39.954658 -0.707207 51.000023 9
39.661645 -3.366332 50.885074 9
39.170445 -6.115131 50.611272 9
38.475851 -8.963897 50.174800 9
37.588229 -11.917239 49.584797 9
36.336952 -15.051861 48.700586 9
34.762015 -18.366433 47.556247 9
32.715053 -21.938201 46.030183 9
29.977241 -25.883681 43.943211 9
21.385968 -32.580246 37.041358 9
15.085964 -38.452936 32.048023 9
-6.798970 69.114721 14.648719 1
-6.762835 66.141605 14.672464 1
-5.794631 63.175314 15.467300 4
-5.762268 60.215357 15.499763 4
-5.695106 57.256633 15.566686 4
-5.628904 54.298469 15.638711 4
-5.605721 51.338081 15.681325 4
-2.638236 48.575468 18.145859 9
2.772774 46.078976 22.620172 9
7.137403 43.616653 26.240194 9
10.644260 41.169278 29.160824 9
13.654266 38.747052 31.678221 9
16.454042 36.368370 34.027420 9
18.618596 33.964946 35.860185 9
21.646251 31.743857 38.404051 9
25.293246 29.696439 41.458480 9
27.091070 27.403701 43.002510 9
28.677137 25.109877 44.377328 9
30.065933 22.809733 45.594925 9
31.284348 20.501420 46.677432 9
32.323117 18.176127 47.617440 9
33.263533 15.846442 48.481497 9
33.980243 13.476460 49.167455 9
34.594112 11.089662 49.774162 9
35.039600 8.663469 50.248382 9
35.356218 6.202667 50.622568 9
35.499975 3.688524 50.861179 9
35.481371 1.117350 50.973103 9
35.329099 -1.508033 50.982006 9
34.950438 -4.225142 50.812979 9
34.383342 -7.029705 50.497351 9
33.581806 -9.946624 49.998371 9
32.537219 -12.988956 49.309727 9
31.158557 -16.202972 48.358556 9
29.310195 -19.658130 47.036326 9
26.940879 -23.395564 45.303101 9
23.738016 -27.573356 42.908629 9
-0.909022 -41.493862 23.266175 9
5.507127 -41.707260 28.650221 9
-17.461038 69.260958 10.540323 1
-17.471715 66.190637 10.525281 1
-15.917249 50.917755 11.837199 9
-7.756385 48.406907 18.415827 9
-2.177756 45.888385 22.927412 9
2.303920 43.403121 26.563685 9
5.826982 40.925053 29.435804 9
8.872669 38.474494 31.929768 9
11.735456 36.071361 34.281608 9
13.929427 33.640569 36.102114 9
17.259122 31.432399 38.836326 9
20.756283 29.328961 41.708139 9
22.572025 27.008863 43.238308 9
24.178737 24.688625 44.605663 9
25.602444 22.365499 45.831145 9
26.791438 20.021350 46.873609 9
27.883561 17.678407 47.843319 9
28.747243 15.301315 48.635418 9
29.493207 12.909086 49.338472 9
30.062696 10.481475 49.905845 9
30.472088 8.016045 50.350862 9
30.719158 5.505763 50.672045 9
30.849994 2.958032 50.906344 9
30.775402 0.339979 50.983196 9
30.511991 -2.351206 50.916249 9
30.088565 -5.113402 50.728807 9
29.401567 -7.989800 50.339307 9
28.494116 -10.975318 49.782581 9
27.299258 -14.104441 49.006378 9
25.683356 -17.441362 47.906078 9
23.609803 -21.018080 46.454098 9
20.808577 -24.966283 44.439218 9
16.985355 -29.442582 41.632206 9
5.982122 -37.226283 33.197662 9
-20.915441 50.794604 12.454456 9
-12.935646 48.238582 18.745653 9
-7.254776 45.692758 23.238960 9
-2.755026 43.174689 26.811120 9
0.899772 40.675795 29.725847 9
3.981622 38.196344 32.196465 9
6.848865 35.760653 34.503750 9
9.123667 33.308281 36.351924 9
12.848416 31.125466 39.339318 9
16.085156 28.948999 41.948666 9
17.934093 26.603279 43.476899 9
19.558954 24.255386 44.834650 9
20.976279 21.900156 46.035007 9
22.208443 19.534445 47.095614 9
23.268234 17.154034 48.026636 9
24.139372 14.748426 48.815586 9
24.849813 12.317304 49.484501 9
25.393476 9.852803 50.028891 9
25.770252 7.348362 50.448961 9
25.993006 4.801085 50.755026 9
26.045198 2.199897 50.934570 9
25.894196 -0.472158 50.962671 9
25.605167 -3.202060 50.890320 9
25.080808 -6.028220 50.642577 9
24.295345 -8.969063 50.200151 9
23.221666 -12.044892 49.542848 9
21.850325 -15.270872 48.664254 9
20.012938 -18.724361 47.435533 9
17.587767 -22.472847 45.764436 9
14.314387 -26.647658 43.452624 9
4.163053 -33.854337 35.872099 9
-3.502287 -40.248188 30.226096 9
-26.382532 50.649566 12.811556 9
-18.240895 48.066308 19.087143 9
-12.445279 45.493341 23.569878 9
-7.936709 42.941097 27.071611 9
-4.183149 40.417128 30.000136 9
-1.046774 37.909730 32.461166 9
1.830380 35.441327 34.728843 9
4.157059 32.962396 36.580381 9
8.264093 30.800660 39.798203 9
11.318314 28.563303 42.215063 9
13.182720 26.188398 43.727239 9
14.840412 23.814909 45.086496 9
16.268098 21.430493 46.275217 9
17.495436 19.032750 47.316237 9
18.539828 16.617972 48.223038 9
19.364450 14.170585 48.967809 9
20.057497 11.703959 49.617979 9
20.612976 9.211404 50.169200 9
20.934804 6.661522 50.548731 9
21.113840 4.071057 50.825995 9
21.089887 1.416568 50.955665 9
20.923092 -1.291364 50.983784 9
20.499210 -4.095078 50.824276 9
19.873181 -6.986366 50.519359 9
18.958917 -10.003041 50.004622 9
17.723285 -13.168372 49.255931 9
16.137390 -16.505834 48.252524 9
14.021446 -20.098316 46.860262 9
11.234785 -24.022523 44.975159 9
7.375564 -28.469352 42.297854 9
-3.846535 -36.133875 34.116753 9
-19.013678 -45.817460 23.013929 9
-31.980870 50.501284 13.184548 9
-23.644858 47.892046 19.465642 9
-17.770648 45.288699 23.908448 9
-13.220518 42.704424 27.365325 9
-9.400153 40.151621 30.281401 9
-6.219631 37.614241 32.724131 9
-3.282034 35.118486 34.990537 9
-0.761481 32.631842 36.950463 9
3.624856 30.476213 40.309484 9
6.440128 28.169718 42.499115 9
8.342147 25.768837 44.011815 9
9.968485 23.357584 45.324080 9
11.399366 20.941493 46.495956 9
12.598513 18.505757 47.500606 9
13.634587 16.056821 48.389414 9
14.459218 13.577320 49.126610 9
15.130022 11.073333 49.755338 9
15.623059 8.532847 50.258079 9
15.930358 5.946927 50.629254 9
16.066952 3.312655 50.880395 9
15.990828 0.611131 50.980783 9
15.723338 -2.159353 50.946737 9
15.218258 -5.020922 50.744615 9
14.443728 -7.993315 50.351568 9
13.416849 -11.081199 49.781006 9
11.996087 -14.344636 48.929513 9
10.125527 -17.819472 47.757214 9
7.735034 -21.549887 46.214091 9
4.506490 -25.680884 44.068574 9
-5.921056 -32.817022 36.663609 9
-13.136953 -38.892352 31.638064 9
-37.688190 50.351088 13.594762 9
-29.193925 47.712958 19.850615 9
-23.259116 45.076940 24.239319 9
-18.644870 42.461504 27.667738 9
-14.746113 39.880107 30.578653 9
-11.513590 37.312864 33.008240 9
-8.628032 34.775255 35.189994 9
-5.653400 32.313394 37.442370 9
-1.113197 30.145847 40.842593 9
1.423787 27.764422 42.785458 9
3.298975 25.325683 44.251001 9
4.953299 22.885968 45.561158 9
6.372370 20.434409 46.705637 9
7.595056 17.970357 47.712965 9
8.602514 15.482454 48.569674 9
9.437502 12.972520 49.307125 9
10.082645 10.429900 49.912976 9
10.505974 7.839381 50.364379 9
10.785940 5.213430 50.718609 9
10.864747 2.530513 50.934153 9
10.735218 -0.219101 51.006299 9
10.328073 -3.064250 50.885542 9
9.706573 -5.995661 50.618274 9
8.846843 -9.029420 50.187936 9
7.605905 -12.223090 49.492377 9
6.005752 -15.583582 48.548607 9
3.872352 -19.187904 47.232908 9
1.107023 -23.093575 45.476345 9
-2.776468 -27.513342 42.933046 9
-14.041269 -34.994615 35.129578 9
-25.228107 -42.740204 27.414787 9
-43.511805 50.198724 14.040771 9
-34.907429 47.528044 20.233944 9
-28.783211 44.867932 24.660201 9
-24.203759 42.213152 27.988600 9
-20.233990 39.601615 30.887522 9
-16.930501 37.005705 33.316665 9
-14.040700 34.432654 35.456541 9
-10.669616 31.986756 37.945600 9
-6.021087 29.799632 41.350605 9
-3.769407 27.341908 43.051994 9
-1.881312 24.870848 44.500190 9
-0.198233 22.401943 45.808353 9
1.232237 19.918646 46.942806 9
2.413897 17.412584 47.906532 9
3.443934 14.895587 48.768852 9
4.233805 12.341957 49.467162 9
4.827732 9.753433 50.033203 9
5.263950 7.132310 50.494412 9
5.448601 4.448041 50.784720 9
5.452747 1.710762 50.954906 9
5.246548 -1.094902 50.984362 9
4.813625 -3.981794 50.862105 9
4.051937 -6.990155 50.516924 9
2.968841 -10.129984 49.954961 9
1.590740 -13.404651 49.195787 9
-0.297080 -16.899856 48.089786 9
-2.723127 -20.645114 46.618699 9
-6.005887 -24.779039 44.561633 9
-10.640578 -29.523833 41.575698 9
-23.824918 -37.777478 32.645643 9
-40.820927 47.335334 20.597346 9
-34.620482 44.641090 24.977471 9
-29.897886 41.959581 28.332460 9
-25.871306 39.315747 31.208191 9
-22.447346 36.695572 33.669946 9
-19.619402 34.078881 35.722539 9
-15.795391 31.654269 38.475247 9
-11.380121 29.397990 41.644873 9
-9.157099 26.900164 43.293734 9
-7.205483 24.403763 44.759933 9
-5.524866 21.899215 46.043963 9
-4.106378 19.378538 47.152245 9
-2.896161 16.843170 48.122454 9
-1.931081 14.277745 48.929297 9
-1.104588 11.697294 49.646948 9
-0.552077 9.064734 50.181946 9
-0.172798 6.395069 50.604462 9
-0.029902 3.665489 50.871261 9
-0.130813 0.865277 50.977775 9
-0.426823 -2.000805 50.958183 9
-1.040935 -4.976362 50.728393 9
-1.885717 -8.046363 50.349417 9
-3.049841 -11.247802 49.761138 9
-4.725898 -14.656345 48.832591 9
-6.846128 -18.267813 47.611841 9
-9.743151 -22.216930 45.873126 9
-13.609031 -26.603129 43.488094 9
-25.493592 -34.134637 35.656254 9
-35.490626 -41.230795 29.144327 9
-48.089172 47.063429 20.161674 9
-40.681514 44.403624 25.265867 9
-35.846530 41.690955 28.623023 9
-31.700330 39.018793 31.517561 9
-28.252816 36.362421 33.942896 9
-25.361001 33.714802 35.996627 9
-21.065442 31.311749 39.011700 9
-16.900066 28.983888 41.943552 9
-14.666349 26.451125 43.568210 9
-12.658287 23.927511 45.046061 9
-10.982539 21.386320 46.304903 9
-9.565020 18.829760 47.395316 9
-8.361432 16.257485 48.347609 9
-7.411879 13.653414 49.134930 9
-6.659629 11.021060 49.796038 9
-6.149826 8.342751 50.300789 9
-5.842925 5.619432 50.676352 9
-5.731343 2.845644 50.928288 9
-5.943649 -0.020284 50.970526 9
-6.336627 -2.949993 50.900198 9
-7.040198 -5.988147 50.630603 9
-8.041191 -9.142150 50.171506 9
-9.462713 -12.461828 49.441423 9
-11.346003 -15.976144 48.414162 9
-13.837120 -19.751674 46.993791 9
-17.159623 -23.889304 45.033412 9
-21.831642 -28.607720 42.191120 9
-35.141291 -36.689124 33.628014 9
-47.909774 44.087410 24.906661 9
-41.991958 41.412691 28.909347 9
-37.671663 38.715917 31.856101 9
-34.227501 36.019798 34.227259 9
-31.276975 33.339541 36.277392 9
-26.502748 30.956703 39.545316 9
-22.609542 28.553879 42.233857 9
-20.301782 25.994508 43.876604 9
-18.339939 23.426279 45.296794 9
-16.631161 20.853369 46.556234 9
-15.254647 18.252250 47.602777 9
-14.034236 15.645990 48.553309 9
-13.125618 12.996598 49.305200 9
-12.424027 10.316116 49.928099 9
-11.937855 7.595204 50.416855 9
-11.667574 4.826026 50.771604 9
-11.694025 1.980277 50.939677 9
-11.902202 -0.922135 50.997351 9
-12.450096 -3.931661 50.841502 9
-13.313018 -7.053406 50.489276 9
-14.524188 -10.308792 49.919922 9
-16.119683 -13.721764 49.111023 9
-18.296252 -17.370049 47.935572 9
-21.152610 -21.307857 46.331302 9
-25.070011 -25.692315 44.052771 9
-37.317845 -33.171894 36.384620 9
-56.531615 40.444799 23.876371 9
-43.983220 38.388810 32.100451 9
-40.345108 35.670905 34.546460 9
-37.345630 32.956125 36.585533 9
-32.033730 30.599061 40.130373 9
-28.494102 28.110640 42.532587 9
-26.172177 25.514451 44.152922 9
-24.220135 22.905929 45.541070 9
-22.517493 20.293157 46.775251 9
-21.144785 17.652727 47.803723 9
-19.992616 14.994551 48.697497 9
-19.081401 12.306703 49.443732 9
-18.346214 9.594844 50.084630 9
-17.916803 6.823050 50.537084 9
-17.752836 3.990280 50.827650 9
-17.807328 1.098945 50.987099 9
-18.178840 -1.884679 50.952856 9
-18.835519 -4.963123 50.746181 9
-19.824280 -8.160023 50.337963 9
-21.211147 -11.506915 49.687140 9
-23.132064 -15.060050 48.708432 9
-25.625729 -18.850939 47.379061 9
-28.980272 -22.995808 45.518122 9
-33.670435 -27.688593 42.827771 9
-89.535927 34.415314 7.626694 8
-47.363866 35.237135 34.425512 9
-43.495164 32.573238 36.971961 9
-37.773984 30.224487 40.696771 9
-34.527353 27.658391 42.863025 9
-32.234852 25.018209 44.433579 9
-30.252840 22.374606 45.815633 9
-28.569259 19.719077 47.017077 9
-27.159723 17.045866 48.053606 9
-26.015576 14.347241 48.931028 9
-25.123039 11.616867 49.658409 9
-24.498904 8.842422 50.225643 9
-24.167710 6.009043 50.617869 9
-24.055828 3.124027 50.881866 9
-24.225585 0.164131 50.979179 9
-24.664726 -2.877356 50.918217 9
-25.469700 -6.036131 50.639584 9
-26.667489 -9.332699 50.127578 9
-28.288735 -12.789950 49.364414 9
-30.488516 -16.470272 48.255221 9
-33.389012 -20.432839 46.726267 9
-37.399098 -24.836731 44.526980 9
-95.539151 34.170485 8.937748 8
-83.667205 31.795897 16.375606 8
-75.664342 29.235113 21.428824 8
-43.807647 29.823172 41.200946 9
-40.844127 27.179300 43.147314 9
-38.546900 24.498117 44.690679 9
-36.497218 21.823548 46.089470 9
-34.824061 19.125461 47.264573 9
-33.438968 16.407096 48.270801 9
-32.296503 13.667345 49.136432 9
-31.458032 10.885536 49.824219 9
-30.906250 8.054989 50.345315 9
-30.588871 5.177576 50.732288 9
-30.599954 2.223070 50.928218 9
-30.857842 -0.799749 50.983741 9
-31.459447 -3.924445 50.840510 9
-32.426659 -7.168834 50.486216 9
-33.830068 -10.565406 49.879135 9
-35.694158 -14.136496 49.005865 9
-38.258909 -17.970771 47.722730 9
-41.703214 -22.148736 45.924091 9
-101.749465 33.913792 10.238424 8
-99.457484 30.519358 11.729010 8
-82.325385 28.844398 22.163380 8
-76.473279 26.140904 25.810803 8
-50.598972 26.250428 41.500545 9
-45.469326 23.902705 44.717134 9
-43.017260 21.243616 46.332203 9
-41.310809 18.508342 47.508010 9
-39.928142 15.747337 48.498315 9
-38.895237 12.944865 49.288038 9
-38.051059 10.121348 49.974025 9
-37.568445 7.233913 50.453428 9
-37.312132 4.300333 50.807666 9
-37.368297 1.292787 50.985960 9
-37.772669 -1.808098 50.967866 9
-38.577498 -5.027532 50.723329 9
-39.687458 -8.353904 50.310071 9
-41.343199 -11.864429 49.586659 9
-43.704319 -15.623777 48.460581 9
-97.362505 31.077117 17.996223 8
-89.463935 28.410795 22.754868 8
-83.457969 25.677591 26.409535 8
-78.541429 22.923541 29.432602 8
-74.094752 20.202569 32.187802 8
-71.565629 17.275777 33.828403 8
-69.556239 14.312142 35.174162 8
-48.250800 14.781809 47.795930 9
-46.393358 12.072795 49.059277 9
-45.284557 9.250078 49.894917 9
-44.715631 6.332615 50.425770 9
-44.531169 3.336628 50.743300 9
-44.830546 0.226389 50.790748 9
-45.567677 -3.003163 50.596076 9
-47.077627 -6.451187 49.966663 9
-75.124077 -16.916759 34.020813 8
-80.759470 -21.868987 31.065502 8
-104.591902 30.694014 18.798197 8
-96.718342 27.975779 23.429923 8
-90.693815 25.196061 27.011115 8
-85.897863 22.377752 29.897808 8
-81.532393 19.595205 32.546620 8
-78.985614 16.622285 34.166244 8
-77.005270 13.605602 35.472587 8
-75.528327 10.537793 36.502302 8
-74.545337 7.404226 37.261564 8
-74.042027 4.191560 37.759377 8
-74.026213 0.882451 37.992305 8
-74.567252 -2.554199 37.922210 8
-75.789025 -6.164963 37.480470 8
-77.715859 -9.978098 36.655222 8
-80.622078 -14.085365 35.293953 8
-85.078334 -18.667650 33.078602 8
-96.736062 -25.308045 26.839534 8
-141.504019 27.383989 3.194206 7
-104.389882 27.506644 24.024025 8
-98.334988 24.678617 27.539080 8
-93.597506 21.801417 30.328626 8
-89.217689 18.968615 32.927576 8
-86.720114 15.938016 34.489186 8
-84.823136 12.857498 35.727394 8
-83.372983 9.734334 36.728300 8
-82.503278 6.529647 37.418647 8
-82.118060 3.243298 37.852594 8
-82.266315 -0.150447 38.004128 8
-83.081372 -3.697580 37.801000 8
-84.509437 -7.407664 37.274556 8
-86.869257 -11.376028 36.251334 8
-90.431808 -15.699952 34.585390 8
-95.829651 -20.581616 31.933931 8
-135.944579 28.303615 11.670844 7
-126.644052 25.470438 16.863677 7
-120.120885 22.496187 20.556573 7
-100.392831 21.356706 31.414330 8
-97.266572 18.307509 33.276813 8
-94.733247 15.229591 34.828458 8
-92.898175 12.087320 36.013080 8
-91.563162 8.892420 36.938712 8
-90.792242 5.617340 37.571675 8
-90.510431 2.258429 37.953438 8
-90.917318 -1.240370 37.977775 8
-91.964486 -4.890842 37.672341 8
-93.767757 -8.739477 36.976781 8
-96.609301 -12.876627 35.742287 8
-100.878922 -17.431005 33.763780 8
-163.807632 136.794854 -124.781957 0
-162.790982 139.429920 -123.884556 0
-161.804337 142.050972 -122.990188 0
-160.843105 144.652394 -122.103616 0
-159.454277 146.650535 -121.728604 0
-155.727054 145.674851 -123.944593 0
-152.689579 145.658332 -125.367154 0
-149.630226 145.682756 -126.788893 0
-146.831917 146.081810 -127.910764 0
-143.290494 145.674836 -129.793511 0
-140.889176 146.642414 -130.465139 0
-136.758546 145.729993 -132.897533 0
-133.339143 145.697778 -134.567458 0
-129.881620 145.700832 -136.248804 0
-161.031339 137.264230 -122.273143 0
-160.052774 139.931718 -121.375598 0
-159.077091 142.548585 -120.511032 0
-158.089288 145.098346 -119.694145 0
-156.387976 146.701225 -119.674819 0
-152.560819 145.679276 -121.917421 0
-149.477377 145.664260 -123.337578 0
-146.356439 145.673004 -124.772584 0
-143.968544 146.594982 -125.436107 0
-140.843992 146.715691 -126.837320 0
-136.643435 145.714557 -129.288770 0
-133.265036 145.716116 -130.885021 0
-129.784762 145.683684 -132.555283 0
-126.361547 145.786710 -134.144288 0
-158.247283 137.742443 -119.781598 0
-157.285418 140.413422 -118.907739 0
-156.324468 143.032521 -118.067278 0
-155.392958 145.638535 -117.228813 0
-152.420237 145.683144 -118.530337 0
-149.335561 145.656782 -119.924345 0
-146.204412 145.643710 -121.341711 0
-143.033452 145.653383 -122.775214 0
-140.722994 146.701671 -123.338892 0
-136.537549 145.707735 -125.722950 0
-133.179184 145.720366 -127.267964 0
-129.747373 145.728108 -128.858472 0
-126.185644 145.675949 -130.546325 0
-123.235808 146.320453 -131.638727 0
-155.482031 138.265363 -117.277141 0
-154.532801 140.934391 -116.430631 0
-153.615487 143.592021 -115.584126 0
-152.622167 146.105763 -114.846062 0
-149.214720 145.672335 -116.538114 0
-146.082348 145.647684 -117.928906 0
-142.897653 145.631474 -119.347414 0
-139.682340 145.650296 -120.772072 0
-137.257328 146.609199 -121.424137 0
-134.011541 146.713250 -122.841104 0
-129.676504 145.736001 -125.246592 0
-126.123993 145.682233 -126.891290 0
-122.536515 145.671042 -128.542027 0
-119.876503 146.654272 -129.334635 0
-152.719009 138.810138 -114.777388 0
-151.776251 141.469990 -113.963293 0
-150.859660 144.112261 -113.154198 0
-149.754075 146.479029 -112.558392 0
-145.957050 145.645893 -114.566234 0
-142.790885 145.641200 -115.938644 0
-139.589231 145.665148 -117.321880 0
-136.315273 145.678068 -118.749854 0
-133.849519 146.632229 -119.415698 0
-130.436561 146.618952 -120.933178 0
-126.115673 145.742590 -123.239449 0
-122.494402 145.684921 -124.886150 0
-118.885988 145.719051 -126.496119 0
-150.845510 136.611666 -113.142796 0
-149.942426 139.356955 -112.296548 0
-149.031539 142.040061 -111.488899 0
-148.163701 144.725467 -110.670084 0
-146.697839 146.659491 -110.439278 0
-142.690591 145.656628 -112.569915 0
-139.484061 145.664854 -113.929498 0
-136.189145 145.644637 -115.346969 0
-132.922920 145.726642 -116.716132 0
-129.618925 145.837141 -118.097442 0
-125.984727 145.675493 -119.745946 0
-122.491380 145.737497 -121.246541 0
-118.811595 145.688823 -122.883786 0
-115.383666 145.963460 -124.283014 0
-148.082154 137.212977 -110.614443 0
-147.185291 139.947616 -109.801023 0
-146.296353 142.640967 -109.009618 0
-145.428479 145.310523 -108.227228 0
-142.598577 145.679885 -109.238224 0
-139.376180 145.660011 -110.583930 0
-136.107620 145.658953 -111.948459 0
-132.761259 145.644217 -113.358896 0
-130.200645 146.529217 -114.071043 0
-125.916932 145.672682 -116.242708 0
-122.379866 145.679828 -117.748067 0
-118.786875 145.707107 -119.277003 0
-115.060763 145.681774 -120.892658 0
-112.133124 146.491867 -121.832143 0
-145.300872 137.810447 -108.107496 0
-144.401169 140.524983 -107.333347 0
-143.548101 143.245588 -106.545241 0
-142.693206 145.915691 -105.785940 0
-139.276424 145.662856 -107.273832 0
-135.999391 145.642604 -108.616696 0
-132.689543 145.657496 -109.965863 0
-129.365354 145.727564 -111.305821 0
-126.778562 146.626950 -112.013505 0
-122.824379 146.182438 -113.836546 0
-118.729676 145.692763 -115.743795 0
-115.026551 145.678831 -117.305184 0
-111.257314 145.681309 -118.895646 0
-108.475503 146.678079 -119.684438 0
-142.523880 138.432354 -105.599336 0
-141.636563 141.145851 -104.849339 0
-140.794071 143.863438 -104.087007 0
-139.809598 146.374638 -103.470322 0
-135.984207 145.727237 -105.248184 0
-132.580502 145.629522 -106.646376 0
-129.213246 145.644740 -107.992250 0
-126.057478 145.949042 -109.146200 0
-122.978437 146.391129 -110.222224 0
-119.631669 146.624840 -111.495493 0
-115.014675 145.697096 -113.745438 0
-111.250531 145.692757 -115.296324 0
-107.404022 145.691879 -116.887291 0
-140.413393 136.062673 -104.022724 0
-139.738645 139.063824 -103.099710 0
-138.893268 141.810828 -102.348289 0
-138.075227 144.540988 -101.599514 0
-136.729095 146.645002 -101.304840 0
-132.506556 145.638233 -103.338103 0
-129.117686 145.620556 -104.671455 0
-125.728786 145.674987 -105.983863 0
-123.176248 146.643156 -106.624598 0
-119.652492 146.686254 -108.008177 0
-114.957146 145.670881 -110.264933 0
-111.258072 145.717532 -111.730994 0
-107.383421 145.678694 -113.306641 0
-104.139553 146.293970 -114.391485 0
-137.779934 136.912425 -101.358248 0
-136.960054 139.722666 -100.594566 0
-136.130507 142.472710 -99.863689 0
-135.330805 145.209065 -99.133012 0
-132.455378 145.670367 -100.051362 0
-129.058109 145.633343 -101.361382 0
-125.651416 145.659115 -102.657917 0
-122.178811 145.689730 -103.984387 0
-119.566605 146.641858 -104.644595 0
-114.930776 145.674426 -106.802165 0
-111.177005 145.658288 -108.274543 0
-107.429476 145.727153 -109.720226 0
-103.445651 145.659222 -111.315137 0
-100.608369 146.693480 -112.066960 0
-134.993245 137.597678 -98.824619 0
-134.175135 140.393945 -98.093477 0
-133.368809 143.155560 -97.376754 0
-132.586101 145.896770 -96.664750 0
-129.021606 145.669516 -98.072468 0
-125.565003 145.633222 -99.376679 0
-122.111655 145.673626 -100.658027 0
-118.551444 145.680278 -101.997821 0
-114.851583 145.626613 -103.418145 0
-111.160055 145.659486 -104.810754 0
-107.336688 145.646995 -106.276018 0
-103.562841 145.759682 -107.684595 0
-99.484005 145.678560 -109.284886 0
-132.201522 138.296221 -96.293930 0
-131.394863 141.090244 -95.586511 0
-130.630957 143.883821 -94.869577 0
-129.631103 146.383538 -94.347673 0
-125.494116 145.622622 -96.120275 0
-122.009200 145.621401 -97.394053 0
-118.491945 145.661254 -98.671092 0
-114.876376 145.678912 -99.997855 0
-111.129959 145.648058 -101.395661 0
-107.287026 145.606703 -102.838866 0
-103.465458 145.665718 -104.245724 0
-99.470573 145.649515 -105.749208 0
-95.958087 146.135980 -106.906945 0
-129.378812 138.980113 -93.783482 0
-128.623517 141.815892 -93.069885 0
-127.843916 144.579227 -92.395175 0
-126.450763 146.668009 -92.173861 0
-121.966034 145.628356 -94.122842 0
-118.424406 145.633878 -95.385957 0
-114.845405 145.677040 -96.655213 0
-111.181264 145.713406 -97.962916 0
-108.197405 146.455140 -98.794270 0
-104.527393 146.622702 -100.071499 0
-100.592186 146.628041 -101.504804 0
-95.477008 145.689736 -103.686746 0
-92.439129 146.641758 -104.491235 0
-127.354877 136.862708 -91.940787 0
-126.580800 139.711310 -91.250504 0
-125.827715 142.535305 -90.566391 0
-125.062593 145.301599 -89.910723 0
-122.001350 145.713781 -90.833450 0
-118.360597 145.609775 -92.132621 0
-114.832563 145.692371 -93.336372 0
-111.182337 145.731073 -94.602416 0
-107.311735 145.640762 -95.993109 0
-103.483260 145.670652 -97.335313 0
-99.499630 145.641618 -98.756819 0
-95.464945 145.651265 -100.189491 0
-91.343703 145.670613 -101.655443 0
-124.529849 137.599108 -89.390854 0
-123.767088 140.445764 -88.723194 0
-123.033512 143.276951 -88.055602 0
-122.279558 146.043085 -87.420588 0
-118.375470 145.662832 -88.860984 0
-114.792898 145.681518 -90.070031 0
-111.952131 146.475223 -90.785544 0
-107.334160 145.667024 -92.619178 0
-103.444587 145.630083 -93.965370 0
-99.521657 145.644595 -95.311939 0
-95.505438 145.658765 -96.695909 0
-91.378405 145.661257 -98.127050 0
-87.619000 146.055150 -99.314587 0
-121.689391 138.339356 -86.845014 0
-120.967786 141.215499 -86.179748 0
-120.243682 144.043537 -85.534849 0
-119.168883 146.482634 -85.130347 0
-114.724205 145.642377 -86.854715 0
-111.744429 146.295136 -87.639329 0
-107.300918 145.641697 -89.314920 0
-103.479710 145.656467 -90.583743 0
-99.563786 145.665592 -91.890609 0
-95.569558 145.687097 -93.224714 0
-91.448048 145.682050 -94.614447 0
-87.241834 145.691247 -96.033351 0
-84.047001 146.612028 -96.842053 0
-118.853903 139.105460 -84.288197 0
-118.107629 141.943909 -83.667036 0
-117.431163 144.808139 -83.020110 0
-115.807244 146.714324 -82.967945 0
-111.034663 145.640423 -84.821439 0
-107.319442 145.664236 -86.011749 0
-103.496369 145.666169 -87.247697 0
-99.572352 145.656959 -88.524013 0
-95.589002 145.676870 -89.815464 0
-91.510585 145.697196 -91.142279 0
-85.483400 144.176042 -93.561459 3
-116.736257 136.992461 -82.351078 0
-116.016418 139.890106 -81.723965 0
-115.327298 142.773402 -81.095516 0
-114.649784 145.624091 -80.476899 0
-111.039394 145.660889 -81.591276 0
-107.319713 145.669826 -82.751771 0
-103.531165 145.692367 -83.933910 0
-99.613164 145.677115 -85.171609 0
-95.625670 145.681887 -86.429582 0
-89.782726 144.187944 -88.705033 3
-85.580705 144.208078 -90.034968 3
-81.257334 144.214622 -91.411640 3
-113.884994 137.796593 -79.757761 0
-113.170735 140.687320 -79.154750 0
-112.486829 143.564030 -78.550228 0
-111.649724 146.253449 -78.048228 0
-107.341687 145.695454 -79.510296 0
-103.554558 145.708278 -80.658518 0
-99.633022 145.678820 -81.863151 0
-93.935635 144.185316 -84.019768 3
-89.839759 144.198818 -85.273468 3
-85.629741 144.200344 -86.569431 3
-81.285952 144.178329 -87.917017 3
-76.872264 144.189213 -89.281228 3
-110.991692 138.579682 -77.177882 0
-110.302638 141.483892 -76.586858 0
-109.640430 144.370636 -75.996102 0
-108.363454 146.646416 -75.754763 0
-103.527267 145.678285 -77.440871 0
-97.945255 144.164084 -79.497551 3
-93.967649 144.186556 -80.670390 3
-89.880320 144.196014 -81.882778 3
-85.700395 144.211103 -83.124769 3
-81.367968 144.186212 -84.426482 3
-76.978264 144.203857 -85.737723 3
-108.718121 136.379583 -75.202662 0
-108.098856 139.385272 -74.584654 0
-107.448558 142.315545 -73.998385 0
-106.804646 145.208829 -73.423081 0
-101.903398 144.200712 -75.084196 3
-98.011420 144.207067 -76.195592 3
-93.995761 144.184640 -77.353026 3
-89.918466 144.191491 -78.523750 3
-85.755500 144.209330 -79.719519 3
-81.438536 144.185289 -80.973773 3
-77.053433 144.194486 -82.242526 3
-72.542301 144.193467 -83.553798 3
-105.824161 137.218697 -72.569108 0
-102.652386 141.370998 -72.386344 3
-101.934659 144.223853 -71.863451 3
-98.047741 144.223683 -72.938431 3
-94.036582 144.194012 -74.058053 3
-89.935548 144.169336 -75.204226 3
-85.789517 144.190373 -76.354386 3
-81.539390 144.209653 -77.536951 3
-77.174704 144.222654 -78.756073 3
-72.650967 144.198768 -80.031910 3
-68.055579 144.211466 -81.321899 3
-100.363294 139.257702 -70.315633 3
-99.741463 142.229989 -69.755602 3
-98.040656 144.201873 -69.729958 3
-94.058754 144.187377 -70.799976 3
-90.022606 144.207143 -71.878769 3
-85.844259 144.189120 -73.007479 3
-81.586783 144.190807 -74.155353 3
-77.235541 144.203031 -75.328641 3
-72.737336 144.187285 -76.551058 3
-68.150838 144.194407 -77.794659 3
-97.407016 140.107962 -67.665706 3
-96.818960 143.101059 -67.113621 3
-94.104667 144.201618 -67.557134 3
-90.056629 144.200041 -68.606082 3
-85.909160 144.196743 -69.683463 3
-81.639324 144.176642 -70.798830 3
-77.291730 144.180244 -71.931243 3
-72.868340 144.211503 -73.079359 3
-68.269737 144.196279 -74.286381 3
-63.554171 144.185426 -75.525428 3
-94.455439 140.985619 -64.995279 3
-93.855877 143.959502 -64.471696 3
-90.092054 144.194418 -65.358388 3
-85.952978 144.187126 -66.395407 3
-81.747496 144.208468 -67.444571 3
-77.388823 144.190790 -68.542898 3
-72.942207 144.191524 -69.661213 3
-68.387301 144.197873 -70.807572 3
-63.676823 144.177998 -72.001064 3
-58.899087 144.202939 -73.203685 3
-91.487589 141.872047 -62.312756 3
-90.132998 144.193775 -62.132928 3
-85.994685 144.176098 -63.133194 3
-81.782423 144.180783 -64.148074 3
-77.492840 144.207430 -65.178529 3
-73.036846 144.188469 -66.260755 3
-68.471563 144.174560 -67.370065 3
-63.841043 144.202697 -68.487884 3
-59.044055 144.199833 -69.654544 3
-89.049276 139.723177 -60.128624 3
-88.510618 142.774093 -59.613317 3
-86.072539 144.195627 -59.880116 3
-81.823209 144.158304 -60.872926 3
-77.562181 144.196767 -61.853984 3
-73.152768 144.202735 -62.877651 3
-68.612325 144.195407 -63.935949 3
-63.939325 144.178491 -65.028517 3
-59.166137 144.180703 -66.141912 3
-54.291595 144.204409 -67.275974 3
-86.042514 140.632278 -57.396912 3
-85.472658 143.648724 -56.915795 3
-81.911562 144.175192 -57.602209 3
-77.639896 144.193306 -58.550056 3
-73.231087 144.188016 -59.534226 3
-68.749739 144.214354 -60.529314 3
-64.114441 144.212967 -61.565422 3
-59.332657 144.195219 -62.638653 3
-54.441823 144.193553 -63.734198 3
-82.973072 141.512758 -54.665745 3
-81.989511 144.183952 -54.358679 3
-77.733282 144.202893 -55.263412 3
-73.322357 144.184019 -56.209231 3
-68.854766 144.208991 -57.159462 3
-64.254223 144.221527 -58.141293 3
-59.498612 144.210139 -59.161700 3
-54.607567 144.194810 -60.212666 3
-49.611784 144.202037 -61.282554 3
-80.430731 139.340193 -52.372883 3
-79.920412 142.432744 -51.902378 3
-77.775434 144.171775 -52.017402 3
-73.428170 144.191988 -52.901681 3
-68.921953 144.175048 -53.825783 3
-64.314738 144.170914 -54.768619 3
-59.612826 144.187576 -55.727438 3
-54.789403 144.208584 -56.710788 3
-49.789998 144.199440 -57.736223 3
-44.650798 144.191755 -58.790506 3
-77.328428 140.251921 -49.579628 3
-76.833048 143.349834 -49.124292 3
-73.533509 144.200089 -49.616268 3
-69.052140 144.190247 -50.492052 3
-64.497839 144.213534 -51.376316 3
-59.756229 144.187325 -52.306086 3
-54.942694 144.202508 -53.242681 3
-49.940881 144.178350 -54.223177 3
-44.835083 144.180453 -55.219459 3
-74.185434 141.156754 -46.771306 3
-73.605581 144.182467 -46.362494 3
-69.157197 144.186613 -47.188083 3
-64.564966 144.169138 -48.043930 3
-59.927093 144.208115 -48.898456 3
-55.102257 144.201758 -49.795286 3
-50.124628 144.181443 -50.722708 3
-45.081182 144.213087 -51.653303 3
-39.826897 144.199430 -52.630608 3
-71.093847 142.128996 -43.916756 3
-69.297904 144.211028 -43.893386 3
-64.713047 144.186532 -44.706248 3
-60.088598 144.222667 -45.515710 3
-55.245299 144.189763 -46.374595 3
-50.325300 144.197404 -47.239875 3
-45.283826 144.216441 -48.124197 3
-39.445643 143.790620 -49.221296 3
-68.364380 139.902507 -41.475739 3
-67.883293 143.034374 -41.066870 3
-64.852572 144.198036 -41.391429 3
-60.170791 144.179062 -42.176272 3
-55.422153 144.203028 -42.964774 3
-50.493487 144.191071 -43.788158 3
-45.303108 144.092929 -44.667907 3
-65.158924 140.844662 -38.572146 3
-64.689599 143.980992 -38.177836 3
-60.347912 144.206449 -38.828921 3
-55.574241 144.198988 -39.581920 3
-50.651478 144.178226 -40.359298 3
-44.096652 143.115408 -41.548848 3
-61.889379 141.765782 -35.650571 3
-60.458972 144.185400 -35.517780 3
-55.735400 144.202188 -36.215486 3
-50.237522 143.758580 -37.092417 3
-59.042974 139.513621 -33.067228 3
-58.610386 142.709040 -32.693831 3
-55.675414 144.045047 -32.919741 3
-51.845590 -5.351845 -48.168419 9
-54.671896 4.785238 -46.600147 9
-54.105926 10.228245 -46.056659 9
-52.663518 14.437775 -45.778401 9
-50.734550 17.969346 -45.645471 9
-47.986869 20.458097 -45.747574 9
-43.896626 21.340323 -46.224743 9
-36.085048 17.928432 -47.727560 9
-32.302332 115.158449 -36.369507 3
-49.588024 132.246225 -31.920826 3
-55.700696 140.442640 -30.069498 3
-54.495219 143.072397 -29.885758 3
-149.982208 -0.195365 -28.831288 7
-149.995839 7.844709 -28.058672 7
-147.510990 10.194445 -28.212807 7
-111.143337 -1.580924 -34.805860 8
-111.471299 6.004455 -34.002909 8
-110.542206 11.204279 -33.618711 8
-108.810929 14.925485 -33.496441 8
-106.113265 16.995842 -33.677251 8
-101.552690 16.097216 -34.423372 8
-95.827618 13.504584 -35.505390 8
-63.709695 -1.664142 -41.593136 9
-64.208200 5.410109 -40.785629 9
-62.691103 9.580837 -40.558191 9
-61.532275 14.146276 -40.236863 9
-59.314164 17.252124 -40.212098 9
-57.067639 20.288647 -40.195611 9
-54.641481 23.072642 -40.227518 9
-52.164829 25.776372 -40.271912 9
-49.308422 28.012537 -40.414841 9
-46.118351 29.863027 -40.641276 9
-41.276980 29.841048 -41.288630 9
-35.239190 28.568420 -42.228532 9
-28.813002 27.011872 -43.247950 9
-21.977122 25.169612 -44.349762 9
-14.547289 22.868035 -45.577221 9
-6.054707 19.651952 -47.042030 9
-30.713726 109.781735 -33.500100 3
-48.287570 127.442376 -29.225234 3
-53.116793 134.826209 -27.742979 3
-52.720992 138.121931 -27.389203 3
-149.632642 -8.350550 -25.671136 7
-146.484230 -7.116681 -26.037538 7
-143.378734 -5.778764 -26.385533 7
-140.434847 -4.089181 -26.676268 7
-147.817281 19.132880 -23.585181 7
-143.511891 17.511181 -24.356098 7
-139.452694 16.524767 -25.032934 7
-135.269135 15.413173 -25.735795 7
-130.917723 14.105684 -26.477087 7
-126.306317 12.448269 -27.283532 7
-121.306960 10.236439 -28.191413 7
-116.601639 8.717555 -28.992795 8
-114.565892 11.959100 -28.988426 8
-112.820832 15.626524 -28.901874 8
-110.915188 18.945151 -28.866177 8
-108.587877 21.514259 -28.954022 8
-101.916149 17.163062 -30.270228 8
-101.207141 22.324801 -29.891866 8
-97.261517 22.431394 -30.418577 8
-92.783504 21.819421 -31.081090 8
-87.900944 20.722066 -31.840333 8
-82.815534 19.460134 -32.639061 8
-77.425333 17.904692 -33.502935 8
-71.721004 16.064518 -34.432246 8
-66.885274 15.548896 -35.117340 9
-64.960169 18.970070 -35.039647 9
-62.583018 21.759957 -35.078541 9
-60.160701 24.470332 -35.127725 9
-57.624569 27.021312 -35.203869 9
-54.987287 29.438230 -35.302875 9
-47.454092 26.017101 -36.599691 9
-48.772303 33.159664 -35.720868 9
-44.179670 33.346378 -36.279594 9
-38.580556 32.486958 -37.066452 9
-33.260084 32.060971 -37.771347 9
-27.803055 31.599008 -38.493458 9
-22.232754 31.131759 -39.226662 9
-16.585497 30.701353 -39.962053 9
-10.783968 30.231055 -40.716910 9
-4.720921 29.620221 -41.514633 9
2.374381 28.125656 -42.526149 9
9.843986 26.435800 -43.599603 9
17.900832 24.366978 -44.779777 9
26.742416 21.764699 -46.106470 9
37.351703 17.775051 -47.787521 9
-29.086683 104.280361 -30.556064 3
-46.976784 122.550853 -26.460721 3
-50.429861 129.012698 -25.336362 3
-50.074925 132.419528 -24.986984 3
-148.100342 -19.590100 -22.750250 7
-146.199796 -15.246505 -22.704433 7
-142.721711 -14.591841 -23.159943 7
-139.273355 -13.831537 -23.599674 7
-135.990649 -12.681590 -23.982644 7
-148.102801 20.516828 -19.732586 7
-145.932653 23.189932 -19.834592 7
-142.157373 22.622332 -20.408343 7
-138.359285 22.105177 -20.978165 7
-134.468290 21.505033 -21.564108 7
-130.521831 20.899379 -22.154873 7
-126.525334 20.301076 -22.748632 7
-117.412398 10.767434 -24.743877 7
-117.610164 17.802337 -24.154889 7
-111.962685 14.733420 -25.158951 8
-112.134411 21.486817 -24.589280 8
-110.022647 24.334621 -24.636608 8
-107.254695 26.098132 -24.855763 8
-103.733534 26.695665 -25.266196 8
-99.425135 26.149611 -25.870460 8
-95.185939 25.805366 -26.445536 8
-90.694673 25.185956 -27.072663 8
-86.112758 24.541173 -27.710038 8
-81.562197 24.046093 -28.327199 8
-76.743370 23.284845 -28.997434 8
-71.963977 22.689239 -29.644878 8
-67.164346 22.174395 -30.284223 8
-66.164646 26.661172 -30.012940 9
-63.449417 28.890712 -30.147486 9
-60.727489 31.110875 -30.280087 9
-57.950259 33.264157 -30.421771 9
-55.106948 35.342608 -30.574548 9
-52.267482 37.433269 -30.722161 9
-48.693938 38.691762 -31.029358 9
-44.156419 38.909291 -31.542444 9
-38.922241 38.442331 -32.196978 9
-33.186740 37.544400 -32.946442 9
-27.287673 36.601954 -33.715282 9
-21.301407 35.701318 -34.486403 9
-14.969190 34.581013 -35.314175 9
-8.414950 33.382208 -36.170807 9
-2.142658 32.608552 -36.950524 9
3.947728 32.144702 -37.675637 9
10.145261 31.705196 -38.406253 9
16.541257 31.208927 -39.160367 9
23.055417 30.736909 -39.920920 9
29.757629 30.230668 -40.701275 9
36.712108 29.641409 -41.513192 9
-27.489497 98.706455 -27.519502 3
-45.668857 117.579924 -23.621454 3
-47.669727 123.018376 -22.836668 3
-47.287345 126.488147 -22.506861 3
-147.481992 -19.965852 -18.768636 7
-143.829757 -19.661183 -19.265570 7
-140.225532 -19.190918 -19.741133 7
-136.664656 -18.575481 -20.197263 7
-133.093927 -17.936674 -20.649259 7
-129.431785 -17.443415 -21.119429 7
-147.051064 26.200627 -15.818035 7
-143.430905 25.858745 -16.330496 7
-139.784080 25.548258 -16.840930 7
-136.053614 25.161930 -17.364154 7
-132.252297 24.730934 -17.896276 7
-128.424554 24.340834 -18.425489 7
-124.515872 23.895407 -18.965518 7
-120.585682 23.503269 -19.500986 7
-115.400373 21.084049 -20.337226 8
-113.155752 23.691947 -20.436938 8
-110.851381 26.166040 -20.550120 8
-108.426499 28.419219 -20.690736 8
-105.139346 29.318401 -21.033937 8
-101.106701 29.125570 -21.546009 8
-96.917230 28.783355 -22.084716 8
-92.662516 28.436659 -22.627981 8
-88.375539 28.135516 -23.167956 8
-83.977760 27.770474 -23.722302 8
-79.531017 27.432786 -24.276564 8
-74.870271 26.902696 -24.867156 8
-70.214526 26.482261 -25.444721 8
-65.536914 26.133652 -26.015261 9
-65.924841 32.275977 -25.481361 9
-62.999080 34.164201 -25.664099 9
-60.200853 36.219126 -25.814950 9
-57.342936 38.209553 -25.973884 9
-54.323079 40.021036 -26.161756 9
-51.264839 41.806477 -26.352134 9
-47.585747 42.915154 -26.663712 9
-42.808763 42.862462 -27.189597 9
-37.562450 42.395833 -27.797757 9
-32.224823 41.942655 -28.410590 9
-26.613225 41.316344 -29.063690 9
-20.912148 40.718755 -29.719673 9
-14.992403 40.023433 -30.403171 9
-9.014666 39.397842 -31.082320 9
