ply
format ascii 1.0
element vertex 1363
property float x
property float y
property float z
property int scalar_Label
end_header
12.088864 31.364096 39.645452 9
14.873729 29.127338 41.842856 9
16.762339 26.819678 43.359351 9
18.399954 24.512617 44.688818 9
19.892524 22.215202 45.912345 9
21.106801 19.897232 46.928286 9
22.188488 17.577128 47.848082 9
23.135377 15.249340 48.670170 9
23.876773 12.893004 49.340832 9
24.476069 10.515160 49.908625 9
24.891930 8.100126 50.342319 9
25.162110 5.650607 50.670933 9
25.288898 3.161525 50.896492 9
25.241642 0.618554 50.996041 9
25.034703 -1.980886 50.980867 9
24.539537 -4.682701 50.753999 9
23.924540 -7.444140 50.443603 9
23.048924 -10.317011 49.943631 9
21.872179 -13.325602 49.224250 9
20.335566 -16.502854 48.242065 9
18.369869 -19.888668 46.946061 9
15.814658 -23.561550 45.216905 9
12.420678 -27.643532 42.869205 9
4.649100 -33.614546 37.249465 9
-1.947280 -39.303046 32.533810 9
-34.587781 54.026812 8.153803 9
-23.230383 51.240764 16.678190 9
-16.444228 48.532829 21.783813 9
-11.315093 45.895620 25.654067 9
-7.280409 43.306720 28.710379 9
-3.907826 40.760246 31.276585 9
-1.062062 38.244442 33.454005 9
1.509795 35.765715 35.431974 9
4.109489 33.347889 37.436180 9
7.406099 31.074584 39.966672 9
10.132810 28.798407 42.075770 9
12.037983 26.461712 43.575821 9
13.723398 24.130964 44.916871 9
15.185702 21.797493 46.096545 9
16.436970 19.455274 47.124024 9
17.489759 17.098931 48.008866 9
18.382153 14.728957 48.779659 9
19.158563 12.349039 49.469655 9
19.721666 9.932175 50.006623 9
20.109041 7.479491 50.418840 9
20.350369 4.991877 50.728666 9
20.457596 2.466877 50.945263 9
20.299737 -0.137435 50.971846 9
20.013444 -2.791214 50.910217 9
19.492870 -5.531820 50.682435 9
18.774650 -8.356722 50.316208 9
17.780303 -11.299539 49.754198 9
16.399715 -14.408653 48.916053 9
14.642140 -17.695762 47.809773 9
12.408105 -21.212080 46.363435 9
9.457992 -25.067070 44.402625 9
5.371551 -29.453199 41.621465 9
-3.508557 -35.893305 35.344489 9
-10.937704 -41.967197 30.155482 9
-40.530154 53.972240 8.352266 9
-28.892745 51.154450 16.887558 9
-21.956972 48.415156 21.987439 9
-16.732787 45.746463 25.840795 9
-12.612689 43.127160 28.892284 9
-9.120690 40.554396 31.490234 9
-6.226590 38.008541 33.656770 9
-3.651649 35.496002 35.595798 9
-0.743041 33.077678 37.784421 9
2.600455 30.777455 40.296065 9
5.216965 28.454375 42.281701 9
7.193754 26.095363 43.805523 9
8.899676 23.735834 45.137117 9
10.374487 21.372713 46.305658 9
11.628758 18.999483 47.319035 9
12.671913 16.609883 48.184329 9
13.600597 14.215963 48.972099 9
14.296780 11.787748 49.596668 9
14.857882 9.338951 50.129162 9
15.196192 6.843298 50.506145 9
15.378524 4.309367 50.776492 9
15.415680 1.734063 50.948361 9
15.249039 -0.904451 50.979668 9
14.867060 -3.617275 50.862569 9
14.261664 -6.415077 50.591807 9
13.380141 -9.322966 50.129989 9
12.211829 -12.354997 49.470256 9
10.653426 -15.557134 48.539163 9
8.686534 -18.950786 47.324737 9
6.135397 -22.615444 45.702195 9
2.658390 -26.701647 43.428611 9
-4.065536 -32.143939 38.845471 9
-11.647688 -38.109988 33.671048 9
-24.157918 -46.312354 25.003956 9
-34.733688 51.065176 17.090352 9
-27.684045 48.291815 22.155766 9
-22.248483 45.595995 26.073625 9
-18.067283 42.944387 29.101157 9
-14.493419 40.341787 31.700937 9
-11.562222 37.763821 33.847746 9
-8.924106 35.222225 35.791400 9
-5.813489 32.790529 38.078417 9
-2.323609 30.473615 40.641603 9
0.255716 28.113069 42.560384 9
2.187452 25.714948 44.022928 9
3.920102 23.326454 45.349337 9
5.400394 20.931440 46.501791 9
6.691594 18.532173 47.525528 9
7.741628 16.111800 48.383700 9
8.637876 13.679308 49.138691 9
9.312202 11.214364 49.742326 9
9.852748 8.728804 50.257485 9
10.171303 6.196558 50.621883 9
10.300443 3.617574 50.859022 9
10.251297 0.987681 50.977190 9
9.976345 -1.712873 50.943240 9
9.522495 -4.479149 50.790861 9
8.807283 -7.342566 50.462427 9
7.786273 -10.326772 49.927405 9
6.451008 -13.446044 49.180780 9
4.730915 -16.735923 48.174003 9
2.462922 -20.267517 46.793965 9
-0.525428 -24.123391 44.921701 9
-4.596703 -28.465249 42.306071 9
-14.015980 -34.968176 35.971570 9
-21.295707 -40.870114 31.158294 9
-40.704275 50.974466 17.327855 9
-33.484983 48.168642 22.395831 9
-27.976343 45.438458 26.275985 9
-23.709778 42.754459 29.295596 9
-20.096753 40.117469 31.865641 9
-17.013061 37.515443 34.072829 9
-14.435710 34.932182 35.933273 9
-11.021934 32.495765 38.383321 9
-7.387434 30.160841 40.992877 9
-4.938646 27.749860 42.781764 9
-2.895968 25.333209 44.293747 9
-1.216261 22.903292 45.559137 9
0.274998 20.476293 46.699602 9
1.521485 18.035422 47.676148 9
2.607252 15.587827 48.547401 9
3.465884 13.114307 49.267467 9
4.175051 10.623168 49.890515 9
4.631203 8.085684 50.345064 9
4.913547 5.511365 50.686386 9
5.024823 2.894460 50.916738 9
4.904777 0.212974 50.994903 9
4.553587 -2.541578 50.921569 9
3.963500 -5.379973 50.692012 9
3.126120 -8.313599 50.301141 9
2.025169 -11.356725 49.738528 9
0.428239 -14.593333 48.845507 9
-1.553787 -18.005122 47.699654 9
-4.136683 -21.680530 46.154627 9
-7.606291 -25.743393 44.017134 9
-13.259892 -30.702635 40.404893 9
-22.427672 -37.143082 34.418967 9
-33.178961 -44.439518 27.385285 9
-39.569441 48.037397 22.566446 9
-33.889132 45.275520 26.475163 9
-29.512784 42.559375 29.501805 9
-25.858748 39.887175 32.043040 9
-22.713684 37.252218 34.244310 9
-20.006416 34.643791 36.154152 9
-16.321815 32.198749 38.736092 9
-12.611216 29.837147 41.341567 9
-10.261868 27.379148 43.026716 9
-8.242927 24.923966 44.493496 9
-6.521915 22.465041 45.764189 9
-4.994437 20.009085 46.909906 9
-3.743984 17.534535 47.874160 9
-2.722255 15.040661 48.690015 9
-1.824456 12.540144 49.428743 9
-1.205701 9.995819 49.985546 9
-0.746594 7.424225 50.441622 9
-0.511390 4.804526 50.753879 9
-0.443769 2.142413 50.960790 9
-0.681053 -0.603533 50.970207 9
-1.108790 -3.413631 50.859934 9
-1.770813 -6.307226 50.601044 9
-2.746759 -9.316208 50.140762 9
-4.105787 -12.473097 49.433672 9
-5.846215 -15.791429 48.482128 9
-8.156243 -19.346876 47.161577 9
-11.133740 -23.193552 45.408620 9
-15.202139 -27.504660 42.943315 9
-24.437448 -33.799457 37.056082 9
-32.249723 -39.794579 32.144348 9
-39.996883 45.106909 26.671673 9
-35.476488 42.359365 29.725696 9
-31.763619 39.652333 32.249578 9
-28.478741 36.990257 34.495924 9
-25.837556 34.337980 36.321292 9
-21.780027 31.892567 39.095158 9
-18.157571 29.483898 41.585935 9
-15.779399 26.992890 43.256446 9
-13.708800 24.508497 44.729404 9
-11.957455 22.018313 45.997256 9
-10.473193 19.519767 47.094848 9
-9.189206 17.015168 48.066677 9
-8.164513 14.486513 48.873910 9
-7.310582 11.942112 49.575423 9
-6.666927 9.367637 50.145374 9
-6.301102 6.740775 50.539559 9
-6.117466 4.073776 50.821564 9
-6.114348 1.360453 50.992897 9
-6.439560 -1.443294 50.956799 9
-6.943017 -4.309345 50.812689 9
-7.746786 -7.278097 50.481030 9
-8.924701 -10.381731 49.914349 9
-10.431254 -13.620109 49.143589 9
-12.483509 -17.072963 48.028066 9
-15.063905 -20.754355 46.581079 9
-18.565975 -24.815547 44.548226 9
-23.448372 -29.449140 41.634538 9
-33.873471 -36.199499 35.142827 9
-41.811215 42.141867 29.836531 9
-37.787131 39.414924 32.506070 9
-34.471160 36.716108 34.723226 9
-31.486498 34.057062 36.732748 9
-27.443308 31.572720 39.436258 9
-23.847644 29.122958 41.855874 9
-21.466008 26.594946 43.495008 9
-19.336162 24.081268 44.977964 9
-17.618557 21.549231 46.201027 9
-16.104075 19.018434 47.299838 9
-14.806812 16.479379 48.265462 9
-13.790621 13.912792 49.056917 9
-12.976901 11.324231 49.725305 9
-12.391630 8.701228 50.254204 9
-12.070799 6.027939 50.620862 9
-11.908150 3.319363 50.894148 9
-12.059212 0.532482 50.974534 9
-12.389408 -2.309939 50.949124 9
-13.073796 -5.260383 50.706264 9
-14.051591 -8.314740 50.285851 9
-15.332870 -11.486424 49.682368 9
-17.114225 -14.844794 48.771391 9
-19.393644 -18.407072 47.555861 9
-22.475902 -22.288753 45.843674 9
-26.557860 -26.583828 43.512641 9
-34.837542 -32.426624 38.538775 9
-110.205282 38.192962 -9.265975 8
-52.941271 38.533659 27.103826 9
-40.870029 36.415549 34.821764 9
-37.461191 33.753096 37.056498 9
-33.268304 31.244281 39.794971 9
-29.796815 28.741435 42.083539 9
-27.313244 26.186910 43.754098 9
-25.168050 23.636919 45.217994 9
-23.411442 21.072580 46.443759 9
-21.909798 18.502048 47.516080 9
-20.674153 15.914720 48.428257 9
-19.662990 13.309017 49.206772 9
-18.844415 10.683328 49.872010 9
-18.315871 8.011078 50.363024 9
-18.013385 5.296012 50.720536 9
-17.953044 2.526588 50.934933 9
-18.190174 -0.318806 50.972123 9
-18.651586 -3.232366 50.878658 9
-19.384295 -6.234282 50.625806 9
-20.540062 -9.375331 50.119687 9
-22.071469 -12.656955 49.391147 9
-24.092850 -16.126084 48.370317 9
-26.755436 -19.846228 46.964948 9
-30.324250 -23.924009 45.012954 9
-35.217204 -28.528600 42.258871 9
-86.770234 39.798736 10.494329 8
-76.724888 37.063643 16.774321 8
-69.887653 34.283325 21.077446 8
-44.693655 33.340999 36.730253 9
-39.274804 30.905619 40.165028 9
-35.866192 28.355949 42.365081 9
-33.356238 25.764881 44.017880 9
-31.241058 23.171198 45.434837 9
-29.435012 20.574290 46.669015 9
-27.953935 17.961270 47.710941 9
-26.693527 15.338792 48.625119 9
-25.674280 12.695647 49.399223 9
-24.971587 10.009234 49.987335 9
-24.490273 7.287997 50.448358 9
-24.200211 4.530709 50.801172 9
-24.218477 1.704498 50.974588 9
-24.506859 -1.192256 50.992682 9
-25.122559 -4.183005 50.821272 9
-26.051472 -7.275461 50.469879 9
-27.376562 -10.502827 49.888995 9
-29.092387 -13.877377 49.083203 9
-31.500891 -17.500646 47.870732 9
-34.540621 -21.378088 46.291150 9
-38.695801 -25.683624 44.054103 9
-93.784912 39.576879 11.095086 8
-83.729200 36.795018 17.231053 8
-84.780984 33.332792 16.676606 8
-71.725230 31.132362 24.636080 8
-67.546985 28.304245 27.251456 8
-42.124677 27.959019 42.662863 9
-39.630738 25.325054 44.272195 9
-37.526826 22.688769 45.654957 9
-35.720023 20.050770 46.867275 9
-34.196290 17.403351 47.917836 9
-32.976293 14.733603 48.794557 9
-31.995985 12.042752 49.536211 9
-31.227478 9.327960 50.159847 9
-30.831702 6.549893 50.569636 9
-30.652522 3.728903 50.859545 9
-30.742638 0.845877 50.998644 9
-31.181850 -2.126948 50.940082 9
-31.927694 -5.191126 50.710043 9
-32.948481 -8.349137 50.328253 9
-34.517507 -11.683138 49.633567 9
-36.555267 -15.189848 48.674786 9
-39.287076 -18.950310 47.320385 9
-42.890782 -23.041551 45.467878 9
-101.074343 39.344798 11.680725 8
-91.001835 36.514833 17.678234 8
-84.169965 33.638511 21.777670 8
-78.913714 30.762560 24.959172 8
-74.649094 27.895391 27.566535 8
-71.268975 25.017022 29.663180 8
-47.352924 24.719382 43.812592 9
-44.182917 22.169393 45.793961 9
-42.175914 19.516034 47.101735 9
-40.666407 16.824495 48.126762 9
-39.439720 14.113975 48.995167 9
-38.494565 11.375317 49.708083 9
-37.806605 8.603695 50.280151 9
-37.486552 5.768622 50.647338 9
-37.370063 2.892105 50.906034 9
-37.580208 -0.059782 50.985204 9
-38.085316 -3.090742 50.904054 9
-39.000580 -6.238545 50.596658 9
-40.300511 -9.510608 50.078967 9
-42.071918 -12.942828 49.302068 9
-44.781063 -16.678924 47.998620 9
-86.757712 -31.670669 24.102606 8
-98.589819 36.220352 18.099097 8
-91.605471 33.305289 22.187871 8
-86.293621 30.385129 25.326951 8
-81.999262 27.472229 27.892203 8
-78.795823 24.526035 29.842201 8
-76.457337 21.539091 31.307014 8
-73.563813 18.670677 33.098540 8
-71.255351 15.775964 34.565111 8
-50.435973 15.755924 46.594881 9
-47.341557 13.274934 48.516899 9
-45.934028 10.560998 49.486277 9
-45.046901 7.775590 50.168918 9
-44.654657 4.906757 50.580268 9
-44.657852 1.958826 50.777734 9
-45.082594 -1.086917 50.747457 9
-46.067084 -4.275896 50.412389 9
-48.250797 -7.779143 49.413082 9
-76.935037 -17.944993 33.492564 8
-82.906976 -22.830814 30.416590 8
-88.058358 -27.632973 27.825696 8
-104.814666 -35.829097 18.750996 8
-99.416867 32.951325 22.546921 8
-93.842110 30.002494 25.758750 8
-89.521279 27.042924 28.280060 8
-86.651988 24.011474 30.001537 8
-83.933612 21.018262 31.648919 8
-81.058908 18.098341 33.393094 8
-78.719161 15.159020 34.849215 8
-76.957531 12.176673 35.993883 8
-75.684464 9.147299 36.877567 8
-74.886296 6.057535 37.508587 8
-74.567724 2.891188 37.885187 8
-74.753436 -0.372055 37.994684 8
-75.473516 -3.754717 37.821606 8
-76.856495 -7.301812 37.296421 8
-79.037970 -11.065498 36.346257 8
-82.225125 -15.120730 34.859525 8
-86.998056 -19.643494 32.520918 8
-92.856485 -24.556617 29.609480 8
-101.065513 -30.235308 25.437217 8
-136.150457 30.371096 7.342619 7
-101.776147 29.595984 26.142130 8
-97.542284 26.575819 28.558020 8
-94.600857 23.499905 30.281997 8
-91.683554 20.478359 32.003241 8
-88.799555 17.508995 33.716507 8
-86.494694 14.514431 35.125992 8
-84.793690 11.472661 36.218980 8
-83.588305 8.381912 37.054795 8
-82.890266 5.224398 37.627888 8
-82.702262 1.983433 37.937739 8
-83.037471 -1.359848 37.978312 8
-84.004607 -4.844230 37.692380 8
-85.724357 -8.515686 37.016763 8
-88.284532 -12.418029 35.906462 8
-92.124307 -16.681008 34.128955 8
-97.928987 -21.513227 31.322058 8
-110.393360 -28.174570 24.988486 8
-140.542068 138.679130 -128.436679 0
-139.708925 141.323992 -127.534150 0
-138.890283 143.939183 -126.648651 0
-137.905692 146.331137 -125.961453 0
-133.878439 145.474373 -128.336006 0
-130.509698 145.405740 -130.018394 0
-127.042851 145.312968 -131.770113 0
-123.671011 145.391809 -133.402767 0
-121.183891 146.398669 -134.165863 0
-116.545613 145.401864 -136.957374 0
-112.936904 145.479968 -138.738425 0
-109.303370 145.612407 -140.516859 0
-138.862905 136.878110 -126.576289 0
-138.013849 139.532100 -125.699458 0
-137.209125 142.189636 -124.809307 0
-136.400277 144.797590 -123.953783 0
-134.950840 146.686426 -123.751414 0
-130.470119 145.432168 -126.483348 0
-127.044035 145.369271 -128.160897 0
-123.633570 145.397632 -129.797728 0
-121.112751 146.360267 -130.580050 0
-117.552489 146.373461 -132.315586 0
-112.845694 145.401630 -135.073365 0
-109.165978 145.481771 -136.856404 0
-105.990239 146.086644 -138.162508 0
-136.319063 137.741470 -123.836790 0
-135.528659 140.441651 -122.942630 0
-134.731334 143.088102 -122.085404 0
-133.951033 145.708916 -121.240878 0
-130.555486 145.586647 -122.883205 0
-127.024675 145.403983 -124.625281 0
-123.499209 145.307002 -126.334823 0
-120.115323 145.425309 -127.889081 0
-117.513129 146.354218 -128.716203 0
-112.826133 145.389565 -131.395841 0
-109.127895 145.441204 -133.158019 0
-105.434785 145.576090 -134.890439 0
-102.768269 146.678209 -135.709361 0
-133.792304 138.632887 -121.102100 0
-133.012939 141.325977 -120.237411 0
-132.248204 143.989607 -119.387838 0
-131.299498 146.420006 -118.734856 0
-126.996876 145.429382 -121.148816 0
-123.492025 145.341536 -122.804317 0
-120.108533 145.448479 -124.326485 0
-117.541439 146.398771 -125.108329 0
-113.409861 145.936127 -127.245521 0
-109.105147 145.414616 -129.498426 0
-105.321990 145.458136 -131.270924 0
-101.660181 145.687276 -132.915573 0
-132.078115 136.849423 -119.211321 0
-131.328641 139.601341 -118.329677 0
-130.533929 142.258848 -117.517658 0
-129.783619 144.919806 -116.692541 0
-128.215930 146.713136 -116.617547 0
-123.522362 145.412558 -119.291239 0
-119.932572 145.307628 -120.961073 0
-116.457674 145.390634 -122.506794 0
-113.860540 146.359350 -123.284244 0
-109.134671 145.435478 -125.845516 0
-105.277246 145.400752 -127.641930 0
-101.483921 145.504804 -129.359472 0
-98.505199 146.379407 -130.387209 0
-129.559733 137.786296 -116.470209 0
-128.815567 140.524416 -115.622830 0
-128.063629 143.209429 -114.809289 0
-127.330380 145.870755 -114.005436 0
-123.623998 145.553432 -115.767247 0
-119.962471 145.365477 -117.462943 0
-116.430972 145.382742 -119.023499 0
-113.823683 146.330984 -119.795024 0
-110.032811 146.243581 -121.530683 0
-105.327645 145.427970 -123.983737 0
-101.428338 145.427389 -125.749316 0
-97.653513 145.615567 -127.390446 0
-127.072010 138.764086 -113.721002 0
-126.331016 141.486571 -112.908351 0
-125.576771 144.152237 -112.132317 0
-124.557090 146.514947 -111.601668 0
-119.964905 145.396373 -114.035806 0
-116.342650 145.316318 -115.636680 0
-112.819444 145.406739 -117.133358 0
-110.130292 146.326221 -117.940910 0
-105.354215 145.434298 -120.394532 0
-101.458375 145.424650 -122.118082 0
-97.499478 145.444349 -123.865985 0
-94.099471 146.012062 -125.158567 0
-125.315342 136.990626 -111.800146 0
-124.578014 139.743251 -110.995106 0
-123.847684 142.458914 -110.209274 0
-123.140174 145.154905 -109.428996 0
-120.174550 145.627170 -110.487500 0
-116.325360 145.316887 -112.235218 0
-112.823253 145.415914 -113.682155 0
-109.422725 145.679338 -115.028897 0
-105.308228 145.376496 -116.908699 0
-101.483142 145.417718 -118.538600 0
-97.514911 145.417534 -120.253830 0
-93.629000 145.569692 -121.882847 0
-90.812887 146.671267 -122.693041 0
-122.786358 137.960678 -109.082774 0
-122.107012 140.754350 -108.266496 0
-121.419491 143.495160 -107.481069 0
-120.655230 146.119455 -106.779059 0
-116.510118 145.508371 -108.720183 0
-112.714373 145.320672 -110.361649 0
-109.108929 145.389362 -111.833415 0
-105.385757 145.428470 -113.372541 0
-101.433437 145.346495 -115.060416 0
-97.539375 145.398899 -116.680662 0
-93.548858 145.452245 -118.348636 0
-89.661227 145.672410 -119.918577 0
-120.310364 138.993805 -106.337589 0
-119.613435 141.751491 -105.570344 0
-118.942741 144.492164 -104.805674 0
-117.698002 146.648424 -104.496836 0
-112.723859 145.334964 -106.990643 0
-109.105843 145.381048 -108.437978 0
-105.339330 145.370695 -109.973174 0
-101.490548 145.368353 -111.545776 0
-97.568663 145.384855 -113.148317 0
-93.510940 145.370490 -114.824916 0
-89.560955 145.529269 -116.401516 0
-86.487300 146.466061 -117.342330 0
-118.507228 137.227214 -104.381321 0
-117.827771 140.028323 -103.611964 0
-117.142898 142.780721 -102.868938 0
-116.470451 145.503622 -102.138142 0
-113.001138 145.597133 -103.465695 0
-109.087470 145.358945 -105.094432 0
-105.393438 145.402311 -106.541389 0
-101.514533 145.361790 -108.098222 0
-97.692304 145.451492 -109.592620 0
-93.802251 145.563218 -111.112981 0
-90.629264 146.338237 -112.118180 0
-85.562341 145.657343 -114.404406 0
-115.998843 138.262849 -101.653451 0
-115.355369 141.081438 -100.891286 0
-114.679337 143.825924 -100.173864 0
-113.846544 146.385218 -99.587778 0
-109.213186 145.467507 -101.688414 0
-105.430214 145.418749 -103.163366 0
-102.650116 146.321128 -103.925337 0
-97.725447 145.441676 -106.143443 0
-93.677585 145.410481 -107.733613 0
-89.579152 145.423108 -109.334860 0
-85.469916 145.512375 -110.920610 0
-81.988615 146.175540 -112.070593 0
-114.192486 136.520033 -99.645187 0
-113.530957 139.346801 -98.907829 0
-112.843411 142.106010 -98.209207 0
-112.203970 144.869780 -97.496856 0
-110.546207 146.670492 -97.499904 0
-105.854283 145.779076 -99.562653 0
-101.592326 145.375539 -101.303961 0
-97.715405 145.395575 -102.762775 0
-93.778782 145.446256 -104.239820 0
-89.724263 145.481880 -105.772716 0
-85.541770 145.499135 -107.366632 0
-81.351928 145.597264 -108.942762 0
-78.293638 146.644791 -109.777676 0
-111.687585 137.594136 -96.903909 0
-111.029460 140.407039 -96.196079 0
-110.372089 143.179127 -95.507072 0
-109.725637 145.921445 -94.829420 0
-105.614385 145.550368 -96.451560 0
-101.671842 145.418174 -97.938575 0
-97.814285 145.442539 -99.348457 0
-93.875725 145.479068 -100.789756 0
-89.857938 145.532064 -102.260617 0
-85.673850 145.534755 -103.815171 0
-81.450567 145.593468 -105.372062 0
-77.349191 145.831786 -106.831719 0
-109.169467 138.664705 -94.180310 0
-108.542733 141.490866 -93.482278 0
-107.936248 144.294168 -92.789628 0
-106.828457 146.612352 -92.435979 0
-101.744249 145.454937 -94.616076 0
-97.914344 145.490941 -95.972650 0
-93.985857 145.523424 -97.370845 0
-89.965226 145.561433 -98.805673 0
-85.830638 145.590922 -100.289616 0
-81.625342 145.650071 -101.795266 0
-77.245440 145.661569 -103.384651 0
-107.302723 136.916162 -92.133900 0
-106.686266 139.777564 -91.441152 0
-106.055337 142.583872 -90.775546 0
-105.442649 145.366794 -90.115803 0
-101.923881 145.585196 -91.264198 0
-98.039153 145.560827 -92.619597 0
-94.122654 145.590541 -93.974194 0
-90.097500 145.611843 -95.374224 0
-85.990123 145.650054 -96.802861 0
-81.770865 145.684759 -98.276933 0
-75.431239 144.183871 -100.969231 3
-104.788003 138.025628 -89.390986 0
-104.185871 140.883894 -88.719108 0
-103.570640 143.689508 -88.072164 0
-102.821614 146.340055 -87.521569 0
-98.091059 145.569067 -89.347154 0
-94.219973 145.625290 -90.638687 0
-90.225949 145.659783 -91.982950 0
-84.243444 144.187264 -94.456141 3
-79.959346 144.190046 -95.917966 3
-75.564487 144.195916 -97.421587 3
-71.034045 144.190268 -98.979997 3
-102.722611 136.119046 -87.404161 0
-102.303853 139.172479 -86.634889 0
-101.692252 142.006388 -85.997251 0
-101.119082 144.834487 -85.353049 0
-99.414410 146.660257 -85.376026 0
-94.316367 145.659767 -87.338925 0
-88.508950 144.201903 -89.671985 3
-84.328673 144.187948 -91.055556 3
-80.068571 144.197339 -92.463214 3
-75.661929 144.181514 -93.931174 3
-71.146945 144.174846 -95.437101 3
-100.367504 137.411748 -84.545946 0
-99.770226 140.284349 -83.911659 0
-99.202014 143.142117 -83.276386 0
-98.621704 145.950159 -82.663006 0
-92.612931 144.193722 -85.069513 3
-88.561543 144.188592 -86.362749 3
-84.428863 144.201280 -87.680976 3
-80.176642 144.204536 -89.044224 3
-75.824471 144.217895 -90.440912 3
-71.305799 144.194910 -91.905530 3
-66.721545 144.216230 -93.383369 3
-95.439343 139.844192 -82.171546 3
-94.890540 142.737001 -81.543379 3
-92.666187 144.192723 -81.829023 3
-88.627535 144.186769 -83.077980 3
-84.507287 144.197874 -84.351236 3
-80.279666 144.208560 -85.661672 3
-75.905006 144.192336 -87.028935 3
-71.469427 144.219588 -88.407354 3
-66.850545 144.201924 -89.859073 3
-92.937660 141.037893 -79.392562 3
-92.395034 143.921451 -78.787470 3
-88.709147 144.198238 -79.815987 3
-84.573227 144.185111 -81.059273 3
-80.363163 144.198030 -82.321387 3
-76.045827 144.213842 -83.618509 3
-71.558450 144.189247 -84.981032 3
-66.997396 144.201802 -86.359752 3
-62.281430 144.195119 -87.794076 3
-90.942661 139.302468 -77.225083 3
-90.421971 142.229891 -76.620963 3
-88.772703 144.195464 -76.593156 3
-84.674062 144.200880 -77.779840 3
-80.450836 144.191477 -79.009578 3
-76.141159 144.201282 -80.262740 3
-71.693487 144.194368 -81.563588 3
-67.148561 144.205896 -82.891458 3
-62.453101 144.200684 -84.270950 3
-88.398925 140.496052 -74.440054 3
-87.885293 143.415548 -73.857730 3
-84.746504 144.194510 -74.543751 3
-80.563905 144.205519 -75.715204 3
-76.254644 144.203434 -76.928317 3
-71.811361 144.187486 -78.185462 3
-67.295716 144.208049 -79.457009 3
-62.586614 144.179889 -80.798142 3
-57.793803 144.187925 -82.157210 3
-85.850883 141.697323 -71.653874 3
-84.835766 144.202172 -71.327592 3
-80.657802 144.205189 -72.458764 3
-76.346847 144.189996 -73.632868 3
-71.959316 144.204083 -74.823369 3
-67.435443 144.205698 -76.056549 3
-62.756414 144.186294 -77.339669 3
-57.971140 144.186142 -78.649968 3
-53.079346 144.208468 -79.986880 3
-83.795138 139.960935 -69.418576 3
-83.300108 142.908055 -68.864150 3
-80.756829 144.209518 -69.227468 3
-76.467930 144.199468 -70.352243 3
-72.081389 144.202043 -71.501925 3
-67.557031 144.190904 -72.693193 3
-62.914107 144.185005 -73.916737 3
-58.198952 144.221133 -75.152049 3
-53.230542 144.176100 -76.475040 3
-81.224864 141.180797 -66.607861 3
-80.750464 144.131693 -66.067672 3
-76.546230 144.176744 -67.117038 3
-72.194387 144.193959 -68.211753 3
-67.705740 144.196977 -69.346133 3
-63.065728 144.180323 -70.525154 3
-58.336159 144.193255 -71.722346 3
-53.453979 144.194838 -72.962824 3
-48.434307 144.200737 -74.239387 3
-79.141028 139.445790 -64.312450 3
-78.649334 142.408621 -63.792025 3
-76.707473 144.218488 -63.872900 3
-72.360287 144.226486 -64.926279 3
-67.829574 144.185558 -66.036371 3
-63.233942 144.188571 -67.154508 3
-58.528662 144.205488 -68.298072 3
-53.659840 144.202601 -69.487464 3
-48.628648 144.186628 -70.721041 3
-76.551512 140.687146 -61.471534 3
-76.080096 143.653789 -60.964872 3
-72.440406 144.195105 -61.700860 3
-67.966309 144.184468 -62.747120 3
-63.398537 144.195127 -63.812199 3
-58.700702 144.204268 -64.909369 3
-53.855997 144.204767 -66.044087 3
-48.862931 144.200786 -67.215905 3
-43.723387 144.198705 -68.423135 3
-73.917720 141.906789 -58.637680 3
-72.558211 144.192815 -58.484357 3
-68.148928 144.218059 -59.465676 3
-63.573856 144.210325 -60.491722 3
-58.911922 144.231762 -61.532476 3
-54.019092 144.185080 -62.639631 3
-49.060442 144.191187 -63.752169 3
-43.933366 144.183440 -64.906405 3
-71.759013 140.161430 -56.263359 3
-71.293331 143.147507 -55.787847 3
-68.267497 144.205095 -56.232238 3
-63.713272 144.200391 -57.208991 3
-59.016141 144.184387 -58.219296 3
-54.243436 144.208881 -59.238806 3
-49.313637 144.220509 -60.295276 3
-44.211473 144.214648 -61.392905 3
-38.949036 144.205230 -62.526464 3
-69.137167 141.428506 -53.379279 3
-68.404861 144.206737 -53.014665 3
-63.860497 144.196903 -53.946606 3
-59.204489 144.197502 -54.899921 3
-54.402035 144.188045 -55.885542 3
-49.483688 144.194438 -56.892445 3
-44.403290 144.189679 -57.935095 3
-39.199297 144.204424 -58.999971 3
-66.911868 139.655939 -50.947436 3
-66.479904 142.682595 -50.493016 3
-63.996762 144.186232 -50.710010 3
-59.367948 144.193820 -51.612061 3
-54.599147 144.194877 -52.542747 3
-49.706679 144.205366 -53.496049 3
-44.634814 144.192228 -54.488734 3
-39.468870 144.217423 -55.493134 3
-34.033979 144.172085 -56.562754 3
-64.220378 140.909416 -48.036433 3
-63.826831 143.954167 -47.589174 3
-59.530211 144.190095 -48.346385 3
-54.798401 144.204107 -49.222159 3
-49.881347 144.184390 -50.137925 3
-44.862071 144.193010 -51.067658 3
-39.714195 144.215799 -52.018666 3
-33.444885 143.623126 -53.282851 3
-61.574330 142.210773 -45.094251 3
-59.722494 144.208483 -45.092750 3
-54.990878 144.209490 -45.925488 3
-50.111945 144.202437 -46.785023 3
-45.103231 144.204098 -47.665496 3
-39.345011 143.814016 -48.741701 3
-59.225144 140.395450 -42.576965 3
-58.850900 143.470764 -42.156117 3
-55.166313 144.203826 -42.654327 3
-50.309685 144.198998 -43.463057 3
-44.981824 143.974060 -44.384097 3
-36.351215 141.696887 -46.177145 3
-56.515761 141.690684 -39.595890 3
-55.339651 144.197468 -39.403107 3
-50.316980 144.066383 -40.210650 3
-43.102748 142.569641 -41.566923 3
-54.142442 139.881460 -36.992765 3
-53.777267 142.980647 -36.600823 3
-49.058762 143.069587 -37.283326 3
-40.170665 126.199401 -37.565873 3
-51.712329 138.029746 -34.349064 3
-51.338613 141.150645 -33.972663 3
-53.449667 0.407440 -47.547545 9
-53.975734 7.124755 -46.700472 9
-53.034832 11.807901 -46.295685 9
-51.486666 15.642001 -46.073339 9
-49.276644 18.609604 -46.043294 9
-46.133080 20.437121 -46.276015 9
-40.344778 19.189983 -47.239663 9
-40.289146 122.525411 -34.583925 3
-49.574044 132.930682 -32.033188 3
-49.273514 136.169747 -31.651240 3
-150.005506 3.121088 -28.929593 7
-149.531333 9.717015 -28.370360 7
-110.378622 -2.786214 -35.462717 8
-111.041858 5.157268 -34.575023 8
-110.224103 10.317313 -34.178573 8
-108.579771 13.957390 -34.051832 8
-105.992404 15.985354 -34.220991 8
-101.369900 14.770011 -35.008057 8
-95.381694 11.558667 -36.190572 8
-63.627004 2.187929 -41.621487 9
-61.767662 5.737363 -41.506511 9
-60.624899 10.176031 -41.196323 9
-59.741740 14.860702 -40.821627 9
-57.496773 17.723964 -40.823347 9
-55.239269 20.546127 -40.828289 9
-52.607355 22.889935 -40.932282 9
-50.921070 26.357808 -40.785062 9
-47.748034 28.041277 -41.027314 9
-44.514955 29.679734 -41.279624 9
-38.969049 28.745102 -42.117316 9
-32.814903 27.267430 -43.092152 9
-26.338263 25.591379 -44.128394 9
-19.240226 23.416528 -45.298379 9
-11.372385 20.622746 -46.634706 9
-1.322956 15.812304 -48.477013 9
-40.446520 118.848901 -31.561083 3
-47.396899 127.703756 -29.640320 3
-47.055176 130.982377 -29.279784 3
-149.997408 -12.176717 -26.504472 7
-148.871332 -6.506455 -26.193277 7
-145.960053 -5.076479 -26.507468 7
-150.031888 11.668236 -24.468956 7
-149.545832 17.898190 -24.005688 7
-145.796093 17.079777 -24.628401 7
-141.941083 16.152455 -25.273178 7
-137.919646 15.005228 -25.958525 7
-133.740731 13.673828 -26.679952 7
-129.371891 12.112613 -27.446067 7
-124.565454 9.881986 -28.331081 7
-115.665635 0.415097 -30.438364 8
-116.056369 7.880081 -29.716770 8
-114.641756 11.965775 -29.549278 8
-113.426284 16.282850 -29.330055 8
-112.051383 20.222015 -29.164281 8
-110.121618 23.166222 -29.162958 8
-107.358736 24.737246 -29.399073 8
-102.794583 23.519690 -30.135414 8
-97.978099 22.043106 -30.927134 8
-93.395268 21.050074 -31.639294 8
-88.588982 19.848306 -32.398054 8
-83.567256 18.465389 -33.199655 8
-78.264072 16.823629 -34.060129 8
-72.518363 14.721816 -35.019814 8
-65.803955 11.485267 -36.212350 8
-61.556162 11.706967 -36.746323 9
-60.700077 16.379820 -36.405155 9
-58.181994 18.853451 -36.489776 9
-55.961425 21.685037 -36.497865 9
-53.844227 24.618365 -36.479499 9
-51.570097 27.337750 -36.499081 9
-49.522565 30.304041 -36.462195 9
-46.411086 32.024959 -36.680804 9
-43.142851 33.592211 -36.931333 9
-38.184286 33.326644 -37.574937 9
-32.707158 32.601998 -38.326362 9
-27.140634 31.903181 -39.082896 9
-21.409682 31.154918 -39.861388 9
-15.606426 30.458249 -40.640001 9
-9.640847 29.724670 -41.438774 9
-2.820766 28.282129 -42.411681 9
4.296020 26.712647 -43.430134 9
11.974650 24.779142 -44.550834 9
20.323141 22.408721 -45.794232 9
29.962336 19.070060 -47.290674 9
-40.700898 115.215610 -28.484970 3
-45.128450 122.305284 -27.176440 3
-44.797349 125.664157 -26.827224 3
-149.184952 -13.071585 -22.816524 7
-145.750811 -12.724093 -23.292034 7
-142.323449 -12.309101 -23.758124 7
-138.861613 -11.919858 -24.227722 7
-150.603665 20.947936 -20.058894 7
-147.544117 21.481978 -20.453446 7
-143.771928 20.608005 -21.053444 7
-139.997724 19.836747 -21.642730 7
-136.368938 19.449086 -22.178905 7
-132.667323 19.008415 -22.726174 7
-128.908177 18.549076 -23.279677 7
-125.086140 18.065167 -23.840550 7
-121.091244 17.366735 -24.438753 7
-117.709896 17.828367 -24.858212 8
-115.576520 20.448295 -24.933487 8
-113.720923 23.485404 -24.934734 8
-111.823822 26.396965 -24.948464 8
-109.627480 28.783059 -25.041410 8
-106.779535 30.130967 -25.301968 8
-102.957869 30.017431 -25.807135 8
-98.723858 29.368475 -26.407048 8
-94.285126 28.521698 -27.046612 8
-84.784098 20.567539 -28.929776 8
-85.297735 26.998429 -28.315406 8
-80.534199 26.027388 -28.996753 8
-75.052700 24.210538 -29.837540 8
-69.486928 22.434838 -30.681788 8
-60.105914 15.894798 -32.410674 9
-61.335393 23.097741 -31.622918 9
-59.693471 26.548599 -31.514680 9
-57.312902 29.053147 -31.576979 9
-54.816585 31.407992 -31.663179 9
-52.377205 33.824094 -31.733516 9
-49.923798 36.217452 -31.804097 9
-47.001870 38.079842 -31.975309 9
-43.385549 39.193999 -32.293756 9
-38.270150 38.735353 -32.930094 9
-32.973801 38.192814 -33.591692 9
-27.117972 37.181753 -34.358390 9
-21.202717 36.242682 -35.121349 9
-15.015871 35.164035 -35.924847 9
-8.605925 34.006059 -36.757432 9
-2.539221 33.322873 -37.501412 9
3.708058 32.598362 -38.265703 9
10.037503 31.930768 -39.029540 9
16.598090 31.186689 -39.822463 9
23.278150 30.475031 -40.621167 9
30.171171 29.717732 -41.443549 9
38.060940 28.252310 -42.441626 9
-41.050059 111.627293 -25.357510 3
-42.808489 116.759678 -24.627501 3
-42.534993 120.237741 -24.282483 3
-150.096953 -18.405312 -19.150376 7
-146.825399 -17.609304 -19.565760 7
-143.439037 -17.047902 -20.008641 7
-140.064799 -16.417324 -20.441572 7
-136.712349 -15.699742 -20.862021 7
-150.661539 21.852509 -16.473610 7
-149.085899 25.431313 -16.453803 7
-145.558420 24.949491 -16.966447 7
-142.005383 24.503852 -17.476779 7
-138.419848 24.080875 -17.986577 7
-134.751084 23.585701 -18.508983 7
-131.027315 23.077715 -19.036129 7
-127.233690 22.533514 -19.571508 7
-123.269855 21.781230 -20.140083 7
-119.271806 21.071535 -20.706607 7
-117.161127 23.643678 -20.795360 8
-115.071761 26.210455 -20.878243 8
-113.003109 28.771584 -20.955389 8
-110.957032 31.330696 -21.026336 8
-108.425032 33.101611 -21.211858 8
-105.208838 33.833439 -21.554963 8
-101.201383 33.432538 -22.075734 8
-97.040578 32.897247 -22.621723 8
-92.875163 32.450234 -23.158063 8
-88.659671 32.025601 -23.695130 8
-84.278198 31.466422 -24.258676 8
-79.851730 30.945724 -24.820921 8
-75.322330 30.388200 -25.394435 8
-70.687613 29.796057 -25.979223 8
-65.865721 29.071225 -26.592419 8
-60.861104 28.230287 -27.232074 9
-59.966282 32.491151 -26.988209 9
-57.393186 34.674723 -27.099288 9
-54.772843 36.803334 -27.216371 9
-52.163177 38.947348 -27.327182 9
-49.485160 41.018175 -27.447850 9
-46.528440 42.789502 -27.620505 9
-42.825090 43.774508 -27.937442 9
-37.887655 43.503614 -28.491535 9
-32.550425 42.917572 -29.111864 9
-27.025926 42.254578 -29.754897 9
-21.454126 41.662979 -30.392653 9
-15.579689 40.892682 -31.073967 9
-9.560540 40.110084 -31.767349 9
-3.329947 39.257614 -32.484735 9
2.948101 38.495783 -33.194515 9
9.317864 37.784268 -33.904734 9
16.327089 36.637868 -34.715577 9
23.181366 35.780180 -35.479459 9
30.431305 34.729176 -36.296520 9
37.969349 33.592111 -37.145715 9
-40.715755 107.459449 -22.316851 3
-40.375158 111.013319 -21.998950 3
-40.080646 114.555385 -21.674450 3
-7.303522 93.355748 -26.905134 3
-150.650408 -24.788016 -15.493030 7
-148.128981 -22.076320 -15.700566 7
-144.614936 -21.768987 -16.169045 7
-141.154965 -21.282984 -16.616345 7
-137.655339 -20.838871 -17.067121 7
-134.167240 -20.320167 -17.508067 7
-130.669902 -19.774367 -17.944545 7
-150.009715 28.079571 -12.713149 7
-146.645047 27.853887 -13.167307 7
-143.222914 27.588465 -13.627587 7
-139.738586 27.279168 -14.094776 7
-136.194395 26.935659 -14.567952 7
-132.573974 26.532455 -15.050615 7
-128.952643 26.211366 -15.524826 7
-125.211763 25.760731 -16.017962 7
-121.480692 25.413934 -16.499859 7
-118.057184 25.667730 -16.903631 8
-116.028450 28.275968 -16.988978 8
-113.900222 30.682543 -17.095053 8
-111.856540 33.190804 -17.180831 8
-109.504281 35.187595 -17.331867 8
-106.580171 36.306811 -17.602611 8
-102.859074 36.269747 -18.037354 8
-98.896490 35.954768 -18.514385 8
-94.901876 35.678962 -18.988660 8
-90.760267 35.282437 -19.483828 8
-86.595382 34.944028 -19.973795 8
-82.404593 34.659569 -20.459039 8
-78.105546 34.320652 -20.956049 8
-73.712252 33.951347 -21.461510 8
-69.161747 33.476994 -21.987419 8
-64.502000 32.966071 -22.523624 8
-61.163936 34.158499 -22.792060 9
-59.327575 37.172701 -22.764986 9
-56.650877 39.174615 -22.896336 9
-53.997532 41.210297 -23.018634 9
-51.337903 43.245627 -23.137488 9
-48.518032 45.112317 -23.281382 9
-45.318584 46.584446 -23.489829 9
-41.239651 47.156769 -23.852114 9
-31.164375 41.570130 -25.288981 9
-31.058882 46.439450 -24.911039 9
-25.732067 46.000384 -25.463691 9
-20.280543 45.549131 -26.025080 9
-14.826726 45.208128 -26.573303 9
-9.139715 44.757524 -27.148336 9
-3.254781 44.240419 -27.743100 9
2.888707 43.610074 -28.367042 9
9.145190 43.007206 -28.994506 9
15.583257 42.375338 -29.636478 9
22.155948 41.761444 -30.284408 9
28.950497 41.096561 -30.952044 9
-38.195941 101.441082 -19.578406 3
-37.915271 105.128499 -19.268884 3
-37.608097 108.743274 -18.964575 3
-12.835813 93.325823 -22.533527 3
-7.680173 93.530469 -22.956255 3
-1.694423 93.211299 -23.494971 3
-150.027035 -25.189993 -11.621668 7
-146.488330 -24.936891 -12.087782 7
-142.966797 -24.586265 -12.542872 7
-139.388207 -24.312835 -13.004315 7
-135.830254 -23.935827 -13.453925 7
-132.222845 -23.612803 -13.907781 7
-126.955706 -26.743686 -14.726470 7
-150.519809 29.858869 -9.135869 7
-147.184278 29.639588 -9.566821 7
-143.824541 29.445212 -9.995738 7
-140.416294 29.229463 -10.427764 7
-136.995112 29.062788 -10.855080 7
-133.519655 28.868182 -11.286391 7
-129.992159 28.653723 -11.720962 7
-126.413859 28.425123 -12.158287 7
-122.770749 28.161542 -12.601001 7
-119.076381 27.890317 -13.046041 7
-116.702239 29.868431 -13.217241 8
-114.583184 32.241761 -13.334287 8
-112.466359 34.587906 -13.448439 8
-110.232344 36.724823 -13.582994 8
-107.477987 38.057013 -13.815468 8
-103.972161 38.292599 -14.187538 8
-100.100204 38.058180 -14.621896 8
-96.215431 37.886081 -15.049976 8
-92.259053 37.693292 -15.482762 8
-88.148612 37.371130 -15.935248 8
-84.086364 37.200274 -16.369505 8
-79.903969 36.953943 -16.816513 8
-75.641520 36.690783 -17.268485 8
-71.313778 36.433189 -17.722432 8
-66.897032 36.154438 -18.182301 8
-61.142932 34.346638 -18.867731 9
-58.021917 35.817761 -19.078906 9
-58.138332 41.087229 -18.723005 9
-55.407515 42.985121 -18.859510 9
-52.717595 44.939992 -18.983882 9
-47.094580 43.680017 -19.598382 9
-46.949648 48.461406 -19.282244 9
-43.389490 49.534884 -19.535036 9
-38.926377 49.717576 -19.928676 9
-33.956573 49.465813 -20.394665 9
-28.829999 49.156957 -20.874277 9
-23.615720 48.865602 -21.355787 9
-18.296531 48.578057 -21.841571 9
-7.513696 43.245319 -23.175501 9
-7.196862 47.893618 -22.847122 9
-1.437557 47.528259 -23.362345 9
4.446099 47.168030 -23.882756 9
-11.563698 66.037099 -21.058847 4
-11.893598 70.863606 -20.643556 1
-35.606770 95.239661 -16.736810 3
-35.359875 99.044704 -16.442732 3
-35.072048 102.761587 -16.155126 3
-18.196441 93.292745 -18.279866 3
-13.172515 93.487950 -18.653161 3
-8.065423 93.712304 -19.025992 3
-2.539498 93.717833 -19.445475 3
-148.854523 -26.942671 -7.859541 7
-145.271190 -26.764304 -8.321058 7
-141.626594 -26.667695 -8.788242 7
-138.037315 -26.379137 -9.237051 7
-134.387156 -26.168510 -9.691246 7
-130.716661 -25.940181 -10.142413 7
-127.031336 -25.681609 -10.589378 7
-150.640229 30.825789 -5.683520 7
-147.437030 30.839684 -6.070997 7
-144.121309 30.693764 -6.473691 7
-140.776931 30.561888 -6.875065 7
-137.392700 30.424228 -7.277120 7
-133.994309 30.330353 -7.674878 7
-130.567090 30.253221 -8.071021 7
-127.057934 30.100845 -8.475214 7
-123.498901 29.935213 -8.881241 7
-119.896780 29.770789 -9.287668 7
-117.231697 31.217825 -9.518399 8
-114.972201 33.322999 -9.672264 8
-112.852830 35.628685 -9.797884 8
-110.638121 37.760454 -9.937033 8
-108.008520 39.247573 -10.144705 8
-104.701996 39.743012 -10.464179 8
-100.954385 39.649500 -10.852273 8
-97.135266 39.528648 -11.244539 8
-93.228987 39.362744 -11.643316 8
-89.259353 39.189367 -12.044286 8
-85.284365 39.088970 -12.437613 8
-81.190856 38.911706 -12.841827 8
-77.047513 38.752845 -13.245290 8
-72.837073 38.592303 -13.650588 8
-68.452533 38.300883 -14.074564 8
-64.085164 38.120480 -14.486201 8
-61.124859 39.697510 -14.666965 9
-59.218306 42.522489 -14.677428 9
-56.475348 44.366679 -14.814021 9
-53.744808 46.237287 -14.943244 9
-50.981952 48.084813 -15.071908 9
-48.182785 49.907437 -15.200445 9
-44.862193 51.194766 -15.401254 9
-40.749749 51.697956 -15.712441 9
-35.888885 51.507637 -16.124606 9
-30.963676 51.349017 -16.535143 9
-25.938776 51.189220 -16.948904 9
-20.765045 50.984708 -17.372538 9
-15.481900 50.778916 -17.799864 9
-10.084083 50.570946 -18.231192 9
-4.547677 50.343236 -18.669407 9
1.066313 50.155356 -19.105519 9
-16.495204 70.310313 -16.348236 1
-16.910788 75.115691 -15.966426 1
-32.646580 92.702302 -13.521179 3
-29.359577 94.040637 -13.655540 3
-23.388685 93.252227 -14.137461 3
-18.507195 93.451923 -14.462291 3
-13.518576 93.657807 -14.789411 3
-8.467021 93.907136 -15.112693 3
-6.903279 96.851936 -14.979161 3
-1.342810 96.860023 -15.346596 3
104.440483 25.102796 -28.234912 5
-150.691255 -30.280143 -3.707984 7
-147.919674 -28.100857 -4.015111 7
-144.334236 -27.911022 -4.462883 7
-140.681734 -27.816671 -4.915875 7
-137.007088 -27.706412 -5.365936 7
-133.300451 -27.600933 -5.814694 7
-129.572287 -27.475040 -6.260214 7
-125.811343 -27.351614 -6.704342 7
-150.566393 31.388152 -2.291440 7
-147.371300 31.394638 -2.662225 7
-144.111541 31.335449 -3.037746 7
-140.839712 31.317701 -3.409013 7
-137.510630 31.256135 -3.783437 7
-134.134797 31.174910 -4.159085 7
-130.745838 31.137500 -4.530314 7
-127.297265 31.061869 -4.904578 7
-123.800399 30.971962 -5.279843 7
-120.285129 30.920858 -5.651176 7
-117.567386 32.244593 -5.889685 8
-115.223224 34.178832 -6.064586 8
-113.062881 36.388651 -6.206669 8
-110.927107 38.612851 -6.341119 8
-108.245428 39.991987 -6.555415 8
-105.133936 40.749421 -6.829989 8
-101.427462 40.685249 -7.188288 8
-97.637824 40.575545 -7.551570 8
-93.795878 40.468223 -7.914948 8
-89.900241 40.363690 -8.278433 8
-85.981705 40.305331 -8.637312 8
-81.929735 40.148400 -9.007558 8
-77.842299 40.026819 -9.374570 8
-73.724438 39.947534 -9.737483 8
-69.540975 39.867413 -10.101169 8
-65.321605 39.825131 -10.461196 8
-60.203088 38.797363 -10.938159 9
-60.003033 43.611996 -10.721742 9
-57.234085 45.393477 -10.858917 9
-54.473463 47.198599 -10.989197 9
-51.772124 49.083184 -11.105662 9
-48.957543 50.858028 -11.231653 9
-45.750826 52.235696 -11.403932 9
-41.914509 52.993727 -11.652568 9
-37.395897 53.115356 -11.982366 9
-32.539976 52.983467 -12.346190 9
-27.649387 52.912015 -12.703865 9
-22.493042 52.679060 -13.084773 9
-17.344093 52.554855 -13.453369 9
-12.087490 52.430683 -13.824079 9
-6.757791 52.341761 -14.192189 9
-19.942198 68.834748 -12.262265 1
-19.806994 73.170490 -11.991014 1
-19.482875 77.275288 -11.742039 1
-29.635585 90.121147 -10.232763 3
-28.459596 93.236178 -10.094527 3
-23.695980 93.425639 -10.376555 3
-18.795697 93.593842 -10.663562 3
-13.830635 93.801688 -10.946704 3
-12.350558 96.755231 -10.818634 3
-6.864549 96.701875 -11.141574 3
-5.543852 99.802432 -10.983245 2
-5.205992 103.589949 -10.711821 2
-0.566545 104.306821 -10.912989 2
131.050116 17.598219 -24.955872 6
140.487361 17.003450 -25.509914 6
-150.680624 -29.118006 0.312256 7
-147.296232 -28.490049 -0.098006 7
-143.679231 -28.379328 -0.536898 7
-139.983954 -28.385764 -0.980989 7
-136.256186 -28.394662 -1.423320 7
-132.534362 -28.318785 -1.858146 7
-128.760655 -28.286382 -2.293893 7
-124.935331 -28.291443 -2.730371 7
-150.289186 31.530649 1.055064 7
-147.113358 31.561994 0.702777 7
-143.892533 31.564887 0.349815 7
-140.615443 31.521720 -0.005287 7
-137.323697 31.515205 -0.356486 7
-133.990076 31.495274 -0.707540 7
-130.675192 31.572924 -1.049850 7
-127.257386 31.531581 -1.400324 7
-123.797030 31.483996 -1.750343 7
-120.302745 31.447074 -2.098585 7
-117.584357 32.746274 -2.334495 8
-115.197991 34.589203 -2.520139 8
-113.086838 36.854103 -2.663981 8
-110.939713 39.037982 -2.808348 8
-108.405691 40.618590 -2.999805 8
-105.202149 41.216808 -3.274692 8
-101.560029 41.226341 -3.600943 8
-97.848945 41.207152 -3.929177 8
-94.049369 41.136151 -4.261705 8
-90.227568 41.108810 -4.589724 8
-86.351643 41.082479 -4.917210 8
-82.370273 40.992485 -5.250490 8
-78.370494 40.956515 -5.578264 8
-74.306115 40.915993 -5.906219 8
-70.146396 40.835900 -6.237952 8
-65.937640 40.777120 -6.567442 8
-61.137510 40.098362 -6.960946 9
-60.536035 44.407104 -6.834296 9
-57.763686 46.157420 -6.967664 9
-54.975956 47.905542 -7.096897 9
-52.262583 49.751322 -7.211244 9
-49.484726 51.540929 -7.327249 9
-46.451679 53.077199 -7.467012 9
-42.733040 53.929493 -7.679754 9
-38.272751 54.080993 -7.969971 9
-33.503927 54.005865 -8.286044 9
-28.651510 53.940293 -8.601547 9
-23.695763 53.868214 -8.918389 9
-18.680753 53.835066 -9.231291 9
-14.880546 55.020625 -9.399276 4
-15.059338 59.867620 -9.123079 4
-19.620424 68.529340 -8.370355 1
-17.473749 71.101806 -8.346757 1
-12.321534 71.097585 -8.638128 1
-17.288180 79.693425 -7.849418 1
-26.356534 91.439796 -6.639962 3
-23.867492 93.489596 -6.645053 3
-19.085368 93.737024 -6.879356 3
-14.967258 94.586975 -7.035334 3
-12.572798 96.815784 -7.008227 3
-10.263974 99.121430 -6.966399 2
-10.371624 103.208183 -6.680131 2
-6.367212 104.283078 -6.794107 2
-0.066177 103.802231 -7.120317 2
0.057375 107.706932 -6.841663 2
132.352429 22.245346 -19.057350 6
141.403599 21.961004 -19.472605 6
-150.661583 -27.985493 4.302521 7
-146.993192 -28.095937 3.865962 7
-141.970674 -31.345468 3.272717 7
-139.566583 -28.303152 3.000213 7
-135.855036 -28.290741 2.576779 7
-132.076688 -28.354933 2.151593 7
-128.310801 -28.317853 1.734231 7
-124.478294 -28.349923 1.315323 7
-149.755769 31.148823 4.366219 7
-146.594988 31.208774 4.031293 7
-143.404438 31.268612 3.698294 7
-140.177334 31.317340 3.366503 7
-136.926217 31.380968 3.037491 7
-133.622024 31.407567 2.707933 7
-130.297720 31.460199 2.381800 7
-126.897071 31.441262 2.052629 7
-123.506444 31.504510 1.730593 7
-120.030059 31.487075 1.404678 7
-117.384021 32.891249 1.180372 8
-115.079348 34.848645 1.000513 8
-112.972304 37.101060 0.848210 8
-110.788599 39.210592 0.692049 8
-108.225016 40.731168 0.497945 8
-105.035995 41.337832 0.238982 8
-101.464855 41.437411 -0.056555 8
-97.782540 41.444785 -0.357841 8
-94.028803 41.422672 -0.660221 8
-90.248573 41.436107 -0.958559 8
-86.370843 41.390855 -1.260496 8
-82.536390 41.476449 -1.550488 8
-78.540875 41.426247 -1.850605 8
-74.503327 41.399916 -2.147688 8
-70.370573 41.333206 -2.447247 8
-66.188934 41.286981 -2.744106 8
-61.515548 40.738251 -3.084672 9
-60.718790 44.793984 -3.011373 9
-57.928429 46.504333 -3.141629 9
-55.208722 48.309872 -3.258400 9
-52.466946 50.104709 -3.371289 9
-49.750840 51.942008 -3.475359 9
-46.741626 53.483865 -3.602766 9
-43.158506 54.457114 -3.780888 9
-38.803938 54.694438 -4.027957 9
-34.099735 54.660340 -4.300554 9
-29.299713 54.621600 -4.572968 9
-24.441333 54.617827 -4.841243 9
-19.444827 54.575323 -5.112808 9
-16.878650 56.875212 -5.142512 4
-21.845215 66.018579 -4.454334 4
-21.456327 70.144803 -4.273615 1
-17.572440 71.156676 -4.414382 1
-12.302006 71.036876 -4.673913 1
-11.727899 74.965348 -4.494579 1
-23.204456 88.777603 -3.225014 3
-23.010575 92.722123 -3.015922 3
-19.129102 93.685473 -3.130627 3
-16.444698 95.638307 -3.131567 3
-12.767758 96.855860 -3.211650 3
-11.574841 99.982355 -3.069949 2
-11.334770 103.785518 -2.843105 2
-3.883603 102.358289 -3.218977 2
-4.193987 106.557164 -2.934623 2
-2.328085 109.191901 -2.827288 2
2.033217 110.139299 -2.916709 2
136.448480 24.975917 -13.423445 6
145.349866 24.876813 -13.726769 6
-150.676661 -26.775873 8.268694 7
-147.007678 -26.933239 7.849226 7
-143.303122 -27.098032 7.432061 7
-139.570572 -27.249840 7.017954 7
-135.831911 -27.338090 6.609001 7
-132.035683 -27.477884 6.200528 7
-128.164807 -27.699621 5.790993 7
-150.642351 27.138211 7.848560 7
-148.960533 30.235510 7.661845 7
-145.832829 30.372159 7.345189 7
-142.692487 30.538508 7.032536 7
-139.465011 30.592864 6.716951 7
-136.235519 30.702679 6.406497 7
-132.949105 30.766494 6.096089 7
-129.671334 30.905698 5.791970 7
-126.311582 30.959887 5.485701 7
-122.922793 31.026482 5.182350 7
-119.487400 31.077471 4.880360 7
-116.984372 32.710817 4.671471 8
-114.788536 34.832384 4.496845 8
-112.681413 37.071513 4.335923 8
-110.543220 39.238231 4.177487 8
-107.888813 40.610050 3.976559 8
-104.706268 41.218031 3.732464 8
-101.112505 41.277481 3.456485 8
-97.464859 41.327062 3.181886 8
-93.726225 41.318239 2.905417 8
-89.964691 41.349028 2.633464 8
-83.717039 38.144434 2.142813 8
-82.255554 41.376521 2.092981 8
-78.313518 41.386358 1.825289 8
-74.287639 41.365020 1.557239 8
