ply
format ascii 1.0
element vertex 1435
property float x
property float y
property float z
property int scalar_Label
end_header
87.495425 39.814338 5.307101 5
92.675905 38.238627 11.377584 5
95.969363 36.519046 15.234730 5
98.404695 34.746851 18.085120 5
100.568474 32.992469 20.616668 5
102.367260 31.224647 22.719760 5
103.843056 29.435757 24.443630 5
105.204908 27.659321 26.033466 5
106.294741 25.850918 27.303818 5
107.179682 24.015463 28.333399 5
108.066075 22.200506 29.364272 5
108.943370 20.402738 30.384062 5
109.561356 18.544393 31.099176 5
110.071738 16.662235 31.687581 5
110.534079 14.771119 32.219153 5
110.941149 12.865891 32.685395 5
111.209699 10.912775 32.988578 5
111.477246 8.957944 33.290086 5
111.729854 6.995348 33.573553 5
111.893174 4.992809 33.751683 5
111.975048 2.949032 33.833652 5
112.057253 0.896422 33.915453 5
112.051884 -1.206437 33.893847 5
112.020589 -3.334578 33.841202 5
111.884231 -5.529251 33.664539 5
111.649553 -7.792715 33.371732 5
111.399245 -10.086488 33.059881 5
111.063848 -12.450076 32.647349 5
110.583196 -14.922433 32.063378 5
109.981532 -17.497535 31.336383 5
109.059443 -20.301841 30.231878 5
107.707446 -23.420216 28.620973 5
96.501486 -32.847810 15.422405 5
102.477540 -31.497990 22.425235 5
84.616305 39.702865 6.032607 5
89.669141 38.087116 11.824961 5
92.903282 36.336075 15.531742 5
95.495259 34.567817 18.502042 5
97.561540 32.775050 20.869402 5
99.423104 30.997947 23.001887 5
100.925668 29.194202 24.722568 5
102.386306 27.419993 26.395047 5
103.525023 25.605012 27.698225 5
104.912232 23.882023 29.286249 5
105.990670 22.109505 30.520047 5
106.889459 20.310520 31.547685 5
107.577835 18.467277 32.333869 5
108.196055 16.614657 33.039449 5
108.712308 14.738487 33.627936 5
109.135364 12.836813 34.109378 5
109.523046 10.926108 34.550092 5
109.796655 8.974388 34.859803 5
110.067071 7.019915 35.165687 5
110.235219 5.021301 35.354094 5
110.344718 2.991975 35.475048 5
110.399146 0.930301 35.532645 5
110.391217 -1.170159 35.518520 5
110.346957 -3.300503 35.462520 5
110.212393 -5.489551 35.302714 5
109.949626 -7.761491 34.995608 5
109.682271 -10.058339 34.683011 5
109.298372 -12.441517 34.236460 5
108.730064 -14.955298 33.578058 5
107.919283 -17.642959 32.641144 5
106.848779 -20.527712 31.405881 5
98.632035 -27.810288 21.969089 5
101.903634 -28.210768 25.716095 5
94.286959 -35.510806 16.966385 5
65.631686 40.174599 -11.257119 9
81.662003 39.584898 6.718769 5
86.334977 37.894293 11.960047 5
89.780032 36.148956 15.824608 5
92.416262 34.364946 18.782387 5
94.538085 32.560060 21.163511 5
96.382149 30.757919 23.233325 5
97.924228 28.940963 24.964676 5
99.376446 27.143496 26.595400 5
100.693313 25.350364 28.074496 5
102.079139 23.607486 29.631027 5
103.324681 21.861171 31.030402 5
104.367630 20.087155 32.202770 5
105.253181 18.289669 33.198811 5
105.965738 16.456443 34.001051 5
106.554181 14.595513 34.664295 5
107.060451 12.715423 35.235569 5
107.497062 10.816611 35.728907 5
107.847503 8.889334 36.125808 5
108.081004 6.917218 36.391789 5
108.291777 4.932801 36.632462 5
108.427017 2.912313 36.788647 5
108.476960 0.847518 36.849407 5
108.458069 -1.258574 36.833205 5
108.386028 -3.402335 36.757630 5
108.233631 -5.600009 36.592201 5
107.944577 -7.884215 36.273840 5
107.542982 -10.249637 35.829591 5
107.032360 -12.700490 35.263410 5
106.285907 -15.312548 34.433235 5
105.256652 -18.124777 33.286478 5
103.596670 -21.354935 31.433372 5
100.223512 -25.684765 27.661302 5
96.916352 -30.104860 23.963750 5
61.013413 42.510397 -11.957687 9
67.607921 40.623292 -4.722477 9
78.391383 39.431416 7.106084 5
83.193268 37.732449 12.376109 5
86.586627 35.955962 16.102047 5
89.288791 34.159158 19.070472 5
91.473320 32.343046 21.471717 5
93.290357 30.514055 23.470426 5
94.899921 28.689315 25.242051 5
96.326885 26.865095 26.813873 5
97.684194 25.059998 28.309712 5
99.107238 23.304873 29.877967 5
100.399177 21.549870 31.302874 5
101.437270 19.754422 32.449931 5
102.357279 17.947283 33.467962 5
103.210264 16.138833 34.412934 5
103.909663 14.297580 35.190009 5
104.542570 12.446067 35.894648 5
105.007114 10.544715 36.415255 5
105.406462 8.623892 36.864893 5
105.715770 6.670686 37.216366 5
105.930566 4.678824 37.464802 5
106.088242 2.659173 37.651184 5
106.163183 0.597606 37.747484 5
106.098667 -1.535560 37.691626 5
105.978892 -3.708272 37.575848 5
105.759168 -5.945050 37.351253 5
105.377326 -8.281926 36.949838 5
104.839072 -10.724276 36.377918 5
104.102701 -13.302203 35.589931 5
103.008665 -16.112589 34.411390 5
101.486083 -19.213225 32.764915 5
98.981648 -22.944385 30.045431 5
95.743905 -27.208471 26.525265 5
90.614756 -32.747958 20.938261 5
-116.591702 143.415986 -197.814296 0
-116.679365 138.263396 -197.940473 0
48.391330 44.295441 -21.128125 9
63.110137 42.908091 -5.337738 9
59.784824 40.023040 -8.896644 9
75.182553 39.289198 7.622172 5
80.038023 37.572844 12.836695 5
83.468839 35.779032 16.524133 5
86.107517 33.949771 19.362800 5
88.273696 32.107600 21.695470 5
90.144380 30.265943 23.711951 5
91.838476 28.436356 25.539735 5
93.228392 26.582929 27.042087 5
94.641250 24.769019 28.569649 5
96.113362 23.004430 30.161309 5
97.368709 21.218785 31.521268 5
98.421307 19.406316 32.664594 5
99.359469 17.583763 33.685953 5
100.148808 15.735277 34.548537 5
100.887240 13.885566 35.357267 5
101.501050 12.007262 36.033216 5
102.030999 10.108864 36.620075 5
102.466914 8.182586 37.106987 5
102.790418 6.216863 37.474322 5
103.055222 4.227579 37.779623 5
103.179807 2.178130 37.935684 5
103.199353 0.076750 37.980224 5
103.140456 -2.070045 37.941762 5
102.924477 -4.302325 37.736236 5
102.601016 -6.604402 37.416797 5
102.085484 -9.023175 36.893076 5
101.404209 -11.554973 36.193359 5
100.478631 -14.249146 35.233808 5
99.188166 -17.182661 33.885755 5
97.403666 -20.445089 32.011502 5
93.969200 -24.717668 28.376718 5
90.831931 -28.944396 25.062074 5
-94.698312 142.127365 -166.285360 0
-94.812905 137.344496 -166.449469 0
-114.127220 136.747045 -186.732661 0
58.677073 45.265509 -5.776196 9
63.258609 43.119676 -0.962887 9
67.125836 41.024392 3.102218 9
72.221945 39.180020 8.456900 5
76.824364 37.409511 13.294544 5
80.159346 35.578429 16.803862 5
82.868826 33.736412 19.658099 5
85.065864 31.876633 21.975879 5
86.958691 30.016566 23.975577 5
88.606682 28.155158 25.719476 5
90.056815 26.291988 27.256860 5
91.542236 24.472402 28.832083 5
93.061052 22.697223 30.443123 5
94.283574 20.881856 31.744545 5
95.342805 19.049861 32.875771 5
96.262820 17.200905 33.862072 5
97.078657 15.339335 34.740190 5
97.806861 13.465612 35.527491 5
98.424238 11.567909 36.199734 5
98.928934 9.640423 36.755031 5
99.332390 7.682019 37.205421 5
99.644832 5.691731 37.561664 5
99.838773 3.654389 37.795072 5
99.974729 1.588921 37.969014 5
99.953625 -0.549458 37.979955 5
99.823888 -2.747126 37.878643 5
99.598491 -5.003633 37.678731 5
99.162731 -7.377437 37.260476 5
98.585859 -9.845351 36.696407 5
97.755143 -12.470647 35.868951 5
96.666917 -15.267699 34.774541 5
95.210532 -18.307880 33.297970 5
93.132856 -21.747323 31.175529 5
89.280773 -26.262963 27.205138 5
85.055897 -31.132880 22.850111 5
-75.571346 145.480772 -138.730795 0
-75.729162 141.013499 -138.951010 0
-75.895888 136.558241 -139.177176 0
-96.311581 136.746625 -160.147845 0
-119.016348 136.864960 -183.467422 0
-141.410780 136.296420 -206.472107 0
53.865702 47.663177 -6.498495 9
58.881570 45.448700 -1.344384 9
62.881831 43.279325 2.769209 9
66.089899 41.135822 6.071496 9
68.752033 39.013946 8.815108 5
73.533030 37.240126 13.732847 5
76.792619 35.374574 17.091287 5
79.531983 33.512833 19.917287 5
81.788813 31.639525 22.249579 5
83.627172 29.746239 24.153940 5
85.363410 27.878738 25.954716 5
86.796018 25.989226 27.445404 5
88.375310 24.167754 29.087506 5
89.932633 22.379319 30.708139 5
91.137677 20.537848 31.968944 5
92.164193 18.675295 33.048022 5
93.124975 16.816012 34.060941 5
93.957535 14.938193 34.943754 5
94.641241 13.029582 35.675413 5
95.246379 11.106573 36.327928 5
95.717192 9.146333 36.844305 5
96.144604 7.175220 37.317637 5
96.446539 5.160452 37.664034 5
96.591541 3.083998 37.851446 5
96.673013 0.976065 37.975468 5
96.609624 -1.200446 37.953074 5
96.444595 -3.433788 37.828561 5
96.133671 -5.748746 37.556858 5
95.626305 -8.175726 37.086543 5
94.955763 -10.708351 36.451791 5
94.029575 -13.400154 35.558493 5
92.753634 -16.311265 34.311018 5
91.015696 -19.517258 32.595405 5
87.926980 -23.518544 29.506668 5
84.358102 -27.897624 25.933264 5
77.006961 -34.558086 18.514033 5
-58.908637 144.213380 -114.723785 0
-59.036614 140.015197 -114.921842 0
-60.129415 136.072492 -116.082527 0
-80.589464 136.762465 -136.639984 0
-101.086608 136.902977 -157.238985 0
-123.872547 136.972056 -180.135202 0
-145.980043 136.287240 -202.355222 0
54.481828 47.838452 -1.646721 9
58.634485 45.593937 2.530105 9
62.119524 43.401288 6.038744 9
65.074448 41.246951 9.017150 9
67.514585 39.110709 11.480729 9
70.029450 37.047539 14.020783 5
73.427149 35.176040 17.447591 5
76.163852 33.289979 20.212763 5
78.477030 31.402475 22.554537 5
80.324028 29.487958 24.430259 5
82.062386 27.597847 26.198425 5
83.456565 25.677416 27.623009 5
85.165179 23.861061 29.364008 5
86.686906 22.041328 30.919031 5
87.906333 20.180871 32.172562 5
88.989307 18.311239 33.290816 5
89.925962 16.423661 34.263982 5
90.753845 14.522823 35.129722 5
91.423843 12.588597 35.838959 5
92.020021 10.641270 36.475896 5
92.483163 8.657311 36.981374 5
92.897147 6.660325 37.439357 5
93.127962 4.598581 37.715968 5
93.267461 2.498889 37.903152 5
93.321016 0.359014 38.006379 5
93.197353 -1.862757 37.934631 5
92.978861 -4.139567 37.770348 5
92.555636 -6.524533 37.404024 5
92.022984 -8.983865 36.930974 5
91.215879 -11.600683 36.186872 5
90.137983 -14.386186 35.175764 5
88.630769 -17.432713 33.740172 5
86.587658 -20.815609 31.774649 5
82.608078 -25.304232 27.886354 5
78.770791 -29.853150 24.145729 5
67.285357 -38.835477 12.808212 9
-51.927410 141.258432 -101.161816 3
-59.560539 139.197049 -108.712957 3
-66.303297 136.713867 -115.391991 0
-84.569023 136.791217 -133.355907 0
-105.060956 136.875456 -153.504706 0
-127.988379 136.920090 -176.044150 0
54.081998 47.948320 2.087755 9
57.674189 45.683220 5.624846 9
60.864036 43.477505 8.769072 9
63.545905 41.303953 11.416774 9
65.901118 39.162473 13.745864 9
67.979443 37.045921 15.805175 9
70.003072 34.974241 17.812638 5
72.773912 33.069379 20.554534 5
75.072048 31.155702 22.834413 5
76.984046 29.229502 24.737273 5
78.694507 27.310961 26.444167 5
80.231413 25.397463 27.982570 5
81.923186 23.555049 29.674275 5
83.432400 21.709836 31.188644 5
84.618176 19.818704 32.387807 5
85.726666 17.933222 33.512931 5
86.635613 16.015848 34.444397 5
87.432239 14.083532 35.267681 5
88.143758 12.139646 36.009481 5
88.709297 10.160799 36.610343 5
89.178320 8.157095 37.118747 5
89.520090 6.113394 37.504757 5
89.733380 4.023494 37.767311 5
89.851673 1.894177 37.939254 5
89.839631 -0.292879 37.986223 5
89.695195 -2.544554 37.906386 5
89.402069 -4.873904 37.684047 5
88.926766 -7.302484 37.286794 5
88.260804 -9.842637 36.706653 5
87.303060 -12.550363 35.845468 5
86.067079 -15.432770 34.716913 5
84.386560 -18.585255 33.159699 5
81.740279 -22.294157 30.667812 5
77.720850 -26.817820 26.847022 5
72.033548 -32.379112 21.413523 5
66.123413 -38.254315 15.773079 9
54.767585 -47.434775 4.859765 9
-38.423236 140.435564 -81.722567 3
-47.935423 139.195027 -90.912985 3
-63.149804 139.199131 -105.562150 3
-69.947091 136.710988 -112.157130 0
-88.434115 136.791007 -129.945574 0
-109.133889 136.868905 -149.858154 0
-131.764226 136.797405 -171.625258 0
53.251435 48.030089 5.337164 9
56.635003 45.764920 8.598269 9
59.473709 43.540593 11.338713 9
62.056085 41.363834 13.835372 9
64.183769 39.201656 15.897909 9
66.163835 37.074416 17.820965 9
67.993795 34.975569 19.602129 9
69.250633 32.833938 20.835751 5
71.587411 30.901900 23.106964 5
73.551079 28.960854 25.022243 5
75.316283 27.029348 26.749105 5
76.836026 25.089380 28.242577 5
78.594439 23.237687 29.966518 5
80.069632 21.361413 31.420908 5
81.300599 19.458458 32.643244 5
82.336988 17.531589 33.681202 5
83.303129 15.606822 34.653875 5
84.089511 13.649323 35.456561 5
84.763912 11.671932 36.154219 5
85.298453 9.660873 36.720303 5
85.763492 7.633296 37.222183 5
86.083977 5.560084 37.588259 5
86.294889 3.447376 37.852101 5
86.352740 1.273959 37.972362 5
86.282706 -0.957304 37.973273 5
86.042507 -3.269261 37.814728 5
85.714707 -5.635339 37.575673 5
85.162274 -8.118749 37.125778 5
84.361782 -10.740170 36.443139 5
83.288358 -13.522424 35.504550 5
81.832059 -16.530220 34.206005 5
79.821584 -19.864858 32.385472 5
76.027801 -24.170272 28.876799 5
72.058816 -28.693993 25.209524 5
68.336807 -33.220456 21.784649 9
64.365884 -38.012007 18.131984 9
57.364576 -44.648336 11.617881 9
-26.130552 143.308185 -64.013054 3
-26.339018 139.697199 -64.312146 3
-37.388920 139.193710 -74.743535 3
-51.351307 139.195286 -87.902185 3
-66.733925 139.198121 -102.394160 3
-73.609190 136.711009 -108.927617 0
-92.268228 136.781967 -126.493282 0
-113.002913 136.816332 -146.008094 0
-132.714964 136.096981 -164.570074 0
51.807436 48.073942 7.960511 9
55.348950 45.827186 11.300117 9
58.033444 43.598301 13.837828 9
60.297265 41.396181 15.983238 9
62.417419 39.234884 17.996292 9
64.272562 37.093263 19.763115 9
66.011867 34.981166 21.423660 9
67.549829 32.880760 22.897727 9
68.232607 30.675948 23.572337 9
70.001898 28.678329 25.268040 5
71.771353 26.722984 26.966017 5
73.388279 24.778409 28.523140 5
75.216636 22.917723 30.280347 5
76.624849 21.002860 31.646033 5
77.858606 19.076906 32.850471 5
78.938478 17.137895 33.913023 5
79.846130 15.174342 34.816651 5
80.630798 13.193052 35.607540 5
81.295446 11.189617 36.288573 5
81.838505 9.158332 36.858407 5
82.307809 7.109534 37.361852 5
82.549554 4.987428 37.655434 5
82.699683 2.830447 37.866293 5
82.751143 0.631795 37.987997 5
82.617262 -1.646218 37.939930 5
82.342867 -3.994038 37.764160 5
81.919782 -6.421432 37.453338 5
81.231102 -8.984910 36.898979 5
80.329668 -11.673163 36.150734 5
79.095248 -14.550495 35.097316 5
77.382607 -17.699959 33.604539 5
75.012348 -21.229699 31.506913 5
70.579511 -25.867812 27.502796 5
68.666747 -29.360973 25.843746 9
66.066368 -33.288248 23.554199 9
62.605807 -37.774804 20.476097 9
56.598497 -43.798864 15.052003 9
-22.428045 141.187688 -54.985611 3
-20.234092 136.959087 -53.093500 3
-18.392957 132.902064 -51.516883 3
-16.585224 128.915487 -49.964263 3
-16.201715 125.352922 -49.708128 3
-16.384914 121.948585 -49.965364 3
-96.183742 136.789924 -123.102545 0
-116.593866 136.703091 -141.897938 0
50.105827 48.102005 10.324985 9
53.776598 45.867893 13.711680 9
56.375431 43.636671 16.117162 9
58.602093 41.434428 18.183830 9
60.454115 39.246051 19.909447 9
62.324042 37.105131 21.654209 9
63.948339 34.976056 23.176295 9
65.513514 32.876861 24.646797 9
66.868333 30.780302 25.927022 9
68.090513 28.691510 27.088285 9
68.126361 26.405450 27.165095 5
69.872584 24.461613 28.811921 5
71.736704 22.583916 30.568950 5
73.131830 20.642398 31.898722 5
74.366123 18.692845 33.083622 5
75.420118 16.723616 34.105956 5
76.355866 14.743936 35.022613 5
77.136831 12.738464 35.800301 5
77.787197 10.707840 36.461276 5
78.268366 8.634530 36.970437 5
78.665918 6.539009 37.406115 5
78.958047 4.410188 37.748535 5
79.066661 2.216023 37.926655 5
79.072160 -0.022120 38.014039 5
78.882806 -2.343597 37.927324 5
78.531493 -4.744042 37.696808 5
77.987362 -7.243218 37.294749 5
77.233559 -9.856812 36.706228 5
76.133825 -12.653383 35.807925 5
74.704866 -15.640749 34.615756 5
72.723665 -18.936810 32.928176 5
69.514642 -22.888166 30.134050 5
68.401666 -25.916332 29.246864 9
66.401659 -29.439884 27.562470 9
63.767832 -33.366684 25.311975 9
60.487921 -37.732245 22.485971 9
55.560170 -43.117008 18.181922 9
-25.977140 141.333375 -52.700172 3
-23.692395 137.081015 -50.782879 3
-21.807346 133.013692 -49.214997 3
-19.982986 129.024351 -47.694181 3
-18.157220 125.094046 -46.165140 3
-16.419237 121.243406 -44.707821 3
-14.674111 117.446684 -43.237513 3
-12.961200 113.711811 -41.789590 3
-11.259792 110.032646 -40.345675 3
-9.638337 106.420847 -38.967243 3
-8.037142 102.862207 -37.600993 3
-7.512719 99.525550 -37.194209 3
-7.627537 96.303461 -37.355428 3
-7.704745 93.079009 -37.478026 3
33.666625 49.955704 -0.568355 9
47.723920 48.090398 12.068370 9
51.904954 45.886885 15.840452 9
54.597819 43.664597 18.279569 9
56.730337 41.455254 20.218766 9
58.651162 39.275031 21.971004 9
60.281161 37.105778 23.465285 9
62.008697 34.988456 25.050016 9
63.377690 32.859004 26.316076 9
64.688550 30.751623 27.532943 9
65.945541 28.664518 28.704417 9
66.971510 26.562156 29.671760 9
67.977205 24.477431 30.623881 9
68.275481 22.262652 30.945521 9
69.531860 20.266930 32.128017 5
70.760297 18.291441 33.288180 5
71.856801 16.308548 34.332992 5
72.750965 14.294042 35.199623 5
73.528158 12.263471 35.964562 5
74.159594 10.203466 36.602227 5
74.626418 8.102133 37.095970 5
75.022284 5.982471 37.529569 5
75.211682 3.796166 37.782314 5
75.314240 1.575960 37.961138 5
75.217708 -0.722478 37.966246 5
75.009461 -3.075030 37.875768 5
74.575466 -5.530902 37.588534 5
73.911934 -8.101402 37.101649 5
73.040539 -10.787571 36.434876 5
71.802629 -13.666710 35.447926 5
70.143186 -16.779184 34.092872 5
67.805921 -20.260610 32.143664 5
67.551358 -22.840071 32.045920 9
65.885726 -26.125414 30.704670 9
63.938083 -29.613608 29.121148 9
61.476516 -33.436947 27.091451 9
58.437277 -37.652453 24.560843 9
53.891491 -42.790917 20.712479 9
-29.531249 141.474850 -50.385885 3
-27.180976 137.206650 -48.468034 3
-25.262418 133.131863 -46.918815 3
-23.364955 129.124553 -45.380231 3
-21.559842 125.200886 -43.914775 3
-19.755506 121.334754 -42.442644 3
-17.988944 117.533652 -40.996372 3
-16.241033 113.791334 -39.559422 3
-14.540297 110.112009 -38.156941 3
-12.856481 106.487556 -36.762620 3
-11.250124 102.927077 -35.429667 3
-9.639093 99.413844 -34.086287 3
-8.020916 95.947047 -32.730440 3
1.081512 91.526604 -24.804592 3
1.018023 88.452417 -24.910385 3
31.085285 49.945274 1.295312 9
44.073864 48.006869 12.716284 9
49.431874 45.863802 17.440355 9
52.511289 43.666827 20.167198 9
54.755506 41.466301 22.164196 9
56.616143 39.278850 23.827843 9
58.266645 37.110484 25.310380 9
59.899160 34.978566 26.780352 9
61.220791 32.839225 27.980870 9
62.511779 30.724893 29.157727 9
63.764668 28.632839 30.304349 9
64.720850 26.513456 31.194166 9
65.719193 24.422097 32.124137 9
66.566848 22.319436 32.925372 9
67.364172 20.221815 33.685803 9
67.989906 18.098255 34.299402 9
68.625639 15.987157 34.925096 9
69.053112 13.831192 35.372149 5
69.825458 11.774652 36.123894 5
70.417098 9.678740 36.721091 5
70.908390 7.560333 37.234092 5
71.238014 5.395769 37.609582 5
71.422598 3.183748 37.862313 5
71.415545 0.902153 37.951970 5
71.326938 -1.417913 37.974708 5
70.998807 -3.838515 37.793353 5
70.456985 -6.359909 37.430859 5
69.726945 -8.981189 36.909834 5
68.696768 -11.756510 36.133654 5
68.133042 -14.373802 35.767595 9
67.331411 -17.122759 35.200690 9
66.159111 -20.073816 34.318690 9
64.958896 -23.083542 33.418930 9
63.318115 -26.351764 32.145190 9
61.443155 -29.796002 30.676837 9
59.052773 -33.569965 28.772222 9
56.216707 -37.660300 26.493006 9
50.980973 -43.135687 22.159739 9
-33.149295 141.629633 -48.092360 3
-30.654904 137.322774 -46.108444 3
-28.714538 133.244218 -44.588276 3
-26.831267 129.242225 -43.108475 3
-24.953673 125.301065 -41.625374 3
-23.124759 121.429819 -40.175926 3
-21.314498 117.619205 -38.734687 3
-19.557156 113.874928 -37.331170 3
-17.834598 110.190700 -35.950073 3
-16.133778 106.562120 -34.580417 3
-14.499660 102.995356 -33.260897 3
-12.802107 99.466716 -31.880190 3
9.247237 93.038304 -13.045671 3
9.162767 90.100798 -13.174833 3
-3.751259 88.699786 -24.303237 3
21.918983 68.994969 -2.474136 1
21.933452 66.229335 -2.476234 1
14.591888 63.603664 -8.790196 4
14.591012 60.748092 -8.795947 4
14.622155 57.892909 -8.769204 4
14.619666 55.037665 -8.766342 4
14.593870 52.180995 -8.778493 4
27.961107 49.911501 2.713639 9
40.041193 47.903903 13.103392 9
46.377367 45.801460 18.564617 9
50.054102 43.639210 21.746113 9
52.640273 41.464422 23.994980 9
54.566835 39.281685 25.681292 9
56.219640 37.111898 27.136248 9
57.672020 34.954111 28.422796 9
59.036846 32.816799 29.637751 9
60.294974 30.693350 30.764694 9
61.383580 28.568733 31.749821 9
62.427072 26.458982 32.699772 9
63.351096 24.347543 33.550886 9
64.127133 22.223612 34.278837 9
64.880400 20.108952 34.990860 9
65.615038 18.003371 35.690495 9
66.198362 15.873067 36.264362 9
66.908543 13.784248 36.950216 9
67.287889 11.616552 37.357192 9
67.628137 9.440252 37.734641 9
67.073337 6.997397 37.352889 5
67.355295 4.793309 37.688929 5
67.512594 2.547648 37.922821 5
67.458650 0.225807 37.981139 5
67.275015 -2.152286 37.933645 5
66.915418 -4.609120 37.741331 5
67.463922 -6.741756 38.324866 9
67.081974 -9.234864 38.122974 9
66.511196 -11.825676 37.766190 9
65.547066 -14.608083 37.081852 9
64.642210 -17.402858 36.453873 9
63.633976 -20.280820 35.744785 9
62.410501 -23.298366 34.860539 9
60.758276 -26.566328 33.621758 9
58.910742 -29.989470 32.226442 9
56.661860 -33.680298 30.501936 9
53.577025 -37.880987 28.084253 9
-36.804165 141.789003 -45.792956 3
-34.166071 137.444152 -43.747866 3
-32.205710 133.362070 -42.258229 3
-30.290924 129.353164 -40.797656 3
-28.374074 125.403250 -39.326628 3
-26.501075 121.522283 -37.883705 3
-24.674154 117.708337 -36.470998 3
-22.897399 113.959786 -35.092166 3
-21.141923 110.268439 -33.723267 3
8.307829 101.615636 -9.160968 2
8.155420 98.697650 -9.365640 2
14.474594 94.772995 -4.142645 3
16.658168 91.604930 -2.376614 3
16.579361 88.792197 -2.500761 3
13.893593 86.290081 -4.805821 1
13.828232 83.447587 -4.908626 1
9.824884 80.974322 -8.310081 1
10.761236 72.249112 -7.621482 1
21.924743 68.888662 1.728988 1
21.916357 66.154146 1.706589 1
16.850973 63.514635 -2.556733 4
16.867281 60.718311 -2.548275 4
16.879367 57.922569 -2.538127 4
17.763091 55.143166 -1.790884 4
18.051424 52.366625 -1.538373 4
23.897772 49.837944 3.385388 9
35.890107 47.796957 13.472391 9
42.425120 45.679567 18.981299 9
47.005398 43.564923 22.852841 9
49.842970 41.399561 25.265420 9
52.153384 39.246624 27.239331 9
53.923754 37.084603 28.763912 9
55.509224 34.939435 30.137138 9
56.814246 32.790228 31.278965 9
57.992919 30.650188 32.318641 9
59.086354 28.521212 33.290644 9
60.135322 26.407198 34.229128 9
60.999764 24.279075 35.016874 9
61.797749 22.153936 35.752802 9
62.515882 20.026045 36.425758 9
63.301711 17.926267 37.159110 9
63.982835 15.814765 37.808755 9
64.698377 13.723039 38.490944 9
65.012791 11.534503 38.842272 9
65.365184 9.357636 39.229429 9
65.629093 7.156168 39.547006 9
65.131298 4.718448 39.234681 9
65.176414 2.434255 39.379221 9
65.122034 0.109281 39.445641 9
65.095873 -2.216327 39.540266 9
65.008246 -4.574240 39.588653 9
65.172747 -6.849916 39.851036 9
64.740888 -9.362594 39.623927 9
64.186289 -11.946624 39.300778 9
63.117759 -14.769502 38.558478 9
62.312681 -17.519985 38.040622 9
61.350795 -20.373484 37.399860 9
59.890986 -23.492170 36.355524 9
58.168724 -26.786796 35.103035 9
56.422413 -30.154003 33.839432 9
53.995777 -33.921238 32.025836 9
50.150448 -38.494334 29.058639 9
-40.495765 141.952527 -43.485234 3
-37.705878 137.567964 -41.376794 3
-35.709174 133.477865 -39.904270 3
-33.748421 129.458522 -38.451502 3
-31.795087 125.500898 -36.995475 3
-29.916696 121.619433 -35.591554 3
-28.058287 117.798669 -34.195133 3
-26.227022 114.038611 -32.812285 3
12.335547 103.297440 -1.375508 2
13.542104 100.214762 -0.473586 2
14.764059 97.165514 0.447624 3
15.732080 94.191274 1.167424 3
18.361952 91.010556 3.255106 3
18.355525 88.240598 3.189206 3
15.122447 85.852033 0.483566 1
15.122342 83.049103 0.433279 1
11.299640 80.602261 -2.746880 1
11.005850 77.782045 -3.027535 1
13.281010 74.783501 -1.194581 1
13.258872 71.970257 -1.240766 1
21.259946 68.813160 5.304054 1
21.165339 66.102887 5.210187 1
18.249689 63.443243 2.805880 4
18.270796 60.694488 2.817734 4
18.270637 57.946316 2.817604 4
18.206507 55.196766 2.770431 4
18.168092 52.445844 2.749849 4
2.273603 49.010974 -10.279796 9
32.017371 47.708150 14.154234 9
38.220347 45.543742 19.269945 9
42.908531 43.409035 23.146223 9
46.730035 41.307641 26.315016 9
49.361117 39.173429 28.511017 9
51.439969 37.036734 30.257956 9
53.072688 34.890561 31.643018 9
54.462650 32.746921 32.833060 9
55.732620 30.615452 33.928738 9
56.762219 28.471373 34.831531 9
57.749610 26.340928 35.703784 9
58.626864 24.209261 36.489925 9
59.443203 22.082018 37.230279 9
60.307280 19.980171 38.013671 9
61.128598 17.884511 38.766093 9
61.777777 15.761881 39.381967 9
62.452979 13.655900 40.023167 9
62.754288 11.460466 40.363622 9
63.106278 9.279830 40.749818 9
63.301290 7.054858 41.012631 9
63.636014 4.869800 41.393708 9
63.709556 2.602131 41.566952 9
63.661741 0.287718 41.646460 9
63.543596 -2.060963 41.673934 9
63.322007 -4.458867 41.622731 9
62.904521 -6.944668 41.418259 9
62.407221 -9.482020 41.154985 9
61.830070 -12.074564 40.833164 9
60.743644 -14.901859 40.106307 9
60.034762 -17.609715 39.691257 9
59.047371 -20.469841 39.058504 9
57.556420 -23.595230 38.027812 9
55.580054 -26.998517 36.615376 9
53.569479 -30.485142 35.185144 9
21.107513 -48.972777 9.345097 9
38.699415 -43.134684 23.666340 9
-44.182867 142.107880 -41.134113 3
-41.277029 137.694640 -38.995436 3
-39.219268 133.589947 -37.520873 3
-37.234521 129.566009 -36.094330 3
-35.284788 125.610234 -34.685844 3
-33.315336 121.708169 -33.252005 3
6.934732 109.663895 -1.237914 2
7.378847 106.659624 -0.987274 2
11.460839 102.983943 2.178398 2
11.429095 100.143868 2.063173 2
14.057995 96.870398 4.083142 3
17.659432 93.518672 6.889553 3
17.656434 90.765598 6.817568 3
2.505439 89.954894 -5.384225 3
15.946939 85.469214 5.326055 1
15.974726 82.704019 5.295949 1
8.423297 80.634535 -0.805575 1
13.093234 77.417356 2.897783 1
13.123989 74.626877 2.887190 1
13.142065 71.839979 2.872331 1
20.275358 68.752525 8.572627 1
20.450069 66.051384 8.695779 1
17.464094 63.413054 6.288089 4
17.413362 60.684865 6.241621 4
17.412855 57.955938 6.241215 4
17.412599 55.226813 6.246763 4
17.382415 52.496202 6.234051 4
16.814714 49.741033 5.795798 9
27.532894 47.588235 14.418088 9
33.911280 45.404406 19.562159 9
38.720369 43.249909 23.451187 9
42.831215 41.146677 26.783980 9
40.302817 38.454203 24.798115 9
48.431376 36.930045 31.359076 9
50.318470 34.803052 32.920801 9
51.886793 32.674146 34.231224 9
53.214023 30.543204 35.352701 9
54.406994 28.418695 36.370860 9
55.358144 26.276366 37.199736 9
56.439471 24.177479 38.136938 9
57.340752 22.063998 38.934373 9
58.169612 19.952033 39.678172 9
58.957388 17.845725 40.393406 9
59.570842 15.711417 40.973828 9
60.161817 13.580513 41.540716 9
60.502420 11.391692 41.912567 9
60.831091 9.201205 42.279596 9
61.027359 6.973433 42.546021 9
61.223953 4.743116 42.817591 9
61.223209 2.447729 42.937378 9
61.215883 0.141846 43.057163 9
61.054780 -2.225234 43.060336 9
60.821179 -4.631117 43.011663 9
60.511971 -7.080152 42.908921 9
60.000857 -9.623560 42.652560 9
59.354549 -12.243521 42.295845 9
58.487377 -14.980522 41.771681 9
57.695186 -17.720091 41.313822 9
56.733828 -20.565149 40.730126 9
55.240337 -23.684367 39.736028 9
53.315583 -27.053463 38.412453 9
50.104425 -31.093544 36.090764 9
45.640431 -35.841194 32.801622 9
-40.753274 129.676348 -33.727387 3
-38.735157 125.705126 -32.309444 3
-36.828939 121.818153 -30.968574 3
5.533813 109.414622 1.953158 2
5.563111 106.509238 1.866683 2
9.976165 102.789704 5.211753 2
10.009732 99.951299 5.143689 2
12.868238 96.658924 7.291341 3
16.536561 93.319192 10.081011 3
16.576888 90.576480 10.039632 3
-0.065073 89.950401 -3.058143 3
17.295754 85.033525 10.475341 1
16.621388 82.386434 9.892640 1
11.332446 80.142870 5.699074 1
11.393772 77.355968 5.703868 1
12.097765 74.530495 6.218808 1
12.149322 71.759390 6.228473 1
18.941677 68.707495 11.531370 1
18.200594 66.046828 10.932159 1
16.068734 63.394339 9.247814 4
16.127778 60.677964 9.288096 4
16.123088 57.962813 9.284416 4
16.147707 55.247891 9.309766 4
16.153964 52.532451 9.326749 4
13.055063 49.685527 6.914285 9
22.955018 47.466317 14.702617 9
29.485097 45.260879 19.852136 9
34.401323 43.084619 23.740286 9
38.509202 40.951705 26.998776 9
41.660343 38.817491 29.511471 9
44.554204 36.727158 31.826629 9
47.006873 34.647893 33.800210 9
44.505667 31.937620 31.900198 9
50.341659 30.420344 36.530182 9
51.852145 28.335897 37.778734 9
53.383378 26.287563 39.047654 9
54.370872 24.170103 39.895805 9
55.177573 22.035794 40.607195 9
56.053201 19.930647 41.376897 9
56.743919 17.800034 42.006812 9
57.268512 15.641307 42.511826 9
57.727012 13.472931 42.970098 9
58.118154 11.291833 43.380750 9
58.420606 9.089368 43.727316 9
58.617079 6.856970 43.996539 9
58.739215 4.599798 44.213215 9
58.781518 2.313012 44.373265 9
58.711132 -0.017387 44.451438 9
58.631351 -2.361277 44.528006 9
58.337074 -4.791009 44.444430 9
58.017487 -7.246703 44.347456 9
57.497892 -9.795217 44.102421 9
56.924260 -12.388132 43.822461 9
56.160123 -15.082674 43.402771 9
55.281039 -17.855521 42.902114 9
54.207235 -20.745737 42.259707 9
52.929284 -23.765703 41.469070 9
51.151432 -27.058012 40.304498 9
44.889686 -32.499520 35.720602 9
35.537509 -39.602139 28.796860 9
2.598130 109.490196 3.949300 2
2.639045 106.578873 3.865449 2
8.609462 102.575853 8.315142 2
8.641209 99.752262 8.240795 2
10.960294 96.566141 9.921205 3
14.862172 93.204781 12.820166 3
15.017623 90.455852 12.862684 3
-2.513267 89.929349 -0.622098 3
15.633743 84.946927 13.201000 1
18.300597 81.970044 15.186254 1
17.159582 79.400119 14.262360 1
16.809677 76.744432 13.950419 1
16.723737 74.065468 13.846941 1
16.654056 71.385571 13.762191 1
17.110164 68.683745 14.086768 1
15.081609 66.067937 12.512791 1
14.372835 63.381207 11.956747 4
14.342998 60.674121 11.927546 4
14.344876 57.966696 11.928986 4
14.326479 55.258771 11.921205 4
14.338601 52.550770 11.943153 4
8.430867 49.595619 7.433376 9
18.272156 47.341886 15.002417 9
25.032084 45.119262 20.213889 9
29.965325 42.914504 24.029809 9
34.118614 40.755563 27.252458 9
37.309344 38.595817 29.742130 9
40.369626 36.494778 32.136191 9
42.788321 34.383567 34.043370 9
45.122815 32.315394 35.890367 9
48.071888 30.391292 38.211352 9
49.458358 28.282199 39.341658 9
51.372839 26.293772 40.879743 9
52.313185 24.166453 41.678120 9
53.011784 22.009321 42.296740 9
53.785170 19.879676 42.977245 9
54.366039 17.720699 43.515820 9
54.926895 15.565448 44.044092 9
55.324615 13.377680 44.453186 9
55.725580 11.194116 44.869874 9
55.979713 8.973953 45.180158 9
56.194366 6.741850 45.465808 9
56.272713 4.467423 45.653513 9
56.337169 2.182959 45.836329 9
56.245007 -0.158117 45.906317 9
56.081600 -2.533616 45.928437 9
55.836210 -4.950302 45.894818 9
55.469552 -7.425727 45.776108 9
54.964623 -9.971203 45.559903 9
54.395897 -12.563894 45.302726 9
53.647329 -15.252669 44.917656 9
52.746439 -18.033681 44.426007 9
51.660670 -20.927079 43.803986 9
50.295988 -23.981486 42.981954 9
48.126101 -27.443998 41.567623 9
36.645640 -35.265344 33.215935 9
-0.341590 109.562660 5.973405 2
-0.254703 106.638904 5.917470 2
6.415558 102.516255 10.778945 2
6.587293 99.673097 10.803972 2
8.490506 96.563236 12.129016 3
12.706503 93.162282 15.190250 3
12.790134 90.427051 15.172842 3
-5.183636 89.934853 1.660537 3
12.857608 84.985798 15.083790 1
15.528497 82.007437 17.022641 1
16.659112 79.231386 17.816528 1
17.124436 76.535630 18.119359 1
17.204644 73.878085 18.140490 1
17.187494 71.229518 18.095231 1
17.242532 68.579148 18.110543 1
12.297574 66.078433 14.386288 1
4.518892 63.512193 8.544715 4
-16.899989 60.843647 -7.511287 4
12.118521 57.967921 14.232277 4
12.119268 55.262794 14.239457 4
12.126783 52.557346 14.258329 4
3.743650 49.505461 7.998167 9
13.567092 47.219461 15.383507 9
20.343745 44.966051 20.491260 9
25.485484 42.745387 24.379228 9
29.612595 40.554225 27.512107 9
32.883867 38.372331 30.008983 9
35.984148 36.245869 32.382449 9
38.432669 34.109015 34.272909 9
40.739983 32.007694 36.062320 9
38.026412 29.216322 34.105307 9
47.504353 28.301236 41.259277 9
48.876096 26.218020 42.362275 9
49.819232 24.084503 43.150223 9
50.692627 21.955184 43.891110 9
51.355601 19.798132 44.480202 9
52.001438 17.647912 45.061654 9
52.524132 15.479103 45.556627 9
52.923988 13.287049 45.965545 9
53.264151 11.083149 46.335520 9
53.541650 8.864140 46.664467 9
53.692892 6.609628 46.905396 9
53.822632 4.345286 47.136168 9
53.838709 2.041936 47.288693 9
53.743608 -0.304163 47.365111 9
53.573617 -2.685536 47.392535 9
53.322708 -5.107396 47.366777 9
52.924584 -7.596622 47.239305 9
52.434581 -10.138857 47.051310 9
51.839257 -12.743089 46.793287 9
51.060540 -15.444339 46.408391 9
50.062603 -18.264543 45.871067 9
48.762796 -21.247064 45.121703 9
46.991508 -24.476958 44.037574 9
44.414828 -28.120850 42.376958 9
26.798381 -38.695318 29.777875 9
1.313901 102.983415 11.131839 2
1.433933 100.119399 11.110453 2
5.308387 96.671009 13.835132 3
9.927660 93.210054 17.113805 3
10.060726 90.464756 17.127373 3
-7.293450 89.870048 4.373743 3
10.071761 85.023681 16.989517 1
12.751398 82.043438 18.886080 1
14.017110 79.252507 19.756908 1
14.434764 76.558012 20.014792 1
14.466259 73.900265 19.997111 1
14.472642 71.246465 19.967872 1
14.526836 68.592414 19.980426 1
9.056099 66.101701 15.955257 1
9.342649 63.383824 16.151173 4
9.346991 60.674793 16.147426 4
9.392316 57.966277 16.180610 4
9.370972 55.257476 16.171908 4
9.377675 52.548468 16.190666 4
-1.118720 49.410530 8.528511 9
8.425288 47.077296 15.542173 9
15.541815 44.809474 20.784086 9
20.818569 42.566455 24.684624 9
24.973205 40.346370 27.769138 9
28.597699 38.168376 30.470746 9
31.465204 35.988528 32.623741 9
33.997528 33.831732 34.536623 9
36.331075 31.704311 36.309084 9
41.731913 30.076105 40.324726 9
44.407562 28.141010 42.354644 9
45.780177 26.043846 43.438559 9
46.921417 23.932729 44.358765 9
47.883331 21.809282 45.153401 9
48.670369 19.667803 45.825906 9
49.375239 17.521935 46.443912 9
49.912625 15.348951 46.945548 9
50.397443 13.170276 47.414503 9
50.760615 10.966275 47.800774 9
51.006467 8.733433 48.107741 9
51.194142 6.483597 48.378469 9
51.298896 4.207198 48.595224 9
51.277651 1.887930 48.727116 9
51.194938 -0.458914 48.821052 9
51.002901 -2.851515 48.842758 9
50.662532 -5.307433 48.764513 9
50.260015 -7.802347 48.648757 9
49.637093 -10.396340 48.382152 9
48.922264 -13.049865 48.057579 9
47.945365 -15.832744 47.553631 9
46.669020 -18.770253 46.844566 9
44.923205 -21.944362 45.810179 9
42.252911 -25.566884 44.128004 9
28.000962 -34.339017 34.218878 9
-2.948687 100.424863 12.074681 2
0.809838 96.980198 14.645973 3
6.331361 93.373236 18.484801 3
6.409003 90.622652 18.452656 3
-7.909581 89.623888 8.155403 3
7.234931 85.065053 18.889442 1
9.932890 82.081592 20.751027 1
11.286617 79.279830 21.660930 1
11.682125 76.583771 21.893858 1
11.742908 73.920286 21.894805 1
11.746034 71.263061 21.861656 1
11.782894 68.606071 21.859721 1
4.418005 66.164379 16.571433 1
6.025443 63.398653 17.706523 4
5.992288 60.679953 17.675566 4
5.993272 57.960858 17.676270 4
5.974993 55.241280 17.670440 4
5.979180 52.521408 17.687925 4
-36.958769 48.068358 -12.993920 9
3.587353 46.954487 16.028641 9
10.543209 44.644434 21.037270 9
15.998386 42.380626 24.978291 9
20.227938 40.134666 28.048539 9
23.915843 37.930948 30.736892 9
26.868882 35.729278 32.905492 9
29.450417 33.547979 34.813977 9
31.793882 31.391652 36.557641 9
38.076630 29.855523 41.114347 9
40.253530 27.820632 42.747428 9
41.904138 25.744103 44.010349 9
43.319899 23.659627 45.111048 9
44.504732 21.559503 46.052536 9
45.465668 19.436817 46.840076 9
46.217825 17.286691 47.484702 9
46.877653 15.127886 48.069336 9
47.438803 12.955361 48.589621 9
47.826119 10.746547 48.992516 9
48.102313 8.511413 49.322735 9
48.303014 6.255466 49.605707 9
48.429357 3.976024 49.842429 9
48.394470 1.644217 49.971860 9
48.249834 -0.730136 50.030700 9
47.995150 -3.151451 50.019087 9
47.593122 -5.636556 49.911193 9
47.017342 -8.200359 49.689000 9
46.294009 -10.840241 49.371475 9
45.310278 -13.603924 48.880254 9
43.969786 -16.538422 48.148991 9
42.028372 -19.754070 47.008738 9
39.341330 -23.332886 45.360972 9
35.602390 -27.432256 42.995668 9
17.697952 -37.770121 30.816268 9
1.384872 93.724282 18.973536 3
1.442156 90.948527 18.921508 3
-3.218232 88.744268 15.589590 3
-6.945463 86.335406 12.913057 1
-6.040704 83.394794 13.473044 1
-10.063879 80.899906 10.602994 1
-0.704641 69.007943 16.964447 1
9.432218 65.950178 24.022431 4
1.518731 63.433306 18.479364 4
1.523681 60.691285 18.475229 4
1.527390 57.949541 18.477820 4
1.566855 55.208323 18.512984 4
1.529224 52.465291 18.501885 4
-11.254535 49.211681 9.595940 9
-1.602097 46.816841 16.368422 9
5.453302 44.477875 21.332729 9
10.976754 42.184616 25.232837 9
15.383171 39.919869 28.358611 9
19.075112 37.684180 30.991174 9
22.124364 35.460600 33.180784 9
24.741558 33.252104 35.074509 9
27.310321 31.094059 36.939744 9
33.802938 29.552682 41.541658 9
35.740406 27.453142 42.975934 9
37.432207 25.353461 44.244446 9
38.915225 23.251478 45.373020 9
40.243411 21.149947 46.399303 9
41.396486 19.039195 47.309368 9
42.361290 16.910102 48.094303 9
43.185508 14.766549 48.787407 9
43.807605 12.588861 49.346319 9
44.273945 10.381165 49.803462 9
44.601591 8.142134 50.170937 9
44.828386 5.876850 50.475162 9
44.901716 3.566558 50.680140 9
44.811378 1.202489 50.779260 9
44.642668 -1.195363 50.831616 9
44.259568 -3.673491 50.744122 9
43.733832 -6.216240 50.566641 9
42.911274 -8.881982 50.194147 9
41.818553 -11.672432 49.645878 9
40.337357 -14.641288 48.842089 9
38.493454 -17.793488 47.801785 9
36.056172 -21.233172 46.369491 9
32.794757 -25.075969 44.390822 9
28.272419 -29.534777 41.572939 9
-6.087756 63.519491 17.224674 4
-6.010751 60.719607 17.269168 4
-5.962407 57.921471 17.302151 4
-5.901605 55.124466 17.351673 4
-5.912265 52.326301 17.360482 4
-7.381163 49.469422 16.382712 4
-6.978547 46.673234 16.689647 9
0.214024 44.306307 21.633836 9
5.849316 41.985846 25.521913 9
10.293822 39.689870 28.603967 9
14.119166 37.432658 31.269727 9
17.237962 35.183580 33.459826 9
19.911563 32.949432 35.352447 9
23.224044 30.855919 37.685088 9
29.164584 29.206186 41.808859 9
31.105959 27.076520 43.218213 9
32.799543 24.946434 44.464689 9
34.331262 22.822336 45.606781 9
35.632422 20.685596 46.598044 9
36.811229 18.549571 47.512033 9
37.775913 16.390527 48.286775 9
38.619834 14.221540 48.985710 9
39.288001 12.025357 49.571884 9
39.778163 9.795071 50.044106 9
40.086867 7.523333 50.400418 9
40.306185 5.228225 50.703222 9
40.346538 2.881243 50.892524 9
40.268995 0.493601 51.009818 9
39.921361 -1.985369 50.953400 9
39.398040 -4.535813 50.787308 9
38.663262 -7.176057 50.488223 9
37.639439 -9.940353 50.005084 9
36.332807 -12.837306 49.343094 9
34.668211 -15.904849 48.453313 9
32.474142 -19.220752 47.223162 9
29.644791 -22.845765 45.584525 9
25.757853 -26.972278 43.260297 9
7.558516 -37.091836 31.492198 9
-23.842146 48.927321 9.440655 9
-12.480682 46.526996 17.040692 9
-5.226631 44.126763 21.911709 9
0.539162 41.778897 25.797963 9
5.078521 39.455186 28.873956 9
8.949922 37.167311 31.511468 9
6.085684 34.247607 29.677776 9
14.898589 32.633032 35.611178 9
19.122324 30.622366 38.499107 9
24.323632 28.840232 42.040020 9
26.297037 26.683166 43.443543 9
28.014592 24.525076 44.683131 9
29.545017 22.369034 45.804503 9
30.870880 20.205245 46.796288 9
32.061008 18.040066 47.704214 9
33.031366 15.851163 48.472935 9
33.827784 13.640851 49.133031 9
34.477942 11.409319 49.703043 9
34.941639 9.141547 50.156782 9
35.259610 6.841188 50.521437 9
35.413748 4.498122 50.785464 9
35.394300 2.103675 50.942892 9
35.191847 -0.351218 50.988040 9
34.767254 -2.885024 50.895862 9
34.162447 -5.492800 50.694459 9
33.299182 -8.206587 50.333432 9
32.088878 -11.065622 49.756010 9
30.653388 -14.040343 49.042698 9
28.665401 -17.256777 47.981960 9
26.131347 -20.732807 46.580083 9
22.774526 -24.594581 44.660301 9
18.037843 -29.092412 41.866275 9
-29.402101 48.818820 10.049039 9
-18.169260 46.375246 17.386527 9
-10.722224 43.948472 22.269598 9
-4.924552 41.566207 26.087166 9
-0.295448 39.213345 29.151854 9
3.677883 36.899076 31.796867 9
6.848500 34.585912 33.927029 9
9.753497 32.309381 35.891023 9
14.900301 30.380021 39.313697 9
19.355456 28.466023 42.292293 9
21.383307 26.284198 43.703991 9
23.132009 24.098804 44.941021 9
24.653771 21.909258 46.037372 9
25.956234 19.709124 46.998205 9
27.120228 17.506529 47.875923 9
28.075768 15.282170 48.625589 9
28.886819 13.042655 49.288711 9
29.529027 10.777280 49.849876 9
29.959544 8.469777 50.281894 9
30.251538 6.131049 50.632176 9
30.359275 3.744068 50.871761 9
30.263457 1.296933 50.988793 9
29.958566 -1.219249 50.980333 9
29.470532 -3.804327 50.863577 9
28.720822 -6.489243 50.589117 9
27.696805 -9.287525 50.149826 9
26.325289 -12.233455 49.500232 9
24.568041 -15.352799 48.617408 9
22.377391 -18.676570 47.472715 9
19.357167 -22.366029 45.817658 9
15.325861 -26.519969 43.541103 9
-2.968065 -36.351529 32.307482 9
-35.411399 48.695979 10.486032 9
-24.018841 46.219473 17.750529 9
-16.528095 43.756101 22.546631 9
-10.540943 41.348106 26.395793 9
-5.826971 38.964764 29.444345 9
-8.501517 35.994414 27.819542 9
1.427294 34.274931 34.183621 9
4.408827 31.971074 36.154085 9
10.615629 30.136559 40.170137 9
14.238820 28.081062 42.556850 9
16.262593 25.864816 43.938579 9
18.035444 23.649422 45.168152 9
19.601223 21.433815 46.273431 9
20.914467 19.202647 47.225977 9
22.076172 16.966742 48.089669 9
23.026406 14.708601 48.827020 9
23.781352 12.424395 49.448541 9
24.341690 10.107483 49.955018 9
24.791193 7.770950 50.399337 9
25.019607 5.383379 50.712766 9
25.027842 2.937249 50.896426 9
24.855658 0.435577 50.975732 9
24.479219 -2.134832 50.936379 9
23.858060 -4.793190 50.753853 9
22.965612 -7.556359 50.412478 9
21.807793 -10.432189 49.916900 9
20.239450 -13.477930 49.178272 9
18.211148 -16.725075 48.167610 9
15.572402 -20.243034 46.793921 9
12.061555 -24.148715 44.898590 9
7.166621 -28.665228 42.170604 9
-41.596460 48.569662 10.940422 9
-30.054186 46.058662 18.123290 9
-22.388264 43.565419 22.914069 9
-16.395695 41.118819 26.676422 9
-11.581097 38.704467 29.717032 9
-7.521238 36.322803 32.297796 9
-4.127871 33.958113 34.473446 9
-1.110072 31.621596 36.423846 9
6.201953 29.883867 41.029552 9
8.949444 27.682551 42.824224 9
11.008331 25.436603 44.200780 9
12.800391 23.189735 45.419564 9
14.363453 20.939357 46.504082 9
15.707592 18.679531 47.460760 9
16.789743 16.394612 48.263440 9
17.772562 14.108518 49.012246 9
18.494619 11.783389 49.608453 9
19.083057 9.438781 50.130336 9
19.399360 7.037451 50.493555 9
19.567263 4.600498 50.774242 9
19.560632 2.115946 50.956870 9
19.311091 -0.440718 51.000345 9
18.781158 -3.088471 50.882634 9
18.066509 -5.809298 50.662665 9
17.031095 -8.650949 50.258749 9
15.611051 -11.644759 49.633440 9
13.818940 -14.800213 48.795765 9
11.496247 -18.183862 47.651759 9
8.365472 -21.910996 46.036768 9
4.166741 -26.103479 43.798180 9
-14.860183 -35.901099 32.702731 9
-36.175087 45.897876 18.572239 9
-28.480132 43.365996 23.265768 9
-22.413072 40.884068 26.984125 9
-17.495182 38.437968 30.016370 9
-13.352076 36.024602 32.588482 9
-9.872358 33.630130 34.767802 9
-6.820498 31.259490 36.696403 9
1.099129 29.553138 41.560058 9
3.444632 27.265340 43.075263 9
5.537971 24.988029 44.445708 9
7.340236 22.706747 45.648203 9
8.919717 20.423222 46.723976 9
10.256945 18.126529 47.661597 9
11.374370 15.812780 48.474819 9
12.278343 13.475830 49.167769 9
12.989296 11.112752 49.753014 9
13.506349 8.716765 50.230407 9
13.841652 6.284052 50.607608 9
13.967485 3.801592 50.868575 9
13.842589 1.251662 50.989367 9
13.484848 -1.369618 50.981308 9
12.887826 -4.072110 50.841326 9
11.962153 -6.889891 50.517412 9
10.742963 -9.823850 50.031443 9
9.152575 -12.908380 49.338789 9
7.017109 -16.212371 48.338685 9
4.263334 -19.779160 46.990310 9
0.601250 -23.730134 45.126402 9
-4.533564 -28.297580 42.420934 9
-34.071525 -41.945274 25.510438 9
-42.664752 45.723658 18.932993 9
-34.775198 43.159851 23.627436 9
-28.597973 40.643787 27.321801 9
-23.458153 38.174425 30.413341 9
-19.291519 35.724256 32.940046 9
-15.816002 33.290476 35.067987 9
-11.983142 30.967849 37.412831 9
-4.612732 29.156697 41.838936 9
-2.241299 26.834751 43.338402 9
-0.125130 24.523272 44.695402 9
1.723205 22.211918 45.902751 9
3.285146 19.888799 46.949847 9
4.600950 17.551557 47.860542 9
5.700383 15.197584 48.652529 9
6.636175 12.830069 49.356861 9
7.289402 10.418688 49.904615 9
7.767053 7.977468 50.358543 9
8.015042 5.487981 50.687656 9
8.041435 2.944396 50.897202 9
7.837576 0.336981 50.982786 9
7.386250 -2.346664 50.935153 9
6.658797 -5.122874 50.738573 9
5.570910 -8.025154 50.345454 9
4.170103 -11.051782 49.784386 9
2.284112 -14.266490 48.957770 9
-0.206948 -17.724085 47.798850 9
-3.435910 -21.489109 46.234153 9
-7.827287 -25.731523 44.024692 9
-27.575946 -35.484192 33.099178 9
-41.280899 42.946851 24.002305 9
-35.042216 40.391979 27.642717 9
-29.723977 37.893842 30.763060 9
-25.521896 35.405667 33.251388 9
-22.025577 32.932983 35.343168 9
-17.011071 30.699048 38.310921 9
-10.538773 28.744524 42.117868 9
-8.109791 26.391193 43.619442 9
-5.977504 24.043526 44.958992 9
-4.086982 21.700285 46.168069 9
-2.555170 19.334444 47.180266 9
-1.241458 16.958839 48.076065 9
-0.152322 14.565081 48.852074 9
0.756675 12.154442 49.533876 9
1.354523 9.693882 50.047512 9
1.788548 7.205115 50.477054 9
1.947143 4.657176 50.759785 9
1.926177 2.063753 50.950532 9
1.621339 -0.607278 50.991023 9
0.993140 -3.375733 50.859898 9
0.149082 -6.223353 50.618590 9
-1.131890 -9.219894 50.143953 9
-2.815628 -12.370082 49.456658 9
-4.991716 -15.714835 48.508228 9
-7.895957 -19.345144 47.169190 9
-11.706007 -23.343577 45.343657 9
-17.191213 -28.000124 42.608387 9
-46.023008 -40.914548 26.968912 9
-48.896681 42.675831 23.895387 9
-41.657366 40.135089 28.006135 9
-36.277256 37.598064 31.085986 9
-31.966426 35.076327 33.576679 9
-28.407590 32.567604 35.655684 9
-22.152539 30.425393 39.245288 9
-16.675570 28.317693 42.406735 9
-14.213363 25.928417 43.895738 9
-12.038224 23.546777 45.232751 9
-10.200726 21.155882 46.389895 9
-8.612350 18.759214 47.416657 9
-7.304665 16.343251 48.295830 9
-6.200080 13.913093 49.070779 9
-5.409633 11.440582 49.680428 9
-4.803183 8.942073 50.197253 9
-4.428938 6.401103 50.595062 9
-4.338693 3.798323 50.845893 9
-4.463386 1.140674 50.988457 9
-4.881491 -1.598403 50.980323 9
-5.626109 -4.437190 50.804266 9
-6.732980 -7.396149 50.441828 9
-8.193250 -10.484907 49.899124 9
-10.149193 -13.756587 49.099993 9
-12.733172 -17.267583 47.974388 9
-16.160034 -21.105858 46.408253 9
-20.743851 -25.400902 44.235015 9
-41.326972 -35.140704 33.442924 9
-50.360245 39.745026 27.374790 9
-43.003403 37.296543 31.455405 9
-38.670158 34.732766 33.899199 9
-35.001444 32.190887 35.990075 9
-27.500056 30.137169 40.169712 9
-23.024432 27.876690 42.712510 9
