ply
format ascii 1.0
element vertex 1363
property float x
property float y
property float z
property int scalar_Label
end_header
-41.054819 37.947505 26.186003 9
-40.798817 42.056407 25.945258 9
-36.885978 42.021421 26.009072 9
-32.880879 41.957857 26.084477 9
-28.827331 41.916708 26.168066 9
-24.635443 41.804814 26.266867 9
-20.425230 41.752583 26.371710 9
-16.132924 41.694896 26.487616 9
-11.750708 41.627061 26.615256 9
-7.267005 41.541193 26.755570 9
-2.692054 41.451062 26.907904 9
1.970219 41.363666 27.072108 9
6.783611 41.223031 27.252864 9
11.627966 41.144391 27.441774 9
16.624408 41.019822 27.647583 9
21.706194 40.913679 27.865771 9
-3.746606 67.118935 25.988164 1
-4.358036 71.514293 25.843370 1
-4.796843 75.688079 25.720817 1
-3.286162 78.208181 25.740339 1
64.407271 27.991865 30.230374 5
71.111874 27.419407 30.598504 5
77.811681 26.980932 30.974954 5
84.705245 26.524815 31.373454 5
100.084735 19.935444 32.346549 5
-111.752114 -0.044421 34.240359 8
-111.871046 6.461007 33.500515 8
-111.201838 11.208158 32.932007 8
-110.133496 15.047428 32.456109 8
-108.650132 18.007394 32.068692 8
-106.713708 20.075120 31.769475 8
-105.256391 22.960889 31.407385 8
-102.445792 23.431413 31.265188 8
-99.406931 23.550345 31.160916 8
-96.344821 23.682290 31.062738 8
-93.238706 23.794281 30.973597 8
-90.077103 23.870877 30.894899 8
-86.860441 23.916614 30.826331 8
-83.627904 23.995275 30.762536 8
-80.357228 24.073236 30.706519 8
-77.033810 24.130826 30.660075 8
-73.620819 24.117809 30.627592 8
-70.170222 24.113913 30.602426 8
-66.709663 24.159074 30.581347 8
-60.799395 20.922029 30.846658 9
-61.610823 26.873880 30.342299 9
-59.413946 28.714574 30.194720 9
-57.210691 30.543417 30.056726 9
-55.110708 32.500481 29.916418 9
-52.899983 34.313575 29.796888 9
-50.668688 36.101186 29.688100 9
-48.240135 37.654106 29.607951 9
-45.538481 38.897003 29.563090 9
-42.302981 39.547389 29.578129 9
-38.624318 39.741664 29.641985 9
-34.647068 39.667211 29.739102 9
-30.634225 39.627776 29.843594 9
-26.486414 39.517590 29.964968 9
-22.260973 39.403362 30.097751 9
-18.009033 39.340791 30.237335 9
-13.617026 39.214762 30.394242 9
-8.971472 38.918632 30.578543 9
-4.391761 38.776617 30.761579 9
0.315648 38.597888 30.960869 9
5.060804 38.472287 31.168632 9
9.969873 38.283531 31.396006 9
14.949374 38.123229 31.635011 9
20.048023 37.949886 31.890004 9
25.281229 37.754287 32.162428 9
30.728864 37.472741 32.459102 9
36.269204 37.216424 32.769968 9
41.908966 36.982430 33.095854 9
77.591454 12.456710 35.893878 5
85.863613 10.788384 36.437220 5
95.615043 8.137562 37.108064 5
-107.625346 4.959357 36.914584 8
-106.823734 9.420279 36.340356 8
-105.074927 11.994978 35.968250 8
-102.332604 12.719790 35.792120 8
-99.386811 13.110814 35.657642 8
-96.400413 13.472580 35.534049 8
-93.320197 13.718135 35.430060 8
-90.202699 13.950184 35.335441 8
-87.050171 14.174881 35.249664 8
-83.808702 14.308338 35.181135 8
-80.567253 14.496854 35.115447 8
-77.250473 14.623460 35.064293 8
-73.865092 14.703707 35.026242 8
-70.456579 14.809157 34.994369 8
-66.951197 14.833726 34.979271 8
-61.655539 12.384501 35.216682 9
-61.154005 16.756924 34.791581 9
-61.376304 22.016198 34.288006 9
-59.508916 24.347257 34.081673 9
-57.394665 26.332131 33.918355 9
-55.374375 28.429531 33.752789 9
-53.232977 30.361906 33.612396 9
-51.124786 32.330364 33.477284 9
-48.934949 34.193685 33.361488 9
-46.279637 35.499537 33.310326 9
-43.363099 36.518947 33.297226 9
-39.661619 36.665622 33.381702 9
-35.676719 36.555902 33.502697 9
-31.609255 36.429022 33.636518 9
-27.475169 36.305822 33.781371 9
-23.268232 36.182037 33.938010 9
-18.957398 36.027746 34.109874 9
-14.519514 35.823452 34.299414 9
-10.001787 35.622532 34.501519 9
-5.391878 35.415489 34.717590 9
-0.657829 35.174479 34.951037 9
4.153413 34.949501 35.197024 9
9.057877 34.727845 35.457360 9
14.119504 34.453545 35.738662 9
25.436999 28.597008 36.653414 9
24.452118 34.005635 36.338082 9
29.994019 33.598545 36.683494 9
35.708489 33.150096 37.051580 9
56.135828 20.406606 38.860964 9
-64.342907 -4.710702 40.742327 9
-63.497894 -0.450170 40.255209 9
-63.125164 4.406121 39.711206 9
-61.850886 7.840584 39.336094 9
-61.837877 12.994209 38.777597 9
-60.225330 15.797118 38.491819 9
-58.604681 18.548457 38.220990 9
-56.981310 21.258322 37.963883 9
-55.007830 23.473604 37.771529 9
-53.094350 25.749682 37.581417 9
-51.117123 27.927325 37.411499 9
-49.090156 30.029719 37.259194 9
-46.662895 31.634994 37.172698 9
-43.666864 32.569835 37.172493 9
-40.174336 32.956702 37.245506 9
-36.153983 32.791040 37.393277 9
-32.077796 32.638399 37.551311 9
-27.915238 32.466721 37.723656 9
-23.644351 32.255705 37.913075 9
-19.262366 32.007190 38.119796 9
-14.760984 31.717262 38.344757 9
-10.184182 31.436394 38.582425 9
-5.523487 31.158503 38.833946 9
-0.722584 30.830486 39.106224 9
4.014335 30.657593 39.374726 9
8.844456 30.483976 39.658738 9
13.654446 30.419595 39.945048 9
18.674503 30.249015 40.260939 9
23.726564 30.142933 40.585631 9
28.933156 29.992138 40.933496 9
34.297147 29.800104 41.304877 9
40.174517 29.266970 41.740015 9
-59.445205 -0.601298 44.043101 9
-60.193629 5.828621 43.268076 9
-59.637259 10.235693 42.756325 9
-58.632556 13.920006 42.344595 9
-57.238561 17.001663 42.017919 9
-55.529407 19.612913 41.759832 9
-53.421733 21.670725 41.581166 9
-51.803090 24.346895 41.333292 9
-50.058285 26.831536 41.118841 9
-47.062976 27.743047 41.114989 9
-44.939079 29.747579 40.981076 9
-41.256046 29.886241 41.097659 9
-37.362101 29.841237 41.249767 9
-33.374049 29.759122 41.418921 9
-29.109640 29.438481 41.631923 9
-24.753318 29.099273 41.860647 9
-20.303498 28.743520 42.105265 9
-15.730149 28.342839 42.370026 9
-11.093604 27.965916 42.646262 9
-6.276551 27.493549 42.950506 9
-1.299756 26.955005 43.279548 9
3.811023 26.382728 43.629670 9
9.074382 25.763803 44.003346 9
14.499046 25.095930 44.401668 9
20.194123 24.282732 44.839060 9
26.059163 23.428792 45.301895 9
32.275979 22.375398 45.813926 9
38.723771 21.245348 46.358990 9
75.824067 135.786768 -208.764796 0
72.028021 136.667066 -208.617824 0
68.134526 136.566793 -208.383814 0
64.253253 136.520266 -208.168471 0
60.381691 136.521920 -207.971086 0
56.522078 136.639016 -207.798251 0
52.660090 136.673683 -207.630087 0
48.799122 136.666049 -207.470626 0
44.942626 136.699536 -207.328107 0
41.065972 135.893328 -207.115747 0
72.263807 136.678159 -203.859122 0
68.364119 136.640727 -203.635521 0
64.464896 136.525192 -203.417743 0
60.579266 136.493170 -203.220228 0
56.709766 136.631758 -203.050523 0
52.834733 136.636393 -202.881480 0
48.965337 136.689637 -202.729259 0
45.095099 136.663978 -202.582602 0
41.215862 136.191418 -202.409436 0
72.402130 135.719114 -199.032129 0
68.587957 136.655067 -198.889861 0
64.679965 136.576957 -198.679579 0
60.777890 136.484507 -198.480595 0
56.896290 136.611863 -198.311011 0
53.009830 136.614294 -198.143922 0
49.128637 136.654948 -197.991948 0
45.249551 136.692620 -197.851861 0
41.371654 136.713665 -197.722591 0
68.811509 136.670119 -194.151728 0
64.893258 136.610699 -193.946863 0
60.980810 136.539396 -193.753230 0
57.084329 136.620902 -193.581710 0
53.187049 136.636810 -193.417659 0
49.293535 136.662150 -193.266029 0
45.401958 136.671218 -193.125093 0
41.511747 136.650017 -192.993922 0
37.607376 135.716371 -192.815434 0
68.992893 136.229305 -189.394103 0
65.105988 136.640784 -189.219827 0
61.181905 136.572536 -189.030083 0
57.272569 136.637082 -188.859270 0
53.364090 136.660288 -188.697628 0
49.457176 136.646825 -188.545414 0
45.553755 136.639461 -188.404942 0
41.653684 136.662733 -188.277489 0
37.755588 136.722875 -188.163333 0
69.183807 135.899403 -184.656783 0
65.319962 136.688409 -184.498374 0
61.383817 136.619426 -184.312292 0
57.452811 136.532566 -184.136643 0
53.537934 136.629341 -183.980205 0
49.619867 136.615343 -183.829960 0
45.707877 136.676260 -183.693977 0
41.795696 136.683915 -183.566673 0
37.885129 136.691436 -183.450322 0
33.972714 136.392882 -183.331978 0
65.530710 136.699158 -179.778911 0
61.582807 136.628857 -179.596520 0
57.640453 136.545910 -179.424557 0
53.712612 136.616715 -179.268410 0
49.785986 136.661371 -179.122061 0
45.859186 136.640589 -178.984244 0
41.936506 136.666329 -178.858532 0
38.014504 136.658552 -178.742340 0
34.085436 135.772965 -178.609386 0
65.658139 135.720592 -175.039881 0
61.782492 136.649232 -174.883935 0
57.829315 136.579634 -174.715788 0
53.891394 136.679467 -174.561700 0
49.946968 136.599406 -174.414046 0
46.012056 136.649884 -174.279444 0
42.076761 136.632948 -174.153666 0
38.144174 136.646914 -174.038736 0
34.212377 136.650734 -173.933780 0
61.981193 136.657387 -170.172752 0
58.017395 136.602252 -170.008159 0
54.064861 136.648676 -169.854644 0
50.113545 136.658355 -169.710662 0
46.165251 136.669302 -169.576583 0
42.218505 136.654464 -169.452115 0
38.274437 136.669218 -169.337762 0
34.331128 136.670693 -169.233089 0
30.387668 135.847866 -169.130995 0
62.162907 136.441506 -165.462204 0
58.204717 136.613646 -165.300882 0
54.240147 136.650827 -165.149117 0
50.278583 136.684690 -165.006882 0
46.315994 136.625123 -164.874263 0
42.359377 136.646321 -164.751032 0
38.404391 136.676419 -164.637225 0
34.449501 136.655274 -164.532938 0
30.495008 136.125726 -164.439254 0
62.310454 135.779530 -160.761047 0
58.395099 136.670535 -160.592529 0
54.412059 136.593977 -160.443945 0
50.442502 136.687117 -160.302530 0
46.470445 136.677431 -160.171462 0
42.501451 136.679115 -160.049354 0
38.534022 136.666850 -159.936495 0
34.567881 136.640730 -159.832870 0
30.602862 136.692253 -159.737237 0
58.584339 136.708814 -155.881870 0
54.587408 136.596447 -155.737234 0
50.605795 136.675529 -155.597018 0
46.622394 136.663467 -155.467636 0
42.642290 136.668067 -155.346578 0
38.663635 136.654749 -155.234632 0
34.686513 136.646802 -155.131221 0
30.710128 136.664059 -155.035834 0
26.740944 135.706743 -154.973133 0
58.707451 135.767720 -151.200656 0
54.766502 136.661542 -151.025740 0
50.769508 136.670893 -150.888935 0
46.775866 136.686322 -150.760270 0
42.783690 136.673423 -150.640907 0
38.793626 136.657924 -150.529939 0
34.805112 136.643802 -150.427201 0
30.817489 136.664897 -150.331466 0
26.829274 136.696579 -150.243575 0
54.941359 136.651072 -146.312441 0
50.932358 136.646130 -146.178119 0
46.926908 136.644579 -146.051610 0
42.925612 136.692188 -145.930774 0
38.923258 136.638934 -145.822480 0
34.924240 136.679020 -145.717755 0
30.924987 136.690652 -145.622201 0
26.925492 136.690868 -145.535019 0
55.120919 136.717297 -141.590139 0
51.099391 136.702671 -141.458349 0
47.080725 136.668798 -141.335232 0
43.066638 136.676551 -141.217297 0
39.054417 136.686170 -141.106762 0
35.043214 136.688894 -141.004108 0
31.032469 136.655469 -140.911008 0
27.021885 136.674195 -140.822347 0
23.026630 135.702318 -140.798756 0
55.235971 135.694058 -136.933611 0
51.261034 136.646239 -136.738881 0
47.234033 136.675170 -136.613460 0
43.208598 136.685485 -136.496434 0
39.184998 136.697425 -136.386407 0
35.162253 136.691071 -136.284723 0
31.140239 136.686291 -136.190004 0
27.117941 136.722947 -136.099477 0
23.095117 136.701707 -136.019988 0
51.427746 136.686311 -132.005813 0
47.387548 136.680746 -131.884367 0
43.350475 136.684664 -131.768915 0
39.315439 136.692762 -131.659844 0
35.281154 136.667069 -131.560160 0
31.248044 136.665045 -131.465264 0
27.214896 136.662849 -131.377037 0
23.181008 136.660968 -131.295426 0
51.564231 136.124316 -127.317570 0
47.541611 136.692892 -127.146136 0
43.492142 136.669250 -127.034324 0
39.445901 136.678671 -126.925836 0
35.401299 136.726221 -126.820166 0
31.356193 136.697280 -126.727721 0
27.311507 136.678213 -126.640640 0
23.265556 136.712533 -126.554912 0
51.717899 135.900355 -122.598091 0
47.696711 136.722284 -122.396271 0
43.635255 136.690337 -122.286764 0
39.577154 136.688468 -122.180116 0
35.552819 139.203333 -121.822205 3
31.472716 139.194347 -121.727473 3
27.392514 139.219319 -121.635143 3
23.312132 139.176643 -121.555626 3
19.229242 139.206417 -121.474517 3
47.955810 139.223600 -117.356515 3
43.859477 139.210148 -117.245836 3
39.765048 139.176430 -117.142988 3
35.673402 139.199654 -117.039210 3
31.581760 139.161076 -116.947931 3
27.490405 139.189477 -116.854517 3
23.398204 139.188037 -116.769949 3
19.303982 139.208923 -116.688275 3
44.001751 139.157919 -112.455540 3
39.897869 139.193028 -112.345343 3
35.794360 139.201319 -112.243565 3
31.691354 139.204225 -112.147531 3
27.588199 139.216629 -112.055365 3
23.484385 139.206770 -111.971025 3
19.379001 139.207892 -111.890339 3
44.147212 139.191239 -107.641528 3
40.030631 139.190948 -107.536558 3
35.915688 139.205508 -107.434245 3
31.801022 139.185459 -107.341294 3
27.686478 139.207537 -107.247248 3
23.571352 139.190151 -107.163204 3
19.454170 139.209155 -107.078802 3
15.334849 139.215275 -107.000756 3
44.292315 139.200057 -102.815810 3
40.163934 139.194814 -102.712405 3
36.037426 139.212629 -102.609863 3
31.911032 139.171588 -102.520225 3
27.785147 139.180290 -102.427479 3
23.657986 139.212683 -102.335429 3
19.529472 139.214253 -102.252116 3
15.399356 139.196909 -102.175783 3
40.297076 139.173649 -97.876329 3
36.159741 139.231962 -97.767590 3
32.021540 139.189104 -97.678697 3
27.883900 139.197382 -97.585485 3
23.745383 139.203577 -97.496378 3
19.605851 139.185583 -97.414886 3
15.463713 139.188887 -97.333752 3
40.432045 139.208847 -93.014101 3
36.281761 139.200787 -92.916394 3
32.132394 139.195793 -92.821550 3
27.983129 139.189970 -92.730212 3
23.832678 139.222234 -92.635728 3
19.681446 139.199700 -92.553919 3
15.528200 139.183609 -92.474338 3
11.370587 139.206353 -92.391423 3
36.404564 139.192378 -88.043426 3
32.243585 139.185889 -87.948910 3
28.082526 139.226187 -87.848822 3
23.920924 139.198416 -87.764018 3
19.758215 139.177295 -87.680911 3
15.591266 139.227370 -87.587713 3
11.423560 139.203920 -87.510791 3
36.527715 139.174475 -83.152819 3
32.355409 139.211213 -83.050037 3
28.182639 139.195081 -82.959947 3
24.009207 139.196229 -82.868997 3
19.833823 139.215836 -82.776932 3
15.657101 139.197220 -82.694715 3
11.477208 139.190861 -82.612558 3
36.651798 139.183343 -78.236162 3
32.467661 139.225212 -78.131907 3
28.282900 139.227762 -78.037734 3
24.098318 139.161865 -77.959623 3
19.911915 139.164298 -77.869537 3
15.721739 139.210698 -77.772421 3
11.532027 139.156030 -77.698054 3
7.333688 139.212606 -77.602791 3
32.580155 139.192343 -73.201241 3
28.383966 139.175901 -73.110710 3
24.186675 139.210480 -73.010724 3
19.988750 139.180070 -72.926380 3
15.787455 139.200922 -72.832482 3
11.583437 139.205331 -72.743685 3
7.377214 139.178216 -72.663264 3
32.693305 139.180975 -68.242726 3
28.485191 139.205122 -68.142690 3
24.275883 139.229370 -68.043754 3
20.065923 139.197493 -67.958744 3
15.853841 139.180371 -67.871476 3
11.637768 139.193230 -67.778442 3
7.419279 139.175006 -67.693593 3
32.807309 139.214385 -63.248644 3
28.587163 139.170842 -63.164088 3
24.366266 139.194757 -63.064049 3
20.144058 139.190691 -62.971379 3
15.919518 139.191050 -62.878291 3
11.701117 138.977879 -62.837188 3
7.499401 138.457243 -62.870802 3
3.320886 137.658723 -62.972188 3
28.690139 138.988020 -58.197091 3
24.465347 138.533418 -58.216294 3
20.256459 137.715779 -58.327322 3
16.073923 136.522636 -58.533541 3
11.926948 134.982315 -58.828036 3
7.801313 133.545478 -59.097232 3
3.701721 132.076378 -59.375344 3
28.804522 135.137191 -54.171819 3
24.618853 133.678361 -54.460871 3
20.461053 132.205800 -54.753936 3
16.329800 130.749254 -55.043161 3
12.223450 129.318413 -55.325960 3
8.142345 127.878189 -55.611576 3
4.084884 126.446921 -55.895149 3
28.922627 129.462672 -50.710242 3
24.781348 127.994128 -51.019670 3
20.666903 126.570498 -51.316673 3
16.578076 125.164750 -51.608663 3
12.516715 123.703597 -51.915845 3
8.476396 122.326556 -52.199706 3
4.461915 120.905212 -52.495679 3
0.466944 119.535000 -52.777377 3
24.940334 122.438799 -47.646762 3
20.868932 121.032552 -47.955701 3
16.820904 119.705853 -48.241225 3
12.800898 118.275810 -48.555937 3
8.800651 116.944808 -48.841575 3
4.825948 115.561263 -49.141783 3
0.874065 114.174567 -49.442333 3
25.095981 117.005764 -44.339240 3
21.066334 115.630751 -44.655651 3
17.060708 114.299524 -44.957963 3
13.079219 112.960891 -45.261499 3
9.122426 111.594549 -45.572357 3
5.186000 110.271576 -45.869194 3
1.272887 108.923530 -46.172557 3
25.248783 111.660839 -41.103095 3
21.259431 110.354140 -41.414777 3
17.295298 109.014713 -41.735236 3
13.354544 107.692139 -42.049018 3
9.438711 106.333450 -42.372659 3
5.539185 105.082566 -42.661189 3
1.665506 103.753214 -42.972808 3
-2.190427 102.463637 -43.270545 3
25.397910 106.479417 -37.910511 3
21.449332 105.155594 -38.243563 3
17.524222 103.867389 -38.563229 3
13.622681 102.569562 -38.884159 3
9.743357 101.279771 -39.200632 3
5.885920 99.987946 -39.515914 3
2.048253 98.714394 -39.823406 3
-1.768591 97.431180 -40.132183 3
21.634369 100.114024 -35.112423 3
17.749466 98.797507 -35.456895 3
13.887238 97.508674 -35.789794 3
10.045418 96.261155 -36.106514 3
6.223920 95.024717 -36.417220 3
2.426259 93.736499 -36.743119 3
-1.357464 92.526955 -37.040197 3
21.819086 95.022898 -32.087343 3
17.970954 93.808641 -32.411939 3
14.144041 92.609801 -32.728442 3
10.328916 91.584818 -32.981504 3
6.521025 90.710147 -33.179213 3
2.712886 90.015790 -33.310940 3
-1.096708 89.440897 -33.397827 3
-4.909724 88.959440 -33.448872 3
21.984641 90.763381 -28.851927 3
18.153887 90.005465 -29.026116 3
14.328731 89.416590 -29.135824 3
10.504342 88.976154 -29.188360 3
6.680652 88.600429 -29.213905 3
2.850704 88.347972 -29.191161 3
-0.989230 88.209172 -29.123481 3
-4.841264 88.161130 -29.019043 3
22.104810 88.598266 -24.902965 3
18.268676 88.349996 -24.894915 3
14.430201 88.212796 -24.841228 3
10.585340 88.184683 -24.742532 3
6.740109 88.102747 -24.659750 3
2.889093 88.054369 -24.560131 3
-0.959654 87.920456 -24.488317 3
-4.818850 87.858180 -24.385315 3
-8.727911 88.220584 -24.118265 3
36.168128 17.629509 -47.839805 9
33.025005 15.769224 -48.488656 9
29.919706 14.784979 -48.796729 9
26.833409 13.865947 -49.076390 9
23.758800 13.237286 -49.240642 9
20.695065 12.620222 -49.397014 9
17.643187 11.968298 -49.563469 9
14.601378 11.325568 -49.722988 9
11.561715 10.805887 -49.831455 9
8.529173 10.279923 -49.938896 9
5.504141 9.738267 -50.048962 9
2.485048 9.196828 -50.155482 9
-0.530866 8.676658 -50.250262 9
-3.549924 8.222490 -50.315858 9
-6.562655 7.736677 -50.390217 9
-9.570091 7.229898 -50.469196 9
-12.574534 6.718509 -50.546417 9
-15.579761 6.223976 -50.613477 9
-18.591596 5.774663 -50.659237 9
-21.598705 5.294834 -50.713274 9
-24.614813 4.859850 -50.746051 9
-27.627254 4.395324 -50.786683 9
-30.627515 3.861951 -50.850632 9
-33.649108 3.420079 -50.874851 9
-36.671417 2.964429 -50.900662 9
-39.701993 2.525630 -50.915958 9
-42.737820 2.086964 -50.927281 9
-46.044314 2.658111 -50.534894 9
-50.298978 6.595278 -48.802849 9
51.245680 7.648637 -48.182436 9
47.908945 2.842868 -50.045506 9
44.814374 0.776581 -50.817419 9
41.827493 0.244826 -50.976002 9
38.864537 0.076444 -50.986363 9
35.906387 -0.089526 -50.991968 9
32.952599 -0.232549 -50.984633 9
30.001897 -0.385925 -50.977607 9
27.054522 -0.596839 -50.989707 9
24.109161 -0.744191 -50.972646 9
21.167931 -0.977782 -50.986179 9
18.228301 -1.185807 -50.985690 9
15.290525 -1.399555 -50.983658 9
12.350155 -1.553557 -50.953871 9
9.416929 -1.816126 -50.963673 9
6.479544 -2.016610 -50.944740 9
3.544888 -2.256032 -50.937524 9
0.608365 -2.483795 -50.921726 9
-2.327074 -2.734119 -50.911065 9
-5.263399 -2.990146 -50.898760 9
-8.198420 -3.271172 -50.892566 9
-11.132971 -3.570071 -50.889612 9
-14.080413 -3.801119 -50.855283 9
-17.027437 -4.060931 -50.828508 9
-19.978584 -4.322051 -50.798180 9
-22.924569 -4.637079 -50.785578 9
-25.891056 -4.870737 -50.735864 9
-28.843239 -5.205321 -50.722925 9
-31.810370 -5.495527 -50.687774 9
-34.778888 -5.809228 -50.657943 9
-37.747469 -6.151406 -50.635457 9
-40.734224 -6.449000 -50.590474 9
-43.762460 -6.621342 -50.489863 9
-47.035707 -5.942456 -50.035889 9
-50.822942 -3.569408 -48.880937 9
-55.939232 3.058544 -45.969009 9
57.468816 7.304530 -44.586467 9
53.856384 0.556372 -47.317015 9
50.574981 -3.602059 -48.983152 9
47.494894 -5.955482 -49.905901 9
44.527536 -7.123775 -50.338927 9
41.619462 -7.498096 -50.442280 9
38.729654 -7.591290 -50.426190 9
35.842981 -7.687651 -50.407320 9
32.958890 -7.795500 -50.389086 9
30.077174 -7.881659 -50.357842 9
27.197442 -8.028421 -50.347438 9
24.319402 -8.157737 -50.325761 9
21.443283 -8.312755 -50.310571 9
18.568344 -8.469777 -50.292101 9
15.691410 -8.576890 -50.248909 9
12.821746 -8.818004 -50.256911 9
9.943845 -8.928563 -50.206832 9
7.068230 -9.091992 -50.174425 9
4.192946 -9.275674 -50.146215 9
1.314015 -9.440523 -50.105995 9
-1.561929 -9.655044 -50.082147 9
-4.444313 -9.835452 -50.039897 9
-7.326752 -10.041404 -50.003983 9
-10.213505 -10.242022 -49.961551 9
-13.104866 -10.440280 -49.913800 9
-15.996828 -10.664270 -49.872412 9
-18.891922 -10.898431 -49.830889 9
-21.794295 -11.122122 -49.780570 9
-24.703364 -11.343039 -49.724621 9
-27.613501 -11.591471 -49.675698 9
-30.534334 -11.822388 -49.614889 9
-33.465466 -12.042690 -49.545015 9
-36.402129 -12.276197 -49.476040 9
-39.340584 -12.538577 -49.414541 9
-42.286261 -12.808083 -49.351331 9
-45.352552 -12.672928 -49.112135 9
-48.686055 -11.668964 -48.499360 9
-52.533198 -9.065742 -47.201025 9
-56.940492 -4.889938 -45.224876 9
-61.882573 0.608149 -42.673798 9
-89.983878 12.449910 -35.900702 8
-92.653610 10.247538 -36.580093 8
-95.540354 8.614347 -37.009845 8
-98.590815 7.379793 -37.262442 8
-101.672998 6.215628 -37.479638 8
-104.910754 5.383491 -37.546954 8
59.964757 0.225686 -43.759087 9
56.565533 -4.088649 -45.555854 9
53.326526 -7.612683 -47.014724 9
50.217129 -10.418100 -48.165933 9
47.239837 -12.094947 -48.835840 9
44.341219 -12.983847 -49.168252 9
41.490113 -13.231124 -49.224810 9
38.650639 -13.328713 -49.213642 9
35.815922 -13.356195 -49.168399 9
32.980895 -13.533194 -49.182190 9
30.149720 -13.591139 -49.141126 9
27.319962 -13.710812 -49.121885 9
24.491782 -13.833339 -49.099484 9
21.662939 -13.900961 -49.049355 9
18.836179 -14.035588 -49.023310 9
16.008346 -14.146157 -48.982616 9
13.180591 -14.272439 -48.944179 9
10.351494 -14.395711 -48.900011 9
7.520728 -14.519934 -48.851775 9
4.694931 -14.722242 -48.832410 9
1.858572 -14.834254 -48.769962 9
-0.976497 -14.989896 -48.721632 9
-3.811437 -15.173405 -48.680689 9
-6.651778 -15.341518 -48.628577 9
-9.494509 -15.522254 -48.577276 9
-12.339250 -15.719210 -48.528314 9
-15.195119 -15.878078 -48.458298 9
-18.048872 -16.083777 -48.403731 9
-20.905814 -16.303282 -48.350392 9
-23.780243 -16.465403 -48.267496 9
-26.656897 -16.654772 -48.191518 9
-29.538737 -16.856767 -48.116119 9
-32.428155 -17.061958 -48.037177 9
-35.320660 -17.291104 -47.963665 9
-38.227867 -17.497692 -47.875326 9
-41.135380 -17.741562 -47.798141 9
-44.083299 -17.874761 -47.667523 9
-47.231900 -17.352196 -47.244773 9
-50.685205 -15.900242 -46.408485 9
-54.582100 -13.173038 -45.004635 9
-58.745738 -9.862261 -43.334125 9
-63.215140 -5.914356 -41.371685 9
-68.892346 1.235013 -37.983855 8
-72.035677 0.703193 -37.973509 8
-75.164096 0.101544 -37.988399 8
-78.297212 -0.513530 -38.003596 8
-81.470458 -1.051762 -37.978905 8
-84.646089 -1.616017 -37.959876 8
-87.841691 -2.163439 -37.927348 8
-91.054525 -2.703854 -37.885574 8
-94.279522 -3.251386 -37.840769 8
-97.522850 -3.793677 -37.787292 8
-100.770167 -4.364126 -37.740074 8
-104.050628 -4.900993 -37.671186 8
-108.184945 -3.723671 -36.818950 8
-138.519586 17.884254 -25.171744 7
-139.185982 11.834707 -27.557573 7
-141.092242 8.132821 -28.865473 7
-144.016246 6.243144 -29.334136 7
-147.174665 4.749919 -29.613781 7
111.170114 18.903130 -31.564490 5
104.321634 5.150586 -37.624780 5
101.161173 5.289233 -37.612340 5
98.009210 5.416162 -37.599640 5
94.869020 5.547620 -37.579622 5
91.733494 5.653773 -37.565330 5
88.600831 5.724919 -37.561016 5
85.477664 5.793784 -37.552438 5
82.362679 5.856340 -37.541376 5
79.255000 5.910104 -37.528938 5
76.148879 5.920850 -37.530060 5
73.052245 5.937820 -37.523304 5
69.958205 5.916503 -37.528087 5
66.871769 5.892297 -37.529003 5
62.609182 -4.428923 -42.012915 9
59.291544 -7.832502 -43.477501 9
56.098307 -10.726866 -44.715729 9
52.981929 -13.480939 -45.888521 9
49.966890 -15.690687 -46.819730 9
47.052906 -17.079447 -47.388546 9
44.206940 -17.777305 -47.651491 9
41.398030 -17.994863 -47.700251 9
38.599659 -18.079570 -47.686382 9
35.804925 -18.135458 -47.655280 9
33.011771 -18.217919 -47.631144 9
30.220489 -18.300637 -47.602472 9
27.430464 -18.376170 -47.565995 9
24.641679 -18.482103 -47.538162 9
21.853357 -18.579955 -47.502116 9
19.064223 -18.658198 -47.452779 9
16.276211 -18.777151 -47.416595 9
13.486630 -18.881610 -47.369330 9
10.697249 -19.010013 -47.327850 9
7.905655 -19.130818 -47.278277 9
5.112136 -19.255654 -47.225699 9
2.313711 -19.359901 -47.159237 9
-0.485061 -19.494200 -47.101186 9
-3.281446 -19.677465 -47.059910 9
-6.087013 -19.816754 -46.994334 9
-8.898923 -19.945081 -46.918979 9
-11.713082 -20.094584 -46.848035 9
-14.530433 -20.259088 -46.778752 9
-17.354580 -20.418898 -46.702359 9
-20.186937 -20.570456 -46.617218 9
-23.012706 -20.792517 -46.558355 9
-25.854201 -20.970711 -46.474820 9
-28.701528 -21.159121 -46.390641 9
-31.553903 -21.362382 -46.307856 9
-34.408669 -21.592048 -46.231615 9
-37.295191 -21.731301 -46.109480 9
-40.184002 -21.905340 -45.997477 9
-43.069812 -22.131590 -45.903455 9
-46.100823 -21.889314 -45.592592 9
-49.347933 -20.995713 -44.981124 9
-52.972009 -19.004308 -43.865283 9
-57.545278 -14.249363 -41.486861 9
-61.955487 -10.370512 -39.492047 9
-66.512034 -6.384273 -37.435038 8
-69.616429 -6.808535 -37.375648 8
-72.737713 -7.221260 -37.304821 8
-75.871217 -7.637927 -37.229523 8
-79.031068 -8.024024 -37.133829 8
-82.193060 -8.444496 -37.047415 8
-85.379465 -8.844609 -36.945050 8
-88.570465 -9.274594 -36.849765 8
-91.791566 -9.675791 -36.734376 8
-95.026151 -10.089407 -36.617795 8
-98.271694 -10.521889 -36.502938 8
-101.540747 -10.947346 -36.377659 8
-104.858105 -11.317527 -36.219231 8
-109.188925 -9.712725 -35.127093 8
-118.010448 0.481090 -29.983742 7
-121.329051 -0.337378 -29.997275 7
-124.694611 -1.100019 -29.977133 7
-128.091134 -1.841572 -29.939422 7
-131.523937 -2.556027 -29.881046 7
-134.976967 -3.274833 -29.816727 7
-138.490424 -3.931965 -29.714726 7
-142.007293 -4.627344 -29.622545 7
-145.568778 -5.294151 -29.507995 7
-149.137363 -5.995244 -29.401110 7
115.127782 7.871932 -32.206204 5
109.364010 -1.091872 -36.321444 5
105.449434 -3.905893 -37.656411 5
102.297427 -4.030299 -37.773462 5
99.212490 -3.950725 -37.792948 5
96.137594 -3.880265 -37.810890 5
93.087823 -3.749220 -37.795984 5
90.036642 -3.670693 -37.799136 5
86.995150 -3.594478 -37.797796 5
83.948800 -3.594158 -37.825060 5
80.924807 -3.527700 -37.817130 5
77.897171 -3.533068 -37.836021 5
74.886768 -3.488424 -37.827026 5
71.876901 -3.492084 -37.834329 5
68.873126 -3.510014 -37.842665 5
65.883931 -3.473525 -37.821204 5
64.229768 8.063626 -32.628423 5
58.863024 -13.486770 -42.293454 9
55.766309 -15.873295 -43.345456 9
52.727974 -18.215383 -44.372813 9
49.776653 -20.096337 -45.188335 9
46.913937 -21.252488 -45.673417 9
44.105249 -21.897705 -45.924041 9
41.331835 -22.084078 -45.963453 9
38.568876 -22.121707 -45.931022 9
35.807187 -22.195191 -45.909798 9
33.048198 -22.228068 -45.865345 9
30.289986 -22.349479 -45.855848 9
27.533070 -22.381783 -45.801233 9
24.776988 -22.468482 -45.766187 9
22.021270 -22.556212 -45.726642 9
19.266153 -22.663380 -45.690901 9
16.509507 -22.747195 -45.639612 9
13.753211 -22.858897 -45.595925 9
10.994047 -22.949326 -45.537575 9
8.234027 -23.057664 -45.482281 9
5.471210 -23.162932 -45.420515 9
2.709450 -23.308676 -45.372026 9
-0.060986 -23.403258 -45.295165 9
-2.830637 -23.540130 -45.232369 9
-5.607116 -23.657232 -45.155379 9
-8.385278 -23.798104 -45.083991 9
-11.170683 -23.926040 -45.001435 9
-13.954014 -24.102750 -44.935866 9
-16.755663 -24.208029 -44.832281 9
-19.545551 -24.416770 -44.770691 9
-22.355047 -24.557815 -44.672653 9
-25.163684 -24.741882 -44.588889 9
-27.974040 -24.953739 -44.512412 9
-30.815713 -25.064495 -44.383789 9
-33.649268 -25.252783 -44.285240 9
-36.495126 -25.430621 -44.176169 9
-39.337033 -25.663101 -44.086640 9
-42.203369 -25.843206 -43.967046 9
-45.155363 -25.766225 -43.722026 9
-48.277158 -25.181690 -43.234229 9
-51.690432 -23.754968 -42.346143 9
-55.393373 -21.583985 -41.101191 9
-60.273090 -16.082740 -38.286130 9
-64.834293 -11.933119 -36.088310 8
-67.935164 -12.217023 -35.960062 8
-71.031847 -12.554852 -35.850470 8
-74.145515 -12.887897 -35.731868 8
-77.270015 -13.234390 -35.612762 8
-80.413009 -13.576186 -35.484475 8
-83.574310 -13.916181 -35.348254 8
-86.758135 -14.246689 -35.200307 8
-89.935413 -14.636649 -35.073398 8
-93.151009 -14.983948 -34.918716 8
-96.400617 -15.303267 -34.743017 8
-99.629136 -15.714331 -34.603666 8
-102.903426 -16.075512 -34.432526 8
-106.385574 -16.070057 -34.076013 8
-111.878777 -12.229585 -31.849905 8
-118.075416 -7.314775 -29.081268 7
-121.476016 -7.868694 -28.957310 7
-124.925886 -8.377358 -28.802715 7
-128.398313 -8.892949 -28.642715 7
-131.895233 -9.413689 -28.476273 7
-135.417051 -9.940580 -28.303708 7
-138.982293 -10.444881 -28.110602 7
-142.571681 -10.961079 -27.913772 7
-146.193616 -11.477324 -27.707138 7
-149.840595 -12.007224 -27.497274 7
146.874015 1.298179 -29.956187 6
143.570312 1.622352 -29.956970 6
140.287846 1.956713 -29.946071 6
137.042091 2.346491 -29.902443 6
133.804968 2.720862 -29.859311 6
130.565190 3.047977 -29.831583 6
127.320367 3.318193 -29.823760 6
124.112612 3.658342 -29.776765 6
120.922665 4.016762 -29.714782 6
116.446778 0.056822 -31.654758 5
111.976132 -4.255116 -33.749245 5
107.420551 -9.280423 -36.166119 5
104.118009 -10.088816 -36.616508 5
101.065408 -10.049309 -36.667007 5
98.048535 -9.919229 -36.669495 5
95.029682 -9.844101 -36.691531 5
92.016113 -9.796388 -36.720368 5
89.027611 -9.683904 -36.713335 5
86.030563 -9.659838 -36.741431 5
83.054001 -9.583473 -36.739518 5
80.078377 -9.550517 -36.751940 5
77.107539 -9.542703 -36.770265 5
74.151952 -9.495105 -36.764476 5
71.195466 -9.504095 -36.779190 5
68.248180 -9.504737 -36.784386 5
65.309529 -9.494553 -36.778939 5
61.962663 -13.052826 -38.418818 9
58.820182 -15.442975 -39.512923 9
55.505782 -20.223933 -41.708172 9
52.528323 -22.266133 -42.631159 9
49.626813 -23.916429 -43.367786 9
46.800849 -24.978043 -43.826915 9
44.026391 -25.544286 -44.051616 9
41.284071 -25.691497 -44.077084 9
38.551569 -25.686366 -44.026743 9
35.818668 -25.751931 -44.003942 9
33.088061 -25.799556 -43.967592 9
30.358603 -25.863984 -43.933802 9
27.630193 -25.936302 -43.898436 9
24.903087 -26.044362 -43.874432 9
22.175138 -26.097948 -43.819853 9
19.447690 -26.185534 -43.775806 9
16.717351 -26.230482 -43.706612 9
13.988497 -26.334526 -43.659623 9
11.255141 -26.396352 -43.587619 9
8.526978 -26.556212 -43.556006 9
5.788823 -26.623586 -43.475844 9
3.052070 -26.742029 -43.414135 9
0.307243 -26.819249 -43.327697 9
-2.432099 -26.978957 -43.274423 9
-5.179332 -27.107091 -43.200875 9
-7.934210 -27.216109 -43.112817 9
-10.686730 -27.377463 -43.043781 9
-13.454088 -27.481790 -42.942308 9
-16.219900 -27.634694 -42.858044 9
-18.992346 -27.787690 -42.768132 9
-21.782686 -27.887334 -42.647251 9
-24.570103 -28.043647 -42.547329 9
-27.362461 -28.215524 -42.448927 9
-30.165544 -28.378531 -42.340415 9
-32.970701 -28.571994 -42.240409 9
-35.794120 -28.730814 -42.117897 9
-38.614315 -28.942669 -42.014565 9
-41.460584 -29.097633 -41.877921 9
-44.350506 -29.143599 -41.682795 9
-47.722614 -27.629666 -40.732835 9
-51.460522 -25.104046 -39.287230 9
-55.025259 -23.351441 -38.202301 9
-58.905786 -20.829773 -36.735956 9
-64.780319 -12.756972 -32.573951 8
-66.607569 -16.614711 -34.167740 8
-69.683046 -16.900114 -34.027498 8
-72.774945 -17.184910 -33.879750 8
-75.880059 -17.479409 -33.729404 8
-79.001410 -17.777342 -33.573307 8
-82.139585 -18.079046 -33.411509 8
-85.297158 -18.380231 -33.241784 8
-88.457685 -18.720269 -33.083374 8
-91.668774 -18.992950 -32.883867 8
-94.883354 -19.306762 -32.696535 8
-98.110724 -19.641049 -32.511133 8
-101.360090 -19.977483 -32.318466 8
-104.649363 -20.282360 -32.101566 8
-108.575559 -19.405226 -31.284656 8
-114.871518 -14.166959 -28.267562 8
-119.274278 -12.735430 -27.140145 7
-122.713284 -13.172648 -26.940948 7
-126.180022 -13.610369 -26.732547 7
-129.685951 -14.030996 -26.505797 7
-133.222674 -14.451839 -26.269214 7
-136.765221 -14.915797 -26.044499 7
-140.371202 -15.330047 -25.784024 7
-144.015705 -15.738945 -25.510109 7
-146.888978 -17.381492 -25.862444 7
147.621471 -6.344243 -29.301995 6
144.330119 -6.129894 -29.369868 6
141.079779 -5.863212 -29.405030 6
137.828353 -5.647150 -29.457320 6
134.593060 -5.437734 -29.505563 6
131.375922 -5.227613 -29.546300 6
128.170627 -5.032496 -29.587169 6
124.992910 -4.804630 -29.605293 6
121.819643 -4.609399 -29.632168 6
117.512396 -8.086416 -31.412996 5
114.136681 -8.797143 -31.858882 5
109.941203 -12.447299 -33.704778 5
106.286728 -14.512172 -34.783127 5
103.176277 -14.777825 -34.993419 5
100.174220 -14.702954 -35.034421 5
97.191175 -14.602196 -35.056741 5
94.205627 -14.560588 -35.101044 5
91.245629 -14.458565 -35.110288 5
88.274958 -14.453684 -35.159701 5
85.326276 -14.396893 -35.178209 5
82.381240 -14.371783 -35.205718 5
79.458902 -14.275058 -35.193031 5
76.530581 -14.258139 -35.212345 5
73.606599 -14.268420 -35.238608 5
70.696281 -14.244844 -35.242764 5
67.792441 -14.227194 -35.243792 5
64.890866 -14.245235 -35.255888 5
61.626816 -17.425402 -36.768030 9
58.546833 -19.561912 -37.777403 9
55.465122 -22.242639 -39.040418 9
52.485802 -24.439139 -40.067389 9
49.530369 -26.988634 -41.257294 9
46.718375 -28.192078 -41.800614 9
43.970188 -28.731808 -42.022267 9
41.253277 -28.864289 -42.044323 9
38.543382 -28.922516 -42.025464 9
35.837417 -28.915855 -41.970118 9
33.131051 -28.992116 -41.948819 9
30.426467 -29.064777 -41.920281 9
27.722565 -29.084595 -41.860952 9
25.019562 -29.175314 -41.829965 9
22.316400 -29.245429 -41.783571 9
19.612403 -29.307618 -41.727806 9
16.907066 -29.367501 -41.665336 9
14.203895 -29.492157 -41.628311 9
11.494451 -29.543503 -41.550493 9
8.786926 -29.655541 -41.496152 9
6.074620 -29.741534 -41.423620 9
3.357145 -29.811025 -41.337424 9
0.629450 -29.829244 -41.220750 9
-2.096147 -29.912471 -41.129572 9
-4.837361 -29.918798 -40.995416 9
-7.577961 -29.980059 -40.881848 9
-10.325630 -30.039727 -40.761548 9
-13.085893 -30.068617 -40.620314 9
-15.839611 -30.182944 -40.514431 9
-18.612614 -30.234667 -40.372064 9
-21.404173 -30.240625 -40.201220 9
-24.197372 -30.291026 -40.045698 9
-26.994278 -30.372823 -39.899151 9
-29.793650 -30.489618 -39.763337 9
-32.616051 -30.554957 -39.595936 9
-35.449125 -30.626539 -39.425040 9
-38.293943 -30.702046 -39.249442 9
-41.148260 -30.791527 -39.074008 9
-44.050257 -30.763413 -38.833829 9
-47.173403 -30.054964 -38.250579 9
-50.554895 -28.623799 -37.301269 9
-54.153815 -26.676480 -36.086037 9
-57.835347 -24.672927 -34.831566 9
-61.537758 -22.800791 -33.630796 9
-65.523080 -20.318106 -32.113730 8
-68.564447 -20.607756 -31.969180 8
-71.645540 -20.835001 -31.785795 8
-74.743521 -21.065668 -31.596294 8
-77.839227 -21.348823 -31.425252 8
-80.959689 -21.617210 -31.238788 8
-83.618805 -23.005440 -31.610574 8
-86.790375 -23.218663 -31.381121 8
-89.963367 -23.479150 -31.167141 8
-93.157536 -23.742843 -30.946200 8
-96.389715 -23.976423 -30.701116 8
-101.103850 -21.252393 -28.931197 8
-102.895221 -24.514585 -30.220218 8
-106.427318 -24.320543 -29.727214 8
-111.788384 -20.761099 -27.483402 8
-117.559712 -16.688664 -24.951819 7
-120.441175 -18.055222 -25.225431 7
-123.965382 -18.302414 -24.908060 7
-127.459829 -18.658497 -24.636944 7
-131.031117 -18.940320 -24.316194 7
-134.635904 -19.225747 -23.986198 7
-138.210412 -19.618308 -23.701467 7
-141.890476 -19.901575 -23.347444 7
-145.613974 -20.179564 -22.978629 7
149.235932 -11.626627 -27.616450 6
145.962005 -11.435923 -27.713542 6
142.706694 -11.252551 -27.806331 6
139.473792 -11.065300 -27.889335 6
136.272008 -10.848794 -27.950064 6
133.069805 -10.682701 -28.028202 6
129.885598 -10.518489 -28.099704 6
126.715905 -10.363946 -28.168518 6
123.569680 -10.191080 -28.220870 6
120.433532 -10.036616 -28.275022 6
116.084947 -13.791113 -30.251892 5
112.309259 -15.996207 -31.454010 5
108.824819 -17.432830 -32.268503 5
105.453469 -18.640063 -32.961988 5
102.440688 -18.673631 -33.070102 5
99.467014 -18.616356 -33.126747 5
96.517253 -18.514679 -33.154902 5
93.569018 -18.454368 -33.196798 5
90.626638 -18.419263 -33.244520 5
87.710594 -18.314468 -33.251517 5
84.790152 -18.276801 -33.285011 5
81.878090 -18.247880 -33.316371 5
78.971416 -18.242229 -33.352753 5
76.083994 -18.179395 -33.354744 5
73.198699 -18.150949 -33.367281 5
70.320950 -18.123906 -33.374219 5
67.446119 -18.127558 -33.389938 5
64.675824 -17.371549 -33.027189 5
61.367507 -21.114420 -34.862645 9
58.348241 -22.950789 -35.757818 9
55.373677 -24.781374 -36.644195 9
52.445179 -26.580217 -37.509192 9
49.568334 -28.250964 -38.305705 9
46.758233 -29.487951 -38.883952 9
43.998043 -30.337952 -39.266820 9
41.282730 -30.623495 -39.367148 9
38.583313 -30.665322 -39.342104 9
35.886968 -30.666522 -39.291266 9
33.190759 -30.718466 -39.259485 9
30.495824 -30.773743 -39.223487 9
27.801441 -30.800083 -39.167397 9
25.107155 -30.849069 -39.116557 9
22.412952 -30.914475 -39.067906 9
19.718279 -30.983181 -39.014978 9
17.021450 -31.030670 -38.945668 9
14.325295 -31.122843 -38.892445 9
11.627113 -31.210076 -38.830830 9
8.925333 -31.281872 -38.755603 9
6.219339 -31.342770 -38.668954 9
3.510484 -31.414526 -38.581608 9
0.805151 -31.554850 -38.522147 9
-1.909856 -31.645081 -38.431757 9
-4.631217 -31.725664 -38.330408 9
-7.349534 -31.866856 -38.252977 9
-10.074688 -31.996968 -38.163827 9
-12.813926 -32.078385 -38.044133 9
-15.551592 -32.210856 -37.943544 9
-18.294551 -32.352530 -37.841180 9
-21.036161 -32.538026 -37.754331 9
-23.809924 -32.604839 -37.601562 9
-26.573249 -32.764899 -37.488946 9
-29.348943 -32.909921 -37.362173 9
-32.134300 -33.055590 -37.229032 9
-34.938515 -33.168325 -37.072505 9
-37.740782 -33.332721 -36.935178 9
-40.562421 -33.468191 -36.776300 9
-43.452523 -33.410707 -36.512504 9
-46.507937 -32.862279 -35.991720 9
-49.823822 -31.574310 -35.085812 9
-53.315784 -29.889209 -33.967047 9
-56.884672 -28.147112 -32.807819 9
-60.542756 -26.321747 -31.594200 9
-65.264926 -21.705676 -28.935688 8
-67.321866 -24.638856 -30.142457 8
-70.365510 -24.867972 -29.952972 8
-73.442105 -25.059162 -29.735689 8
-76.531562 -25.267322 -29.518772 8
-79.626298 -25.511164 -29.311855 8
-82.761975 -25.706928 -29.071310 8
-85.916087 -25.911458 -28.826461 8
-89.087475 -26.128640 -28.579210 8
-92.270300 -26.371971 -28.336520 8
-95.482412 -26.604324 -28.078784 8
-98.725254 -26.825662 -27.805747 8
-101.970860 -27.094054 -27.547901 8
-105.373040 -27.112195 -27.147427 8
-109.735928 -25.392626 -25.810817 8
-115.923484 -20.484381 -22.754114 8
-119.398503 -20.722807 -22.427223 7
-122.896149 -20.979157 -22.098876 7
-126.423301 -21.242641 -21.763093 7
-130.044907 -21.406968 -21.362119 7
-133.626283 -21.699939 -21.018840 7
-137.274216 -21.945578 -20.637784 7
-140.952021 -22.206229 -20.252477 7
-144.646766 -22.502801 -19.874176 7
147.968237 -15.673531 -25.584888 6
144.730167 -15.484289 -25.693393 6
141.506810 -15.311561 -25.802002 6
138.301911 -15.145138 -25.905573 6
135.119170 -14.973707 -25.998422 6
131.969188 -14.766087 -26.064739 6
128.816168 -14.615360 -26.152187 6
125.677315 -14.475733 -26.237425 6
122.551451 -14.349422 -26.321658 6
119.435543 -14.244670 -26.409151 6
114.686269 -19.369837 -29.146410 5
112.354438 -16.990131 -28.061410 5
108.076965 -21.130328 -30.278108 5
104.806634 -22.083408 -30.868757 5
101.841313 -22.044977 -30.949329 5
98.896464 -21.981573 -31.010176 5
95.974267 -21.878254 -31.043830 5
93.053349 -21.816745 -31.091698 5
90.140236 -21.771347 -31.140814 5
87.244705 -21.695989 -31.167956 5
84.351006 -21.659838 -31.208103 5
81.469983 -21.610096 -31.234638 5
78.592938 -21.588533 -31.268677 5
75.728521 -21.546439 -31.285687 5
72.864469 -21.552048 -31.320110 5
70.015340 -21.514577 -31.326206 5
67.175320 -21.461423 -31.317825 5
64.368657 -21.195744 -31.195804 5
61.164760 -24.300110 -32.765382 9
58.168162 -26.145251 -33.693963 9
55.248374 -27.656309 -34.447879 9
52.352473 -29.315679 -35.270340 9
49.491142 -31.036006 -36.117472 9
46.704155 -32.226903 -36.691776 9
43.974966 -32.873278 -36.985574 9
41.281644 -33.068829 -37.045972 9
38.598036 -33.151873 -37.043494 9
35.919173 -33.160221 -36.997173 9
33.240859 -33.197630 -36.959354 9
30.563514 -33.241675 -36.918721 9
27.886741 -33.284353 -36.871221 9
25.210741 -33.366835 -36.837666 9
22.534048 -33.415358 -36.780742 9
19.856418 -33.464029 -36.717673 9
17.180377 -33.573286 -36.679070 9
14.498998 -33.607626 -36.596245 9
11.817526 -33.680661 -36.526759 9
9.132797 -33.745777 -36.446943 9
6.447360 -33.838981 -36.375067 9
3.760781 -33.952765 -36.307313 9
1.060958 -33.980436 -36.189304 9
-1.639998 -34.045360 -36.083794 9
-4.341637 -34.146230 -35.990131 9
-7.042036 -34.292174 -35.912995 9
-9.751233 -34.413741 -35.816865 9
-12.467535 -34.529121 -35.710966 9
-15.188573 -34.655946 -35.604279 9
-17.919958 -34.765791 -35.482157 9
-20.659568 -34.874970 -35.352896 9
-23.412650 -34.961669 -35.205182 9
-26.160884 -35.114237 -35.084501 9
-28.928818 -35.220999 -34.933190 9
-31.692129 -35.390074 -34.807055 9
-34.470854 -35.537568 -34.662647 9
-37.258567 -35.692646 -34.514983 9
-40.056886 -35.850945 -34.361721 9
-42.915121 -35.844301 -34.115057 9
-45.899641 -35.473442 -33.670254 9
-49.101344 -34.490188 -32.896109 9
-52.585722 -32.760577 -31.720223 9
-56.110703 -31.085507 -30.561045 9
-59.725026 -29.322675 -29.343469 9
-65.277074 -22.341811 -25.357615 8
-66.659005 -27.095752 -27.557396 8
-69.696596 -27.293336 -27.342449 8
-72.750166 -27.497821 -27.122485 8
-75.828098 -27.690095 -26.887193 8
-78.906587 -27.930022 -26.668361 8
-82.013060 -28.152100 -26.430928 8
-85.143123 -28.369741 -26.181857 8
-88.326633 -28.520022 -25.887063 8
-91.510638 -28.723172 -25.611001 8
-94.722769 -28.919810 -25.321552 8
-97.953041 -29.132659 -25.030830 8
-101.238441 -29.289780 -24.699506 8
-104.509622 -29.530431 -24.403194 8
-108.550584 -28.384481 -23.336155 8
-114.803513 -23.325116 -20.101274 8
-118.649941 -22.860248 -19.371253 7
-122.141229 -23.103032 -19.018752 7
-125.674918 -23.331694 -18.646485 7
-129.252982 -23.546144 -18.254037 7
-132.878554 -23.744513 -17.839981 7
-136.508729 -23.998055 -17.443913 7
-140.232871 -24.167123 -16.987156 7
-143.967493 -24.385909 -16.544743 7
-147.715840 -24.648708 -16.113402 7
149.867446 -20.016763 -23.555995 6
146.680880 -19.745531 -23.640356 6
143.520188 -19.460889 -23.708873 6
140.376650 -19.180680 -23.771118 6
137.230833 -18.951832 -23.851929 6
134.127936 -18.660107 -23.891181 6
131.009745 -18.452471 -23.966364 6
127.911042 -18.239140 -24.030277 6
124.832395 -18.015612 -24.080669 6
121.757894 -17.825297 -24.140392 6
117.900590 -20.066068 -25.464056 5
113.800967 -23.294385 -27.293376 5
109.700646 -26.825945 -29.269845 5
106.417760 -27.908782 -29.957709 5
103.474488 -27.934165 -30.085825 5
100.561009 -27.908497 -30.179859 5
97.668678 -27.855682 -30.252392 5
94.793123 -27.786875 -30.309323 5
91.926318 -27.730723 -30.365623 5
89.092309 -27.580259 -30.365773 5
86.237415 -27.566559 -30.429878 5
83.401953 -27.511878 -30.465642 5
80.572972 -27.472718 -30.502451 5
77.755713 -27.419854 -30.525187 5
74.947805 -27.360874 -30.537830 5
72.136455 -27.369902 -30.578834 5
69.344487 -27.306284 -30.575333 5
66.546534 -27.329989 -30.610249 5
63.761870 -27.309278 -30.615353 5
61.003069 -27.121355 -30.527080 9
58.044004 -28.802694 -31.400202 9
55.142912 -30.310656 -32.176844 9
52.265589 -31.967747 -33.024184 9
49.446397 -33.377191 -33.736830 9
46.673972 -34.582578 -34.337436 9
43.962401 -35.199555 -34.626843 9
41.282313 -35.455565 -34.722800 9
38.615335 -35.538451 -34.722583 9
35.953377 -35.536303 -34.671803 9
33.291413 -35.588987 -34.642995 9
30.630787 -35.631864 -34.602627 9
27.970831 -35.687018 -34.562152 9
25.311366 -35.752860 -34.520744 9
22.650782 -35.781516 -34.453495 9
19.990443 -35.850055 -34.400462 9
17.329345 -35.924285 -34.343858 9
14.665977 -35.985438 -34.273879 9
11.998923 -36.027164 -34.187170 9
9.328798 -36.071070 -34.094954 9
6.659801 -36.167419 -34.023469 9
3.988899 -36.276164 -33.951804 9
1.301478 -36.270968 -33.813775 9
-1.376297 -36.394600 -33.736426 9
-4.063485 -36.480470 -33.632493 9
-6.753204 -36.587677 -33.532914 9
-9.454268 -36.659506 -33.407837 9
-12.164871 -36.716956 -33.268196 9
-14.869418 -36.852941 -33.162910 9
-17.588505 -36.948747 -33.029375 9
-20.314125 -37.053718 -32.893537 9
-23.057986 -37.114092 -32.726859 9
-25.787954 -37.283254 -32.610549 9
-28.539016 -37.399070 -32.458626 9
-32.027752 -34.551186 -30.721464 9
-34.049555 -37.722131 -32.181154 9
-36.837252 -37.821164 -31.997785 9
-39.625636 -37.963387 -31.829791 9
-42.444417 -38.043802 -31.620897 9
-45.394243 -37.738464 -31.196759 9
-48.534075 -36.904098 -30.478887 9
-51.949615 -35.336176 -29.355027 9
-55.454747 -33.666339 -28.163904 9
-60.505608 -27.730369 -24.648792 9
-65.240520 -23.117633 -21.828784 8
-66.089505 -29.297009 -24.861351 8
-69.135657 -29.432972 -24.603307 8
-72.184394 -29.613299 -24.360247 8
-75.269263 -29.754030 -24.086161 8
-78.353193 -29.948806 -23.832183 8
-81.448104 -30.167578 -23.581812 8
-84.577041 -30.358682 -23.306429 8
-87.723401 -30.562666 -23.028190 8
-90.911999 -30.727858 -22.718252 8
-94.112481 -30.922133 -22.414047 8
-97.362055 -31.070398 -22.073538 8
-100.602573 -31.292310 -21.763346 8
-103.901304 -31.455794 -21.409352 8
-107.667170 -30.804901 -20.584588 8
-113.592726 -26.323506 -17.577426 8
-118.095876 -24.649249 -16.134726 7
-121.634359 -24.794005 -15.708824 7
-125.187361 -24.976570 -15.291615 7
-128.784947 -25.146906 -14.854310 7
-132.360604 -25.415483 -14.460127 7
-136.034521 -25.588318 -13.997239 7
-139.758058 -25.749119 -13.513251 7
-143.495424 -25.955006 -13.040985 7
-147.301366 -26.124683 -12.532834 7
149.011066 -23.026928 -21.097637 6
145.795800 -22.877171 -21.258482 6
142.608229 -22.716604 -21.404052 6
139.449358 -22.539576 -21.531449 6
136.300678 -22.388546 -21.663867 6
133.161972 -22.264217 -21.801755 6
130.057075 -22.103557 -21.911100 6
126.946287 -22.009517 -22.047685 6
123.866518 -21.881875 -22.157445 6
120.806734 -21.747110 -22.254816 6
117.757376 -21.631038 -22.353805 6
114.958551 -20.778668 -22.048741 5
109.196122 -29.583972 -26.921011 5
106.012938 -30.394660 -27.488053 5
103.096360 -30.388016 -27.608379 5
100.212121 -30.318524 -27.687216 5
97.340398 -30.251208 -27.759511 5
94.485788 -30.165279 -27.814220 5
91.633438 -30.117445 -27.881725 5
88.791769 -30.073460 -27.943765 5
85.961733 -30.026527 -27.996769 5
83.134464 -30.016089 -28.061831 5
80.330407 -29.940251 -28.084658 5
77.531173 -29.883825 -28.110537 5
