ply
format ascii 1.0
element vertex 1397
property float x
property float y
property float z
property int scalar_Label
end_header
24.642843 43.443274 23.570492 9
28.228490 39.939183 29.107350 9
30.934189 36.504756 33.271848 9
33.180843 33.126119 36.716334 9
36.051189 29.882909 41.119230 9
37.627411 26.588332 43.507944 9
38.867749 23.299608 45.367562 9
39.890928 20.015972 46.882045 9
40.773065 16.737894 48.169353 9
41.469813 13.448923 49.160558 9
42.054341 10.153257 49.969044 9
42.472067 6.832079 50.509891 9
42.781095 3.489517 50.873091 9
42.930760 0.105908 50.979670 9
42.945939 -3.321366 50.867941 9
42.805245 -6.806733 50.504266 9
42.530574 -10.352791 49.922266 9
42.057118 -13.989159 49.020542 9
41.396983 -17.723573 47.817274 9
40.465184 -21.598519 46.179220 9
39.258736 -25.631394 44.100676 9
36.961846 -30.167537 40.306667 9
33.396525 -35.344621 34.515073 9
10.063762 -49.384886 -2.207128 9
1.714728 107.418175 -4.388033 2
10.406568 101.282113 8.927936 2
10.547481 97.323548 9.263988 3
12.895657 92.940830 12.934530 3
12.888782 89.080168 13.026126 3
11.134079 85.516774 10.461600 1
11.114514 81.645359 10.515792 1
9.820895 77.946522 8.632221 1
10.132324 74.029092 9.168865 1
14.776281 69.716329 16.251091 1
14.623975 65.942683 16.066239 1
11.594808 62.341831 11.520664 4
11.584607 58.508941 11.532925 4
11.607082 54.677124 11.585368 4
11.608561 50.847628 11.596828 4
14.135281 47.040449 15.418192 9
14.463254 43.263145 15.905109 9
23.262405 39.861763 29.195673 9
26.053258 36.399024 33.390973 9
28.346729 32.991178 36.825998 9
31.403168 29.731551 41.407685 9
32.907075 26.398715 43.632922 9
34.161342 23.080315 45.472700 9
35.218329 19.770319 47.006189 9
36.097854 16.460953 48.263295 9
36.795012 13.141296 49.236462 9
37.370117 9.813072 50.016883 9
37.826844 6.469890 50.609981 9
38.099795 3.089360 50.916423 9
38.230601 -0.328541 50.999024 9
38.214625 -3.793458 50.850444 9
38.034002 -7.319242 50.443208 9
37.710146 -10.909072 49.809399 9
37.168209 -14.595864 48.834837 9
36.453910 -18.376785 47.588368 9
35.419455 -22.315511 45.844533 9
34.068806 -26.429187 43.608287 9
30.556804 -31.468325 38.067986 9
27.621679 -36.417171 33.390323 9
22.507444 -42.440713 25.372988 9
2.434968 106.353760 5.085130 2
5.647689 101.591933 9.961927 2
6.713767 97.413658 11.650679 3
11.788825 92.495249 19.258996 3
11.769784 88.676582 19.322251 3
8.384863 85.412620 14.401508 1
8.363376 81.552958 14.445409 1
6.597826 77.923263 11.903792 1
6.608508 74.043080 11.978709 1
11.372286 69.723763 19.065954 1
11.360683 65.937944 19.090075 1
7.991889 62.355726 14.148104 4
7.989895 58.518555 14.170254 4
7.978254 54.683790 14.169787 4
7.966267 50.849968 14.160447 4
8.832451 47.023655 15.439412 9
14.490286 43.348693 23.785385 9
18.216222 39.782837 29.271100 9
21.105316 36.291890 33.513688 9
23.460728 32.855571 36.960919 9
26.594363 29.568780 41.550632 9
28.104799 26.204672 43.735890 9
29.393743 22.858589 45.586902 9
30.456903 19.517818 47.097267 9
31.360188 16.180711 48.364298 9
32.045689 12.827907 49.302275 9
32.641990 9.472698 50.101165 9
33.057877 6.090186 50.625932 9
33.323408 2.677175 50.920812 9
33.442454 -0.774013 50.991292 9
33.402838 -4.275112 50.819056 9
33.171887 -7.844590 50.355354 9
32.823571 -11.471151 49.709386 9
32.210816 -15.208887 48.662696 9
31.399125 -19.050813 47.311773 9
30.281774 -23.046496 45.497561 9
28.766798 -27.247786 43.082527 9
24.932730 -32.427854 37.209800 9
21.693364 -37.523374 32.205832 9
15.079343 -44.198383 22.165285 9
-3.961322 107.067473 3.948258 2
1.173632 101.829848 11.478807 2
1.959703 97.697169 12.714932 3
10.725786 92.056231 25.466074 3
10.710965 88.275982 25.526002 3
5.780583 85.289917 18.483473 1
5.267198 81.513964 17.810394 1
0.766743 78.230552 11.377421 1
2.146099 74.160158 13.420950 1
7.392169 69.785036 21.033435 1
7.325870 65.992310 20.975010 1
3.678018 62.411512 15.744274 4
3.677484 58.558376 15.766154 4
3.638879 54.708371 15.725580 4
3.607729 50.858323 15.688210 4
3.841296 47.009888 16.024986 9
9.277903 43.299710 23.856543 9
13.141469 39.704654 29.412985 9
16.182303 36.188847 33.776377 9
18.499584 32.717615 37.089801 9
21.700267 29.402126 41.671009 9
23.220634 26.006465 43.822398 9
24.535062 22.630840 45.670329 9
25.622901 19.261175 47.184963 9
26.544768 15.894958 48.453694 9
27.250085 12.514100 49.403411 9
27.855830 9.129511 50.202858 9
28.215413 5.704456 50.640198 9
28.465765 2.256773 50.912982 9
28.584955 -1.225316 50.989343 9
28.499090 -4.768770 50.762217 9
28.265417 -8.369048 50.314029 9
27.807672 -12.057362 49.534102 9
27.145831 -15.840067 48.450850 9
26.249335 -19.739001 47.019502 9
25.025267 -23.800047 45.104801 9
23.380147 -28.075995 42.570348 9
19.194312 -33.405824 36.340636 9
15.420030 -38.738598 30.693609 9
2.677896 -47.997268 12.010721 9
-5.491182 102.554840 9.955201 2
-5.642632 98.565988 9.832490 2
9.667020 91.630820 31.506058 3
7.830839 88.205824 28.988986 3
2.329920 85.305460 21.300542 1
2.871117 81.378735 22.123670 1
2.368923 77.606906 21.469509 1
2.408248 73.766553 21.571749 1
2.722395 69.908063 22.054386 1
2.687607 66.090645 22.038715 1
-1.588802 62.521325 16.042190 4
-1.620742 58.638138 16.017549 4
-1.643628 54.755835 15.998876 4
-1.630245 50.873775 16.024501 4
-1.359797 46.994713 16.405371 9
3.991102 43.250089 23.934382 9
7.986521 39.625076 29.548209 9
11.065448 36.077094 33.865256 9
13.427848 32.574818 37.167208 9
16.732871 29.232900 41.791293 9
18.318379 25.811199 43.987510 9
19.663103 22.407065 45.838764 9
20.734189 19.003167 47.298698 9
21.650756 15.603892 48.535099 9
22.391423 12.197070 49.517755 9
22.953625 8.772662 50.242922 9
23.333587 5.320170 50.705122 9
23.601171 1.845329 51.002724 9
23.646047 -1.684972 50.979869 9
23.511273 -5.271723 50.697026 9
23.238583 -8.913438 50.212832 9
22.722545 -12.648903 49.378061 9
22.001628 -16.479646 48.246606 9
21.012974 -20.437787 46.729133 9
19.635783 -24.579846 44.654160 9
17.829434 -28.941904 41.963300 9
13.283708 -34.423136 35.384773 9
8.901782 -40.018089 29.024819 9
8.649346 98.655137 37.296390 3
8.632309 94.931599 37.347213 3
7.754812 91.379675 36.206980 3
3.299932 88.422465 30.134906 3
-4.639277 85.868043 19.261792 1
-1.585131 81.534448 23.520318 1
-0.705961 77.574572 24.777806 1
-0.612669 73.733143 24.947432 1
-0.634341 69.910519 24.952895 1
-0.596276 66.087402 25.034651 1
-8.980790 62.749675 13.521970 4
-9.005149 58.800926 13.506687 4
-9.021396 54.853341 13.496484 4
-9.006866 50.906269 13.522547 4
-7.451253 46.972653 15.662665 9
-1.354905 43.200245 24.043766 9
2.741065 39.543766 29.667293 9
5.886586 35.964559 33.977833 9
8.319049 32.432824 37.302047 9
11.639490 29.056541 41.843101 9
13.307805 25.609245 44.105710 9
14.655654 22.172204 45.922185 9
15.793182 18.744269 47.444070 9
16.689024 15.309520 48.628117 9
17.421852 11.868838 49.582543 9
17.990100 8.413151 50.305096 9
18.356297 4.925896 50.744026 9
18.555823 1.404108 50.947895 9
18.623753 -2.152954 50.964862 9
18.477873 -5.773621 50.681398 9
18.116727 -9.469863 50.095190 9
17.579130 -13.242226 49.259446 9
16.740045 -17.138733 48.001277 9
15.624937 -21.167500 46.355295 9
14.159371 -25.368941 44.218139 9
11.928408 -29.910014 41.015778 9
7.200418 -35.478052 34.353193 9
2.043420 -41.396020 27.085315 9
7.669574 109.303584 42.920869 3
7.646240 105.585112 42.968759 3
7.358308 101.940395 42.655238 3
5.624847 98.613296 40.390898 3
3.865251 95.245528 38.087279 3
1.982280 91.853254 35.613471 3
-1.921328 88.751053 30.416995 3
-8.252459 81.989378 21.998791 1
-7.016376 77.934516 23.702784 1
-6.958443 74.049027 23.816979 1
-6.941597 70.174441 23.870698 1
-6.936352 66.305798 23.903614 1
-13.047334 46.955132 15.741114 9
-6.802795 43.149173 24.129637 9
-2.567178 39.461937 29.812953 9
0.629696 35.850408 34.095271 9
3.126372 32.288260 37.431726 9
6.562866 28.886027 42.027265 9
8.243507 25.406655 44.257761 9
9.575447 21.934370 46.014918 9
10.733730 18.475547 47.534070 9
11.655368 15.011428 48.730456 9
12.384197 11.537228 49.662951 9
12.929185 8.044505 50.343519 9
13.295312 4.524553 50.778738 9
13.512504 0.974394 51.008747 9
13.472347 -2.639500 50.887430 9
13.327496 -6.292288 50.620101 9
12.908491 -10.035341 49.978325 9
12.294379 -13.860688 49.068257 9
11.384981 -17.809129 47.754562 9
10.206262 -21.888201 46.071784 9
8.570878 -26.175151 43.766764 9
4.413214 -31.419495 38.051735 9
0.917210 -36.578766 33.220223 9
-5.434137 -42.975396 24.524090 9
6.692807 119.860310 48.426805 3
6.678507 116.136336 48.488368 3
6.689039 112.419545 48.578153 3
5.026536 109.158320 46.461772 3
3.276443 105.877578 44.226737 3
1.503957 102.557400 41.958821 3
-0.286434 99.195165 39.663878 3
-2.083067 95.787099 37.357186 3
-3.943098 92.342765 34.963533 3
-7.476855 89.127362 30.366083 3
-18.775374 46.936999 15.766143 9
-12.340959 43.097217 24.213400 9
-7.988700 39.377636 29.921500 9
-4.703614 35.734834 34.223755 9
-2.157662 32.140744 37.551108 9
1.326384 28.705766 42.107047 9
3.058264 25.196590 44.357286 9
4.431361 21.694816 46.132273 9
5.597409 18.203105 47.631333 9
6.520366 14.705423 48.807054 9
7.287165 11.203939 49.773621 9
7.799477 7.672450 50.401696 9
8.172289 4.120870 50.842333 9
8.325398 0.524457 50.989950 9
8.294610 -3.119911 50.891474 9
8.071031 -6.824175 50.535026 9
7.615626 -10.608871 49.869032 9
6.924047 -14.487441 48.887500 9
5.936678 -18.490107 47.511633 9
4.617352 -22.643781 45.693406 9
2.819086 -27.014433 43.238707 9
-1.671409 -32.393257 37.230213 9
-5.651811 -37.754290 31.885703 9
-14.402311 -45.078238 20.242880 9
5.739724 130.339057 53.863881 3
5.744256 126.599484 53.947415 3
5.739358 122.879873 54.015007 3
4.469039 119.566649 52.450716 3
2.729143 116.364590 50.279408 3
0.946995 113.132238 48.051007 3
-0.809232 109.849279 45.853152 3
-2.611659 106.534037 43.593054 3
-4.440652 103.179258 41.295927 3
-6.255331 99.774428 39.014267 3
-8.151088 96.338387 36.625434 3
-10.010919 92.845562 34.279732 3
-13.246153 89.529485 30.164125 3
-24.565889 46.918826 15.835386 9
-17.956134 43.044740 24.316893 9
-13.466740 39.293208 30.072851 9
-10.148370 35.616014 34.322057 9
-7.534828 31.990318 37.663048 9
-3.925354 28.528653 42.279530 9
-2.214084 24.982863 44.455636 9
-0.791590 21.451930 46.257693 9
0.380273 17.926654 47.734651 9
1.344686 14.400958 48.941922 9
2.057246 10.857036 49.822410 9
2.588666 7.295019 50.466864 9
2.932586 3.704336 50.867029 9
3.081342 0.073695 51.012946 9
2.993302 -3.616489 50.850974 9
2.725144 -7.364514 50.453796 9
2.241606 -11.189052 49.775908 9
1.443681 -15.128727 48.689773 9
0.363392 -19.190330 47.236268 9
-1.070887 -23.410708 45.322919 9
-3.046970 -27.869272 42.707604 9
-7.915060 -33.396065 36.364374 9
-12.540727 -39.013476 30.326012 9
4.786257 137.012436 59.293009 3
4.769131 133.283729 59.339712 3
3.970855 129.848115 58.400732 3
2.198937 126.731588 56.234656 3
0.467458 123.561273 54.117297 3
-1.344711 120.375518 51.896312 3
-3.147769 117.144032 49.684589 3
-4.947237 113.868250 47.475139 3
-6.808626 110.564638 45.185610 3
-8.634394 107.206223 42.938529 3
-10.512544 103.813961 40.623292 3
-12.438887 100.383942 38.245143 3
-14.364574 96.903864 35.865395 3
-16.300184 93.375063 33.470711 3
-19.224446 89.955492 29.832283 3
-30.476885 46.900174 15.878048 9
-23.670264 42.991271 24.416037 9
-19.100643 39.204856 30.144122 9
-15.645671 35.497296 34.470724 9
-12.999457 31.837539 37.779716 9
-9.326471 28.343235 42.374645 9
-7.569517 24.766091 44.562416 9
-6.124459 21.202324 46.356098 9
-4.932374 17.644512 47.829615 9
-3.977450 14.082528 49.002778 9
-3.235880 10.508498 49.905422 9
-2.721199 6.909348 50.520487 9
-2.381142 3.283860 50.913519 9
-2.297191 -0.393959 50.982104 9
-2.387447 -4.118496 50.828977 9
-2.721498 -7.915536 50.366608 9
-3.292059 -11.795596 49.603981 9
-4.158321 -15.786939 48.466532 9
-5.345103 -19.911777 46.922825 9
-6.912419 -24.204755 44.897132 9
-9.088739 -28.758522 42.101834 9
-14.337231 -34.433071 35.438668 9
-19.740258 -40.349386 28.575044 9
3.841718 143.626737 64.652832 3
3.858312 139.885754 64.729880 3
1.736884 136.977557 62.175952 3
-0.043918 133.895262 60.039303 3
-1.821416 130.772314 57.905106 3
-3.610717 127.613423 55.754769 3
-5.438272 124.425914 53.555773 3
-7.261407 121.194662 51.360528 3
-9.113357 117.928843 49.128183 3
-10.978242 114.622320 46.878221 3
-12.901236 111.285414 44.555145 3
-14.805045 107.896503 42.253844 3
-16.744105 104.468042 39.907446 3
-18.712536 100.996622 37.523148 3
-20.700535 97.478442 35.112949 3
-36.497240 46.881152 15.914606 9
-29.490479 42.936703 24.507251 9
-24.773094 39.117224 30.289345 9
-21.283260 35.374040 34.563460 9
-18.527446 31.684201 37.935034 9
-14.780265 28.157998 42.520775 9
-13.007598 24.546506 44.682187 9
-11.547088 20.948649 46.458578 9
-10.321705 17.359434 47.944439 9
-9.354998 13.763984 49.110844 9
-8.673077 10.145533 49.925708 9
-8.110575 6.519317 50.591910 9
-7.830648 2.847926 50.909166 9
-7.756071 -0.866506 50.972168 9
-7.898103 -4.636775 50.767012 9
-8.279469 -8.479167 50.265694 9
-8.915908 -12.409684 49.448762 9
-9.849018 -16.452357 48.264981 9
-11.140365 -20.639612 46.638550 9
-12.905364 -25.024061 44.427457 9
-15.256854 -29.664968 41.492743 9
-21.063614 -35.544416 34.308869 9
-27.486678 -41.840931 26.362679 9
2.918862 142.730268 70.053446 3
2.505989 139.195832 69.596961 3
-3.830394 137.889340 62.023564 3
-5.851805 134.848907 59.632996 3
-7.710155 131.705977 57.437167 3
-9.560750 128.518737 55.249495 3
-11.448595 125.301131 53.015923 3
-13.331313 122.038371 50.787315 3
-15.247124 118.740948 48.517771 3
-17.171909 115.400423 46.236226 3
-19.135833 112.023412 43.906455 3
-21.128036 108.605040 41.541481 3
-42.617605 46.861851 15.961889 9
-35.385276 42.881807 24.633854 9
-30.565512 39.027256 30.410871 9
-27.001199 35.249612 34.680693 9
-24.194013 31.525288 38.040978 9
-20.355560 27.967304 42.636689 9
-18.528119 24.324308 44.819022 9
-17.015945 20.696054 46.621763 9
-15.843562 17.064482 48.015478 9
-14.890075 13.430821 49.145152 9
-14.150270 9.785286 50.017017 9
-13.641647 6.114436 50.610042 9
-13.373012 2.405367 50.913617 9
-13.292041 -1.342946 50.990464 9
-13.489540 -5.159764 50.731566 9
-13.925222 -9.049221 50.185180 9
-14.641597 -13.033755 49.300199 9
-15.690145 -17.140894 48.014721 9
-17.108686 -21.397623 46.283206 9
-19.047456 -25.866742 43.925125 9
-23.794638 -31.287794 38.192989 9
-28.043451 -36.710268 33.056239 9
-35.807692 -43.491172 23.694801 9
2.019928 141.848712 75.356656 3
-0.573784 139.191669 72.335235 3
-9.163104 138.690944 62.276025 3
-11.859335 135.848940 59.133841 3
-13.732046 132.660929 56.957576 3
-15.655179 129.447676 54.721445 3
-17.587475 126.193668 52.473863 3
-19.573930 122.911179 50.162022 3
-21.517239 119.570256 47.900086 3
-41.399493 42.825615 24.746054 9
-36.490460 38.934605 30.500535 9
-32.791637 35.124505 34.834976 9
-29.961448 31.363583 38.149925 9
-26.000925 27.775623 42.789518 9
-24.161254 24.096758 44.941198 9
-22.646810 20.431685 46.710614 9
-21.422126 16.769703 48.139349 9
-20.466526 13.100111 49.251637 9
-19.733104 9.417512 50.102469 9
-19.263984 5.704037 50.642420 9
-19.005782 1.957034 50.934070 9
-18.990102 -1.840093 50.940322 9
-19.193147 -5.693914 50.689047 9
-19.716124 -9.638564 50.061480 9
-20.502064 -13.675369 49.124387 9
-21.674512 -17.849575 47.732763 9
-23.200883 -22.170794 45.924744 9
-25.298932 -26.720033 43.444731 9
-30.577631 -32.328354 37.231202 9
-35.288883 -37.932170 31.681678 9
1.096511 141.000364 80.511556 3
-3.675414 139.196375 75.045551 3
-13.731194 139.192700 63.518927 3
-17.965266 136.857865 58.669922 3
-19.893691 133.638304 56.465274 3
-21.877071 130.393680 54.197367 3
-23.849354 127.100939 51.941955 3
-48.794627 42.740497 23.403562 9
-42.449062 38.843019 30.678983 9
-38.717064 34.995583 34.957279 9
-35.788977 31.201930 38.313478 9
-31.795880 27.576645 42.890587 9
-29.890422 23.865712 45.073613 9
-28.369708 20.163767 46.815178 9
-27.099888 16.469887 48.268760 9
-26.147174 12.763107 49.358431 9
-25.425594 9.041994 50.182766 9
-24.971811 5.289432 50.699717 9
-24.740211 1.501215 50.961580 9
-24.762523 -2.339572 50.931961 9
-25.036438 -6.244515 50.613492 9
-25.616775 -10.238190 49.943291 9
-26.486611 -14.331059 48.940746 9
-27.731029 -18.559042 47.508260 9
-29.477556 -22.974915 45.499547 9
-31.756514 -27.611239 42.879790 9
-37.347175 -33.338365 36.461417 9
-43.004938 -39.273158 29.965447 9
0.201941 143.766777 85.593747 3
0.206545 140.160958 85.591201 3
-6.743718 139.188571 77.793107 3
-16.946610 139.193744 66.348863 3
-24.033805 137.828158 58.396983 3
-50.235892 38.687635 28.933398 9
-44.804147 34.861681 35.025002 9
-41.759009 31.035017 38.440794 9
-37.693696 27.374427 43.000785 9
-35.725570 23.630439 45.209498 9
-34.198548 19.891011 46.923897 9
-32.917951 16.160259 48.362275 9
-31.967315 12.415292 49.430972 9
-31.242565 8.656886 50.246687 9
-30.756594 4.872335 50.794972 9
-30.590936 1.035678 50.984418 9
-30.646330 -2.848404 50.926332 9
-31.009538 -6.808696 50.523450 9
-31.635176 -10.849340 49.826674 9
-32.597104 -15.000552 48.753212 9
-34.017330 -19.309313 47.166306 9
-35.866623 -23.789115 45.098758 9
-38.406737 -28.534844 42.257161 9
-44.503447 -34.438862 35.428865 9
-0.684255 142.911708 90.583874 3
-0.654232 139.331513 90.594138 3
-9.857120 139.197567 80.490955 3
-20.152143 139.191100 69.190554 3
-55.646407 34.493438 30.009968 9
-48.503816 30.822453 37.846203 9
-43.750774 27.164721 43.062924 9
-41.682650 23.389692 45.336325 9
-40.143194 19.612625 47.030888 9
-38.846722 15.844882 48.459884 9
-37.878098 12.063823 49.530274 9
-37.155251 8.266993 50.332068 9
-36.746125 4.431910 50.790792 9
-36.590473 0.555100 50.972534 9
-36.661905 -3.370035 50.906261 9
-37.081008 -7.379232 50.459815 9
-37.811880 -11.480438 49.672614 9
-38.838699 -15.684360 48.562064 9
-40.380719 -20.060147 46.887912 9
-42.457679 -24.636700 44.628639 9
-45.818245 -29.649509 40.963879 9
-1.538167 142.064965 95.504552 3
-3.280186 139.196105 93.602823 3
-12.954463 139.200033 83.209421 3
-23.400242 139.203077 71.988610 3
-78.263474 33.552908 12.725081 8
-63.618662 30.083726 28.437466 9
-55.042819 26.553871 37.642400 9
-49.010290 23.029162 44.121046 9
-46.683894 19.278031 46.626634 9
-45.103676 15.497947 48.333476 9
-43.997172 11.693144 49.533795 9
-43.256546 7.858817 50.343270 9
-42.854073 3.983207 50.791680 9
-42.705046 0.066167 50.969897 9
-42.832258 -3.908233 50.853547 9
-43.347771 -7.975655 50.322579 9
-44.221554 -12.146995 49.409294 9
-45.615310 -16.476490 47.940503 9
-47.934276 -21.088483 45.482119 9
-58.394419 -27.925812 34.302343 9
-2.359337 141.225786 100.359124 3
-6.273585 139.201845 96.213383 3
-16.054068 139.202570 85.929507 3
-26.622081 139.204951 74.819605 3
-84.930270 33.413148 13.072182 8
-78.320090 29.388883 20.014926 8
-73.966252 25.372691 24.593079 8
-64.626912 21.926029 34.401875 9
-59.288813 18.317102 40.015824 9
-55.493887 14.669187 44.013129 9
-53.214579 10.920587 46.422887 9
-51.727958 7.113029 48.003370 9
-50.970708 3.222671 48.821117 9
-50.817039 -0.759946 49.008175 9
-51.313477 -4.869871 48.515945 9
-52.689885 -9.182170 47.103720 9
-55.412859 -13.836593 44.282822 9
-61.567681 -19.374720 37.868629 9
-76.051958 -27.149405 22.731007 8
-3.218122 143.903355 105.144626 3
-3.184650 140.407903 105.112532 3
-9.237813 139.195632 98.859372 3
-19.124588 139.193690 88.684742 3
-91.730696 33.270437 13.420354 8
-85.098187 29.201880 20.236502 8
-80.623376 25.149376 24.841775 8
-74.250758 21.386332 31.396203 8
-71.928315 17.375858 33.798671 8
-70.231848 13.350841 35.561738 8
-69.014140 9.303956 36.836479 8
-68.276473 5.214455 37.621678 8
-67.954332 1.071917 37.983611 8
-68.104708 -3.151557 37.863987 8
-68.733541 -7.477587 37.256898 8
-69.927534 -11.944435 36.073696 8
-71.805091 -16.602149 34.193323 8
-74.698068 -21.556438 31.276119 8
-84.324537 -28.240790 21.464706 8
-4.057954 143.076453 109.805407 3
-4.030722 139.616641 109.753221 3
-12.240826 139.202619 101.472034 3
-22.277790 139.213027 91.362618 3
-98.701615 33.123176 13.738730 8
-92.008828 29.011427 20.468771 8
-87.455557 24.918533 25.055312 8
-80.986748 21.115373 31.566598 8
-78.649556 17.061991 33.936007 8
-76.919570 12.996795 35.699537 8
-75.746485 8.900759 36.907759 8
-74.996246 4.769558 37.695250 8
-74.729559 0.575584 38.001273 8
-74.930927 -3.699161 37.841555 8
-75.702824 -8.093676 37.113592 8
-77.049304 -12.633193 35.813624 8
-79.134821 -17.377341 33.777200 8
-82.299622 -22.434789 30.663913 8
-93.016681 -29.405831 19.990584 8
-4.828113 142.240680 114.446803 3
-5.796878 139.190348 113.409004 3
-15.199626 139.191909 104.136248 3
-25.334550 139.196772 94.144997 3
-99.010349 28.820231 20.758347 8
-94.425676 24.683250 25.278737 8
-87.848146 20.840212 31.758094 8
-85.514456 16.741457 34.077033 8
-83.768782 12.633107 35.822895 8
-82.574253 8.495417 37.031975 8
-81.846630 4.317290 37.787049 8
-81.701404 0.061147 37.975045 8
-81.992756 -4.272839 37.739190 8
-82.820724 -8.721489 36.981664 8
-84.320501 -13.334064 35.570303 8
-86.650751 -18.172273 33.350097 8
-94.751503 -24.375296 25.482165 8
-102.339538 -30.691739 18.124483 8
-5.653717 141.444565 118.949084 3
-8.705018 139.198515 115.933546 3
-18.229893 139.205390 106.739717 3
-28.435325 139.194372 96.892407 3
-118.117744 27.909507 9.576452 7
-101.569962 24.441113 25.483203 8
-94.862787 20.558681 31.949093 8
-92.490918 16.417799 34.258818 8
-90.752097 12.263335 35.965527 8
-89.557094 8.080591 37.154978 8
-88.933832 3.843196 37.800571 8
-88.792913 -0.458794 37.988280 8
-89.155069 -4.848961 37.698479 8
-90.135056 -9.369039 36.821478 8
-91.789653 -14.055814 35.303290 8
-94.376758 -18.990969 32.897341 8
-103.260275 -25.398161 24.466333 8
-6.421139 144.011004 123.545991 3
-6.397507 140.633958 123.447916 3
-11.603795 139.201071 118.477446 3
-21.212336 139.199628 109.399467 3
-31.558001 139.197536 99.629500 3
-123.520281 27.830661 11.914080 7
-118.096800 23.526586 17.033714 7
-102.065718 20.268100 32.113434 8
-99.639164 16.085293 34.428889 8
-97.913833 11.882855 36.091308 8
-96.756787 7.649021 37.225611 8
-96.138216 3.364733 37.859973 8
-96.078866 -0.995214 37.975193 8
-96.527999 -5.445414 37.619170 8
-97.654256 -10.036943 36.634177 8
-99.489328 -14.803735 34.991036 8
-102.324524 -19.834757 32.417447 8
-5.478059 145.852139 129.648642 0
-5.436530 142.507558 129.550706 0
-5.422299 139.190058 129.433012 0
-5.667540 135.982463 129.083877 0
-24.211756 139.197748 112.054324 3
-130.878887 27.639719 12.526378 7
-122.626065 23.491092 20.134528 7
-118.004146 19.246524 24.414856 7
-108.033446 15.639562 33.609071 8
-105.374927 11.478787 36.097325 8
-104.110017 7.209253 37.312384 8
-103.547509 2.870215 37.888873 8
-103.543786 -1.545054 37.958864 8
-104.123534 -6.063263 37.500084 8
-105.528742 -10.750791 36.291168 8
-117.788685 -17.540164 25.142700 7
-122.890182 -23.213657 20.564732 7
-6.212271 145.015414 133.988742 0
-6.172623 141.703232 133.876885 0
-6.187054 138.427526 133.722421 0
-10.475608 136.705156 129.767161 0
-27.225256 139.198350 114.708903 3
-138.509353 27.437907 13.043823 7
-130.307195 23.234274 20.442825 7
-125.173183 18.981484 25.093203 7
-123.914910 14.482573 26.270967 7
-121.762599 10.108609 28.257545 7
-120.521240 5.672882 29.433121 7
-119.991896 1.166332 29.976556 7
-120.283304 -3.455480 29.790753 7
-121.418585 -8.228935 28.855560 7
-123.690029 -13.238622 26.909710 7
-126.343922 -18.388694 24.629533 7
-132.967713 -24.413556 18.802402 7
-6.947671 144.195618 138.255182 0
-6.916171 140.917530 138.124499 0
-6.910464 137.664587 137.977299 0
-13.304936 136.704279 132.266708 0
-30.243519 139.197893 117.373099 3
-146.421799 27.225085 13.471065 7
-138.097666 22.976275 20.817797 7
-133.032489 18.666177 25.309844 7
-131.762323 14.118630 26.477684 7
-129.638645 9.690535 28.401649 7
-128.429707 5.200153 29.530024 7
-127.989236 0.631335 29.991560 7
-128.395851 -4.057622 29.717801 7
-129.720145 -8.911274 28.647514 7
-132.278502 -14.020265 26.504266 7
-133.969011 -19.044054 25.130514 7
-143.966852 -25.766871 16.491188 7
-7.701673 143.398792 142.436658 0
-7.676552 140.153167 142.289404 0
-7.651778 136.922705 142.148142 0
-16.133970 136.700485 134.780357 0
-25.892348 136.698776 126.322304 0
-146.091871 22.710704 21.181824 7
-141.020568 18.348263 25.584540 7
-139.856944 13.740509 26.640855 7
-137.742542 9.258577 28.520791 7
-136.534968 4.715733 29.630381 7
-136.207571 0.080490 29.992969 7
-136.741262 -4.678483 29.625515 7
-138.300546 -9.620586 28.387735 7
-141.120324 -14.825700 26.079351 7
-143.516492 -20.034578 24.143971 7
-8.471992 145.844632 146.724793 0
-8.425070 142.604885 146.578260 0
-8.391096 139.385771 146.427753 0
-8.457858 136.217905 146.200307 0
-18.994031 136.704514 137.282862 0
-28.870096 136.706915 128.906788 0
-148.092576 13.358717 26.860683 7
-146.004071 8.820770 28.683802 7
-144.905904 4.212032 29.684525 7
-144.621672 -0.482192 30.011323 7
-145.329085 -5.318605 29.515839 7
-147.090778 -10.344993 28.146449 7
-9.179044 145.028865 150.827217 0
-9.165360 141.831811 150.642824 0
-9.086781 138.625244 150.518066 0
-9.833503 135.728999 149.731285 0
-21.835925 136.698923 139.816694 0
-31.811113 136.699439 131.538776 0
-9.886174 144.227539 154.868125 0
-9.831429 141.044162 154.706250 0
-9.821711 137.892445 154.516230 0
-15.396224 136.725824 149.911459 0
-24.737211 136.710164 142.320061 0
-34.775454 136.696272 134.169279 0
-10.578217 143.434112 158.862041 0
-10.526408 140.280891 158.687589 0
-10.498742 137.151126 158.502282 0
-18.173678 136.724400 152.367694 0
-27.616277 136.709963 144.860150 0
-37.802826 136.709877 136.769563 0
-11.280254 145.776933 163.023456 0
-11.232152 142.639322 162.828160 0
-11.248020 139.540178 162.592861 0
-11.225683 136.439989 162.394370 0
-20.940719 136.715467 154.850345 0
-30.538076 136.720051 147.387281 0
-39.815896 136.394395 140.159067 0
-11.991986 144.988888 166.901657 0
-11.958443 141.884917 166.685871 0
-11.929299 138.796575 166.475322 0
-12.316039 135.868869 165.966869 0
-23.746532 136.715810 157.323213 0
-33.441314 136.719658 149.949630 0
-41.026699 135.827468 144.127543 0
-12.646387 144.191013 170.769848 0
-12.620736 141.118287 170.539271 0
-12.608048 138.063717 170.308132 0
-17.452100 136.722433 166.594351 0
-26.591449 136.724980 159.788722 0
-36.348158 136.716080 152.530837 0
-13.302978 143.406265 174.585822 0
-13.271268 140.359041 174.350814 0
-13.231969 137.322346 174.130155 0
-20.249594 136.742970 168.967622 0
-29.419046 136.723571 162.289109 0
-39.304942 136.724080 155.099099 0
-14.038302 145.684903 178.574365 0
-13.966172 142.635732 178.348990 0
-13.930408 139.614255 178.108282 0
-13.903716 136.609000 177.870678 0
-22.960195 136.728473 171.424423 0
-32.250274 136.718583 164.809663 0
-42.192841 136.705161 157.739107 0
-14.676228 144.888393 182.317522 0
-14.631702 141.877196 182.064727 0
-14.564045 138.870933 181.837013 0
-14.791013 135.981494 181.422477 0
-25.723357 136.727066 173.867735 0
-35.115013 136.719638 167.331124 0
-43.618262 136.220575 161.381301 0
-15.317405 144.104377 186.013654 0
-15.283682 141.124229 185.745548 0
-15.247357 138.155872 185.489036 0
-19.610475 136.727310 182.381448 0
-28.501884 136.725589 176.324915 0
-38.041227 136.735325 169.837435 0
-44.971035 135.718360 165.046193 0
-16.259703 146.401909 189.784933 0
-15.974103 143.336950 189.657235 0
-15.917929 140.374965 189.395453 0
-15.879568 137.432229 189.132588 0
-22.345203 136.735750 184.756005 0
-31.306944 136.727479 178.790108 0
-40.955598 136.741430 172.378727 0
-16.663981 145.519625 193.554876 0
-16.614453 142.573488 193.270564 0
-16.511983 139.620985 193.029363 0
-16.494347 136.711966 192.746356 0
-25.124228 136.753367 187.129129 0
-34.166547 136.741549 181.247720 0
-43.775493 136.711794 175.006136 0
-17.264572 144.724493 197.160777 0
-17.216296 141.805501 196.868002 0
-17.185770 138.905379 196.575307 0
-17.316044 136.072857 196.196524 0
-27.826702 136.738947 189.576123 0
-36.989376 136.737467 183.755879 0
-46.383714 136.610515 177.786508 0
-17.879630 143.944821 200.719621 0
-17.829941 141.051443 200.420229 0
-17.774837 138.168341 200.134939 0
-21.861173 136.722269 197.435514 0
-30.601706 136.742822 192.006343 0
-39.965904 136.776756 186.201321 0
-47.354151 135.997091 181.550433 0
-18.633208 146.088697 204.509713 0
-18.489980 143.172800 204.244714 0
-18.472987 140.317124 203.919566 0
-18.398702 137.452442 203.638066 0
-24.595475 136.735164 199.791951 0
-33.369142 136.737758 194.469340 0
-42.752787 136.748536 188.788128 0
-19.150410 145.263946 208.059717 0
-19.131465 142.421321 207.717792 0
-19.095725 139.583927 207.396510 0
-18.988638 136.732965 207.126029 0
-27.396189 136.763564 202.140834 0
-36.193562 136.744779 196.929264 0
-45.567794 136.723177 191.386663 0
-19.798017 144.498114 211.503708 0
-19.738840 141.665684 211.176877 0
-19.651684 138.835159 210.876739 0
-19.789128 136.094097 210.467188 0
-30.179798 136.778837 204.530614 0
-38.948696 136.722489 199.457430 0
-48.428159 136.705670 193.989303 0
-20.385254 143.717924 214.948316 0
-20.358633 140.922752 214.597759 0
-20.273854 138.117950 214.289342 0
-21.402958 135.738664 213.356537 0
-32.970339 136.789016 206.948233 0
-41.992991 136.785903 201.862392 0
-49.900961 136.253597 197.354856 0
-149.037508 -5.686455 -26.399788 7
-146.098026 -4.284058 -26.677277 7
-143.225431 -2.715550 -26.850380 7
-140.393128 -1.061808 -26.974006 7
-147.895181 25.845730 -9.211161 7
-145.971434 28.863758 -8.261753 7
-142.619784 28.490604 -9.742815 7
-139.183827 28.024050 -11.319424 7
-135.628356 27.398439 -13.041569 7
-131.939237 26.600199 -14.922478 7
-127.977795 25.361648 -17.163482 7
-123.791435 23.816512 -19.673164 7
-118.811527 20.885666 -23.266447 7
-111.340692 13.462544 -30.313295 8
-110.243516 18.279096 -28.164506 8
-107.870411 20.637179 -27.876328 8
-105.275867 22.571442 -27.920067 8
-101.607048 22.653816 -29.415286 8
-149.930906 -11.430878 -24.451052 7
-146.838247 -10.321912 -24.931993 7
-143.750454 -9.189819 -25.411179 7
-140.713048 -7.916777 -25.808123 7
-137.707595 -6.560170 -26.160713 7
-147.994931 27.166652 -4.119467 7
-145.921954 29.766513 -3.480793 7
-142.639494 29.513531 -4.842096 7
-139.372288 29.381941 -6.143578 7
-136.002426 29.108957 -7.571080 7
-130.522371 24.481171 -12.145825 7
-128.950555 28.186751 -10.780986 7
-125.284399 27.594933 -12.527175 7
-121.460571 26.804608 -14.452090 7
-113.698119 18.684257 -21.819772 8
-112.154595 22.517651 -20.423701 8
-110.364039 25.795283 -19.430794 8
-108.197404 28.332014 -18.989957 8
-105.144242 29.310482 -19.735721 8
-99.850715 26.588937 -23.338264 8
-93.714722 22.710441 -27.901660 8
-89.770299 22.579913 -29.628484 8
-146.685996 -19.148121 -24.897907 7
-144.411060 -15.556746 -23.769845 7
-141.159451 -14.714651 -24.457011 7
-137.929518 -13.786685 -25.103305 7
-135.388345 -11.110539 -24.591799 7
-147.918172 28.034762 0.569735 7
-145.540399 29.867527 0.671813 7
-142.397684 29.918486 -0.452188 7
-139.196490 29.909109 -1.640078 7
-135.923386 29.817990 -2.908200 7
-132.599830 29.699483 -4.220372 7
-129.172946 29.450499 -5.650336 7
-125.712812 29.223474 -7.092629 7
-122.083018 28.755482 -8.735688 7
-118.056051 27.639027 -10.877720 7
-97.632581 -3.475498 -34.831332 8
-111.551428 28.577727 -12.963069 8
-109.388644 31.032881 -12.578009 8
-106.809131 32.737079 -12.752556 8
-103.328412 32.939917 -14.061899 8
-98.874200 31.633443 -16.539578 8
-93.858673 29.580958 -19.633647 8
-87.712447 25.958592 -23.991937 8
-81.555705 22.573694 -28.248399 8
-77.516045 22.556588 -29.958336 8
-59.577161 15.017075 -41.324149 9
-58.884982 20.029536 -39.185654 9
-57.043982 23.402918 -38.355160 9
-54.653650 26.016042 -38.145338 9
-52.178466 28.503721 -38.046100 9
-48.239741 29.177950 -39.476859 9
-44.259889 29.871184 -40.929862 9
-146.092736 -19.296541 -20.325531 7
-142.771347 -18.601359 -21.092322 7
-139.437143 -17.901650 -21.873059 7
-136.125669 -17.104123 -22.607339 7
-132.820920 -16.255196 -23.324747 7
-147.857690 28.921947 5.192461 7
-145.014791 29.617631 4.536971 7
-141.905303 29.737992 3.481437 7
-138.758413 29.840786 2.393133 7
-135.551181 29.880578 1.240430 7
-132.313856 29.928274 0.070264 7
-127.460143 26.756528 -3.338229 7
-125.635192 29.829439 -2.475562 7
-122.206229 29.721967 -3.827272 7
-118.679439 29.511716 -5.278360 7
-114.295502 27.817560 -7.809986 8
-112.112907 30.219187 -7.462838 8
-109.839813 32.422926 -7.259994 8
-107.368700 34.260994 -7.326522 8
-104.214453 34.955746 -8.237377 8
-100.285672 34.442227 -10.060925 8
-96.166111 33.731341 -12.068602 8
-91.877817 32.874387 -14.226812 8
-87.108573 31.414335 -16.884924 8
-81.677700 29.130532 -20.224163 8
-73.789868 23.499414 -26.202032 8
-69.010585 22.584845 -28.636709 8
-65.068806 22.953868 -30.119659 9
-66.229983 30.259348 -26.164097 9
-63.279186 31.927765 -26.635145 9
-60.252172 33.516570 -27.188228 9
-57.285288 35.204034 -27.681117 9
-54.324373 36.918795 -28.170660 9
-51.069963 38.300529 -28.954901 9
-46.433388 38.091704 -31.093007 9
-35.260177 30.464706 -39.541872 9
-147.937103 -22.677025 -16.637592 7
-144.684109 -21.758956 -17.247231 7
-141.289191 -21.204556 -18.099311 7
-137.911529 -20.556802 -18.910030 7
-134.542553 -19.843768 -19.696503 7
-131.103468 -19.264293 -20.585536 7
-147.350527 28.715059 9.033348 7
-144.303063 28.923154 8.072722 7
-141.255126 29.189495 7.131102 7
-138.147225 29.380371 6.120878 7
-135.001403 29.551581 5.077435 7
-131.808194 29.687362 3.989437 7
-128.560169 29.777882 2.849196 7
-125.280409 29.874773 1.690363 7
-120.355266 26.874367 -1.602547 7
-118.513064 29.884372 -0.824871 7
-114.452377 28.763740 -2.899356 8
-112.138806 30.889824 -2.749252 8
-109.971696 33.243676 -2.443632 8
-107.401553 34.877321 -2.649988 8
-104.391727 35.782607 -3.386379 8
-100.701792 35.624241 -4.906924 8
-96.903579 35.381672 -6.520596 8
-92.974481 35.028949 -8.248904 8
-88.808402 34.417128 -10.204813 8
-84.398241 33.556898 -12.386444 8
-79.875335 32.657621 -14.642862 8
-74.756969 31.047765 -17.484561 8
-68.990308 28.706708 -20.943219 8
-65.504019 29.620493 -21.965062 9
-65.665042 35.373058 -19.252345 9
-62.690901 36.938459 -19.783633 9
-59.653678 38.447125 -20.378669 9
-56.671972 40.050132 -20.918596 9
-49.821680 37.027886 -25.212220 9
-50.260233 42.799063 -22.430538 9
-45.836356 42.825064 -24.333562 9
-39.267219 40.531864 -28.213710 9
-29.446516 34.854558 -35.027103 9
-9.102344 91.077559 -20.582977 3
-8.435548 94.738508 -19.435859 3
-3.116223 94.896954 -21.921886 3
-146.894936 -24.131465 -12.928533 7
-143.471883 -23.663961 -13.808944 7
-140.016900 -23.230585 -14.727593 7
-136.540823 -22.797006 -15.664164 7
-133.087703 -22.248461 -16.547946 7
-129.618914 -21.688102 -17.442364 7
-146.501435 27.678708 12.312453 7
-143.512884 28.040042 11.463717 7
-140.509885 28.419196 10.609201 7
-137.350060 28.504122 9.548535 7
-134.244094 28.771345 8.585071 7
-131.119268 29.057382 7.614415 7
-127.937660 29.286317 6.586553 7
-124.679162 29.425329 5.478450 7
-121.406217 29.603591 4.374094 7
-118.116912 29.816999 3.270683 7
-114.215974 28.979992 1.435314 8
-111.998354 31.253792 1.681521 8
-109.737640 33.418645 1.850502 8
-107.190220 35.070759 1.661448 8
-104.166007 35.933685 0.913245 8
-100.661242 36.058679 -0.371740 8
-96.973407 35.968147 -1.837040 8
-93.214687 35.852373 -3.351520 8
-89.302489 35.591930 -5.002579 8
-85.344580 35.357998 -6.669673 8
-81.174161 34.912630 -8.527664 8
-76.800624 34.286542 -10.559127 8
-72.121184 33.354453 -12.862303 8
-67.286199 32.342189 -15.275051 8
-65.227199 35.103241 -14.877116 9
-64.020784 38.926655 -13.666591 9
-60.990961 40.386326 -14.268622 9
-57.980616 41.897096 -14.850672 9
-54.988159 43.455517 -15.415003 9
-51.924577 44.955716 -16.045453 9
-48.247111 45.779421 -17.240882 9
-43.590758 45.561585 -19.314820 9
-37.685711 44.074954 -22.480852 9
-30.916695 41.819371 -26.359375 9
-22.450228 37.971484 -31.662840 9
-9.858824 30.136323 -40.464407 9
-2.010460 76.681589 -24.851262 1
-0.124222 79.607996 -24.562414 1
-12.087417 93.291174 -13.639220 3
-10.518077 96.202239 -13.231558 3
-6.976849 97.632766 -14.330389 3
-1.374777 97.617381 -16.964030 3
8.241940 94.868347 -22.546014 3
-145.884118 -25.498411 -9.176563 7
-142.371734 -25.254702 -10.179324 7
-138.870500 -24.914040 -11.142749 7
-135.366404 -24.519409 -12.091986 7
-131.847335 -24.103769 -13.046780 7
-147.880822 24.444870 15.280710 7
-145.522242 26.328550 15.386016 7
-141.422221 24.138823 12.974256 7
-139.536394 27.129934 13.743032 7
-136.488252 27.482283 12.866412 7
-133.410336 27.823774 11.965343 7
-130.340103 28.235101 11.090408 7
-127.146782 28.449183 10.071350 7
-123.913786 28.647489 9.021741 7
-120.720314 28.985186 8.041431 7
-115.692121 25.957957 4.841604 8
-113.792779 28.847801 5.483900 8
-111.564932 31.089084 5.699804 8
-109.330359 33.286157 5.883563 8
-106.722647 34.824077 5.619910 8
-103.665119 35.624293 4.844738 8
-100.225210 35.848877 3.656575 8
-96.666997 35.955275 2.361036 8
-92.999953 35.968812 0.972916 8
-89.332728 36.061599 -0.389458 8
-85.477773 35.956145 -1.922126 8
-81.562034 35.850617 -3.488156 8
-77.504342 35.634422 -5.168332 8
-73.292185 35.300980 -6.970708 8
-68.894313 34.819569 -8.921365 8
-65.310343 35.512629 -10.045816 9
-64.586422 39.927808 -8.418313 9
-61.656389 41.476249 -8.929698 9
-58.716545 43.035300 -9.450649 9
-55.772634 44.612817 -9.975524 9
-52.770042 46.145184 -10.553931 9
-49.404189 47.287216 -11.458139 9
-45.285473 47.627910 -13.023521 9
-40.233810 47.022827 -15.386083 9
-34.601702 45.915216 -18.212778 9
-28.792780 44.767027 -21.141476 9
-21.835902 42.584973 -24.995766 9
-13.854551 39.565242 -29.642694 9
0.494947 30.490427 -39.510394 9
-10.973830 70.658916 -18.366063 1
-5.671922 70.645751 -20.722486 1
-2.539602 72.548019 -21.373749 1
3.794667 71.879959 -24.467962 1
-13.627472 90.249591 -9.540024 3
-12.107387 93.202352 -9.092512 3
-11.080571 96.513132 -8.295003 3
-11.038119 100.523694 -6.794362 2
-9.970724 103.725189 -6.076896 2
-5.132273 104.217065 -8.113266 2
-148.004993 -28.200712 -5.086077 7
-145.000699 -26.503079 -5.226480 7
-141.465137 -26.309174 -6.243060 7
-137.917652 -26.077497 -7.255977 7
-134.351848 -25.825419 -8.275428 7
-130.790045 -25.495686 -9.267889 7
-147.396732 24.286794 19.071968 7
-144.419301 24.683618 18.281006 7
-141.459021 25.167825 17.527155 7
-138.450426 25.587293 16.718946 7
-135.423033 26.013876 15.898984 7
-132.404391 26.507600 15.103810 7
-129.304876 26.880107 14.217303 7
-126.192773 27.280391 13.330250 7
-123.049578 27.672253 12.419804 7
-119.859182 28.027798 11.467690 7
-115.618552 26.485896 9.286668 8
-113.207307 28.414571 9.295895 8
-110.985428 30.659724 9.504613 8
-108.686346 32.738959 9.602844 8
-106.054695 34.234553 9.313364 8
-102.930873 34.926340 8.480951 8
-99.530273 35.218316 7.362217 8
-96.076982 35.492049 6.206969 8
-92.518768 35.671236 4.962325 8
-88.888281 35.813803 3.665534 8
-85.197014 35.941747 2.330274 8
-81.361021 35.938725 0.874317 8
-77.516119 36.006308 -0.564056 8
-73.549726 35.988855 -2.094935 8
-69.410482 35.826315 -3.763985 8
-65.875398 36.547764 -4.832376 9
-64.929519 40.638604 -3.473024 9
-61.977472 42.129735 -4.007265 9
-59.046933 43.671745 -4.521317 9
-56.104731 45.223289 -5.045707 9
-53.166646 46.803919 -5.566064 9
-49.916864 48.051056 -6.359527 9
-46.021774 48.613064 -7.705940 9
-41.514947 48.572712 -9.557868 9
-36.434004 48.011896 -11.866753 9
-31.247176 47.460656 -14.225294 9
-25.519105 46.474339 -16.993346 9
-19.409193 45.246201 -20.027448 9
-12.588510 43.472327 -23.586867 9
-4.451067 40.607724 -28.143069 9
9.015473 32.932873 -36.859442 9
-19.301110 68.961735 -10.707012 1
-16.547583 71.005573 -11.092685 1
-10.908854 70.564771 -13.689040 1
-5.663230 70.585357 -15.948416 1
0.521421 69.936007 -18.881258 1
-13.976597 86.248754 -6.372422 1
-14.534211 90.880728 -4.382179 3
-14.834808 95.222036 -2.623626 3
-11.796476 96.942821 -3.324823 3
-11.927414 101.059017 -1.744180 2
-10.839170 104.218993 -1.067353 2
-7.918860 106.048306 -1.704733 2
-7.149297 109.407428 -0.831765 2
-2.645125 110.192480 -2.577607 2
-147.899562 -26.921527 0.121863 7
-144.320037 -26.935186 -0.975271 7
-140.761437 -26.808780 -2.012247 7
-137.154530 -26.737894 -3.098888 7
-133.548495 -26.587020 -4.158932 7
-129.879195 -26.521775 -5.287111 7
-146.140647 22.235844 21.730716 7
-143.213716 22.797496 21.043015 7
-140.269947 23.359008 20.341516 7
-137.308475 23.920477 19.625915 7
-134.277416 24.371111 18.829948 7
-131.220512 24.814468 18.013837 7
-128.188650 25.358030 17.241890 7
-125.057657 25.747075 16.360204 7
-121.979186 26.291850 15.556160 7
-118.791336 26.674485 14.635371 7
-114.726562 25.485004 12.719039 8
-112.441908 27.650859 12.869169 8
-110.271405 29.988253 13.124781 8
-107.917567 31.972975 13.155020 8
-105.179676 33.293384 12.754800 8
-101.956827 33.831858 11.837753 8
-98.651416 34.289889 10.848080 8
-95.211691 34.594248 9.735776 8
-91.705444 34.861565 8.574861 8
-88.193763 35.188204 7.428287 8
-84.583165 35.436124 6.203304 8
-80.906735 35.660449 4.935152 8
-77.100987 35.776786 3.564698 8
-73.291391 35.966427 2.214338 8
-69.238076 35.907083 0.659642 8
-65.928098 36.907573 -0.184083 9
-64.808366 40.751266 0.969290 9
-61.897972 42.277986 0.476290 9
-59.001871 43.844849 -0.003987 9
-56.131886 45.465049 -0.461653 9
-53.195609 47.028515 -0.977378 9
-50.036607 48.361082 -1.682781 9
-46.392850 49.185088 -2.792682 9
-42.029954 49.277427 -4.489229 9
-37.321659 49.089107 -6.444412 9
-32.353833 48.731978 -8.579866 9
-27.152162 48.247338 -10.869312 9
-21.677927 47.608698 -13.339142 9
-16.008379 46.906871 -15.922922 9
-9.559679 45.586804 -19.074873 9
-2.665192 44.008458 -22.519711 9
5.322017 41.595673 -26.745950 9
16.489277 36.516793 -33.318457 9
-16.138468 70.620399 -6.792973 1
-10.391013 70.077911 -9.406783 1
-10.724580 74.833358 -7.486764 1
-15.120055 82.873214 -2.636466 1
-15.274132 87.227708 -0.960465 1
-15.389560 91.472754 0.649483 3
-14.926680 95.192972 1.810692 3
-12.556172 97.407956 1.595619 2
-12.798328 101.583119 3.207106 2
-10.748784 104.016884 3.191468 2
-7.566944 105.648966 2.388373 2
-6.699120 108.934359 3.172411 2
-2.885332 110.183210 1.939445 2
2.911664 110.174204 -0.614713 2
-147.509663 -26.508093 4.776729 7
-143.862328 -26.745222 3.580504 7
-140.238145 -26.822677 2.452253 7
-136.606471 -26.834064 1.341504 7
-149.951390 17.060767 24.624405 7
-147.664746 19.254522 24.873311 7
-144.755318 19.876237 24.235916 7
-141.834963 20.506722 23.590961 7
-138.928421 21.203911 22.971318 7
-135.951230 21.775989 22.267087 7
-132.978476 22.397871 21.577748 7
-129.981203 23.006488 20.866736 7
-126.916474 23.516726 20.083469 7
-123.850825 24.071308 19.310779 7
-120.729138 24.561539 18.483976 7
-115.672130 21.426744 15.462047 8
-113.757268 24.339046 16.051266 8
-111.562858 26.678965 16.295674 8
-109.376929 28.995692 16.524940 8
-106.911907 30.797174 16.433794 8
-104.066257 31.950440 15.931545 8
-100.823875 32.475963 15.021139 8
-97.514920 32.947550 14.056737 8
-94.161613 33.405886 13.062916 8
-90.715704 33.780495 11.993329 8
-87.289826 34.247536 10.960543 8
-83.744238 34.599363 9.829079 8
-80.076383 34.842474 8.600527 8
-76.437272 35.197288 7.419346 8
-72.659810 35.431259 6.129961 8
-68.823267 35.660749 4.808366 8
-65.499704 36.635413 3.967658 9
-64.512675 40.637787 5.200942 9
-61.656337 42.220555 4.760293 9
-58.789246 43.810168 4.309588 9
-55.965316 45.472225 3.895132 9
-53.027756 47.020113 3.383690 9
-47.457993 45.576800 0.683141 9
-46.292853 49.226189 1.656400 9
-42.083133 49.472648 0.120909 9
-37.534903 49.438960 -1.663469 9
-32.889666 49.400353 -3.496664 9
-28.025933 49.235919 -5.472981 9
-22.837644 48.850701 -7.670765 9
-17.595392 48.530024 -9.874792 9
-11.934750 47.922451 -12.363255 9
-14.928228 55.632238 -8.273483 4
-16.112302 61.450239 -5.627569 4
-16.715893 66.603767 -3.472373 1
-16.496845 70.916314 -1.971028 1
-13.596102 72.824106 -2.455915 1
-10.903360 74.934649 -2.790595 1
-15.235208 82.906209 1.884608 1
-14.986077 86.917941 3.228068 1
-16.264234 92.081871 5.610055 3
-14.001685 94.372918 5.482919 3
-12.584009 97.317339 5.932303 3
-11.112506 100.203477 6.329873 2
-9.741998 103.148112 6.781878 2
-5.840796 104.271143 5.520000 2
-2.010258 105.507831 4.318821 2
-0.397373 108.317228 4.595045 2
2.644125 110.167693 3.923763 2
-147.383248 -25.343997 9.770569 7
-143.698388 -25.741291 8.517494 7
-140.011708 -26.038240 7.298016 7
-149.997603 10.021708 25.612480 7
-148.226279 13.728842 26.651393 7
-145.403900 14.664471 26.190272 7
-142.533843 15.500860 25.665001 7
-139.659010 16.349179 25.135626 7
-137.391748 18.608870 25.380675 7
-134.455988 19.330525 24.763778 7
-131.496673 20.033753 24.124081 7
-128.509511 20.712914 23.457814 7
-125.477648 21.337330 22.746756 7
-122.441684 21.994147 22.040096 7
-119.386714 22.653917 21.320735 7
-114.954960 20.747562 19.084490 8
-112.666771 22.968261 19.244312 8
-110.565105 25.491490 19.582173 8
-108.323533 27.722289 19.745856 8
-105.753511 29.358748 19.549000 8
-102.684411 30.158143 18.835301 8
-99.545419 30.882283 18.059478 8
-96.240700 31.385313 17.129721 8
-92.857293 31.820334 16.137559 8
-89.510964 32.370756 15.196594 8
-86.091954 32.867569 14.200842 8
-82.603127 33.320848 13.155201 8
-79.054207 33.749735 12.070574 8
-75.472305 34.196075 10.972998 8
-71.828993 34.622541 9.837468 8
-68.000534 34.868144 8.556190 8
-64.835815 36.053758 7.873969 9
-64.004736 40.250938 9.204158 9
-61.143847 41.822514 8.766026 9
-58.340223 43.484339 8.375505 9
-55.560625 45.192467 8.003364 9
-52.623056 46.732534 7.499874 9
-49.555261 48.148438 6.892084 9
-45.913365 48.952225 5.828109 9
-41.785172 49.280795 4.392705 9
-37.331787 49.339837 2.724158 9
-32.860104 49.472368 1.067614 9
-28.175988 49.477660 -0.726306 9
-23.307153 49.395424 -2.632466 9
-18.351536 49.331862 -4.574084 9
-16.574562 52.444647 -4.123595 4
-16.911869 57.531473 -2.135795 4
-17.034156 62.311302 -0.352733 4
-17.318393 67.142487 1.503897 1
-16.131870 70.570761 2.265574 1
-13.646774 72.832138 2.085370 1
-11.795439 75.642965 2.344883 1
-14.296743 82.063429 5.616668 1
-16.833712 88.347742 8.846382 3
-17.110291 92.669854 10.468317 3
-14.259322 94.475172 9.938362 3
-10.265243 95.438399 8.643663 3
-7.852989 97.649509 8.416129 3
-6.766602 100.843316 9.059980 2
-5.332031 103.761656 9.458639 2
-0.506997 104.299818 7.644618 2
4.836420 104.576851 5.519743 2
-147.684717 -22.961253 15.313576 7
-143.958131 -23.568587 13.986052 7
-140.090660 -24.442475 12.499295 7
-149.023467 8.615223 28.751018 7
-146.220788 9.695825 28.367067 7
-143.403095 10.746269 27.958918 7
-140.596771 11.834476 27.562302 7
-137.755113 12.849512 27.117735 7
-134.876869 13.796341 26.626845 7
-131.990133 14.744482 26.126508 7
-129.071275 15.644688 25.589404 7
-126.129816 16.522491 25.028796 7
-123.846367 18.770317 25.220208 7
-120.847725 19.553914 24.588799 7
-115.574023 15.964142 21.470537 8
-113.582076 18.826668 21.979039 8
-111.479289 21.419101 22.336401 8
-109.429822 24.056327 22.721355 8
-107.056185 26.073653 22.746884 8
-104.328218 27.464205 22.400445 8
-101.181088 28.164937 21.635759 8
-97.950964 28.774159 20.799981 8
-94.685523 29.376249 19.942070 8
-91.419255 30.027554 19.095565 8
-88.116757 30.673015 18.226923 8
-84.731861 31.246509 17.294638 8
-81.222233 31.693500 16.262994 8
