ply
format ascii 1.0
element vertex 1363
property float x
property float y
property float z
property int scalar_Label
end_header
-19.994180 -39.996139 -34.783599 9
-22.698558 -40.020371 -34.731517 9
-25.402977 -40.072318 -34.686373 9
-28.108330 -40.124127 -34.643090 9
-30.815894 -40.161146 -34.598981 9
-33.525520 -40.200324 -34.557132 9
-36.236587 -40.256059 -34.520172 9
-38.950171 -40.315425 -34.485738 9
-41.667521 -40.369174 -34.452128 9
-44.402786 -40.285772 -34.395189 9
-47.145816 -40.196125 -34.338910 9
-49.963913 -39.555549 -34.183145 9
-52.888917 -38.251044 -33.906890 9
-55.916123 -36.458942 -33.542376 9
-59.037678 -34.330853 -33.117387 9
-62.202734 -32.246892 -32.701919 9
-65.412987 -30.193785 -32.293581 9
-69.794698 -21.987751 -30.751294 8
-72.783887 -21.938401 -30.715375 8
-75.786326 -21.882235 -30.680158 8
-78.794767 -21.857181 -30.652659 8
-81.809582 -21.860062 -30.632305 8
-84.851898 -21.799190 -30.602155 8
-87.896234 -21.789974 -30.583557 8
-90.954685 -21.780971 -30.567012 8
-94.027311 -21.774393 -30.552940 8
-97.132597 -21.705035 -30.529285 8
-100.229451 -21.726403 -30.524476 8
-103.351146 -21.718551 -30.516324 8
-106.543645 -21.536663 -30.478027 8
-111.157878 -16.936443 -29.623607 8
-116.891777 -9.276949 -28.204750 7
-120.014194 -9.883527 -28.318893 7
-123.352187 -9.895643 -28.325192 7
-126.734077 -9.846040 -28.322331 7
-130.119274 -9.851792 -28.332011 7
-133.536135 -9.836150 -28.340049 7
-136.992996 -9.781958 -28.343297 7
-140.461712 -9.764181 -28.355660 7
-143.950885 -9.761394 -28.373200 7
-147.504462 -9.671795 -28.377124 7
145.827513 -0.156414 -29.994125 6
141.499908 -1.151703 -29.976255 6
137.314623 -1.974938 -29.933179 6
133.226280 -2.705766 -29.878494 6
129.256913 -3.286548 -29.801756 6
125.323073 -3.887811 -29.732814 6
121.462579 -4.422331 -29.656109 6
117.658739 -4.920969 -29.576943 6
108.397108 -18.617562 -31.860589 5
104.289273 -20.425971 -32.030554 5
100.883804 -20.617888 -31.914771 5
97.516607 -20.783390 -31.797345 5
94.173403 -20.956123 -31.684256 5
90.861737 -21.113432 -31.571348 5
87.565965 -21.296175 -31.465964 5
84.303946 -21.451684 -31.358491 5
81.078121 -21.567392 -31.246541 5
77.857539 -21.734249 -31.146658 5
74.653076 -21.919675 -31.052879 5
71.494437 -22.022880 -30.946646 5
66.222007 -29.588488 -32.218376 9
62.501778 -32.150793 -32.574481 9
58.864433 -34.658682 -32.924878 9
55.276630 -37.232426 -33.291715 9
51.928827 -39.096365 -33.530784 9
48.771014 -40.366535 -33.662803 9
45.826455 -40.853596 -33.651704 9
42.976295 -40.998594 -33.579053 9
40.154168 -41.073550 -33.495411 9
37.347000 -41.132112 -33.410742 9
34.548809 -41.201139 -33.330051 9
31.765629 -41.244366 -33.246488 9
28.988739 -41.307133 -33.168557 9
26.214698 -41.412226 -33.100556 9
23.452155 -41.504276 -33.032019 9
20.704378 -41.551796 -32.956936 9
17.965060 -41.590937 -32.882110 9
15.228958 -41.661208 -32.815027 9
12.505811 -41.672389 -32.738505 9
9.784430 -41.719919 -32.670683 9
7.065437 -41.803154 -32.611448 9
4.353731 -41.863288 -32.549560 9
1.648522 -41.894180 -32.483805 9
-1.053177 -41.925913 -32.419915 9
-3.753197 -41.989048 -32.363746 9
-6.449848 -42.047384 -32.308342 9
-9.142947 -42.068194 -32.247384 9
-11.834347 -42.068891 -32.184188 9
-14.525620 -42.141746 -32.136539 9
-17.215593 -42.183063 -32.084434 9
-19.905675 -42.193033 -32.027879 9
-22.595975 -42.225780 -31.977324 9
-25.287760 -42.238397 -31.924456 9
-27.980469 -42.268531 -31.876561 9
-30.674155 -42.314712 -31.833354 9
-33.371378 -42.336699 -31.787011 9
-36.073417 -42.333478 -31.737317 9
-38.773503 -42.401736 -31.703085 9
-41.484213 -42.388356 -31.654495 9
-44.193259 -42.441571 -31.620424 9
-46.928053 -42.304578 -31.550755 9
-49.725355 -41.727358 -31.396541 9
-52.591896 -40.762191 -31.167815 9
-55.588639 -39.066081 -30.797298 9
-58.666740 -37.107638 -30.376481 9
-61.793301 -35.142362 -29.955358 9
-64.981655 -33.098286 -29.519848 9
-69.683243 -23.036390 -27.512307 8
-72.658625 -23.048859 -27.481824 8
-75.642976 -23.069623 -27.454604 8
-78.635887 -23.102229 -27.431352 8
-81.647451 -23.102548 -27.403397 8
-84.664612 -23.133431 -27.383099 8
-87.702225 -23.132633 -27.358222 8
-90.736130 -23.201619 -27.348741 8
-93.809921 -23.169819 -27.321085 8
-96.876955 -23.220727 -27.311392 8
-99.969816 -23.233467 -27.295866 8
-103.082407 -23.235019 -27.279828 8
-106.365413 -22.737656 -27.167120 8
-110.608808 -19.305912 -26.477368 8
-115.757020 -13.400463 -25.301130 8
-118.350025 -15.466356 -25.698936 7
-121.640273 -15.471481 -25.692044 7
-124.951408 -15.478522 -25.687350 7
-128.277513 -15.505413 -25.688410 7
-131.637900 -15.502209 -25.685386 7
-135.043938 -15.444821 -25.673543 7
-138.447110 -15.459538 -25.677825 7
-141.883771 -15.455494 -25.680321 7
-145.347179 -15.452082 -25.684882 7
-148.826347 -15.476382 -25.696875 7
148.806684 -10.256115 -28.172011 6
144.820568 -10.619479 -28.065172 6
140.943848 -10.857618 -27.938641 6
137.064005 -11.183795 -27.832122 6
133.234830 -11.491761 -27.725688 6
129.486182 -11.714853 -27.606655 6
125.756822 -11.975931 -27.498049 6
122.075564 -12.211792 -27.387868 6
118.430116 -12.445810 -27.280446 6
116.949055 -7.719135 -26.230382 6
106.647336 -23.899421 -29.174158 5
103.112588 -24.409943 -29.133802 5
99.773040 -24.518289 -29.019215 5
96.447694 -24.657800 -28.913203 5
93.149942 -24.793042 -28.808917 5
89.877943 -24.926336 -28.706749 5
86.629913 -25.060213 -28.607136 5
83.407468 -25.187580 -28.508652 5
80.219618 -25.278046 -28.405327 5
77.022181 -25.464040 -28.322901 5
73.875134 -25.558389 -28.224863 5
70.740798 -25.675400 -28.133447 5
66.603467 -29.355396 -28.743365 9
61.976128 -35.146290 -29.773122 9
58.392541 -37.524782 -30.136969 9
54.927160 -39.690093 -30.462379 9
51.628512 -41.413275 -30.703780 9
48.519734 -42.533651 -30.828809 9
45.598179 -42.976594 -30.821976 9
42.755402 -43.147680 -30.763146 9
39.949301 -43.209332 -30.684346 9
37.156662 -43.261014 -30.605272 9
34.366473 -43.357886 -30.536904 9
31.606188 -43.346644 -30.448596 9
28.845914 -43.386546 -30.372126 9
26.089078 -43.461822 -30.304355 9
23.346281 -43.502344 -30.231201 9
21.136839 -39.613778 -29.368958 9
17.881443 -43.601039 -30.093100 9
15.156337 -43.680029 -30.032324 9
12.447780 -43.667442 -29.954561 9
9.739825 -43.698443 -29.887066 9
7.033680 -43.768044 -29.828848 9
4.331700 -43.853183 -29.775241 9
1.639825 -43.861176 -29.707413 9
-1.049930 -43.887292 -29.644666 9
-3.737215 -43.924660 -29.585599 9
-6.422207 -43.973828 -29.530318 9
-9.104546 -44.014812 -29.474738 9
-11.785400 -44.076096 -29.424660 9
-14.464195 -44.075306 -29.363238 9
-17.142967 -44.078939 -29.304033 9
-19.821918 -44.097957 -29.249284 9
-22.500888 -44.140500 -29.200662 9
-25.181680 -44.146826 -29.145901 9
-27.862715 -44.189100 -29.099805 9
-30.546549 -44.208603 -29.050304 9
-33.234156 -44.208320 -28.997991 9
-35.921850 -44.253561 -28.956311 9
-38.615794 -44.259632 -28.907808 9
-41.313534 -44.270867 -28.861609 9
-44.013636 -44.304661 -28.821306 9
-46.737125 -44.172682 -28.747948 9
-49.511675 -43.693509 -28.603888 9
-52.363605 -42.750743 -28.364841 9
-55.335402 -41.147587 -27.989791 9
-58.378713 -39.335356 -27.572093 9
-61.468937 -37.508379 -27.152023 9
-64.618855 -35.599295 -26.715601 9
-69.246944 -25.861841 -24.652228 8
-72.197545 -25.899211 -24.621167 8
-75.156940 -25.943045 -24.592748 8
-78.131850 -25.963710 -24.560797 8
-81.117049 -25.990481 -24.531411 8
-84.117466 -26.004116 -24.500579 8
-87.127239 -26.032851 -24.474190 8
-90.155300 -26.042262 -24.445067 8
-93.189660 -26.082314 -24.423641 8
-96.246496 -26.093192 -24.397426 8
-99.313801 -26.122430 -24.376357 8
-102.408096 -26.114698 -24.348872 8
-105.612105 -25.807026 -24.259947 8
-109.347725 -23.906025 -23.838805 8
-114.389643 -18.216243 -22.625414 8
-117.243640 -19.386415 -22.849390 7
-120.495790 -19.407989 -22.834255 7
-123.779475 -19.400689 -22.814461 7
-127.068016 -19.440814 -22.806007 7
-130.403290 -19.417370 -22.785640 7
-133.735170 -19.464733 -22.781545 7
-137.100919 -19.487521 -22.773736 7
-140.486969 -19.522321 -22.769899 7
-143.921585 -19.504507 -22.756490 7
-147.401147 -19.448561 -22.736558 7
-150.858036 -19.508909 -22.742532 7
-226.654734 136.050692 9.916615 0
-231.879430 135.692819 9.847031 0
146.299966 -16.042808 -25.337343 6
142.472430 -16.211441 -25.218308 6
138.666547 -16.416015 -25.109358 6
134.913971 -16.593602 -24.997867 6
131.211019 -16.747243 -24.884337 6
127.526241 -16.938497 -24.781061 6
123.918696 -17.041080 -24.662548 6
120.320043 -17.196109 -24.557151 6
115.432042 -20.338439 -25.059717 5
109.212118 -26.804751 -26.242517 5
107.226843 -23.596595 -25.463893 5
102.038843 -28.117823 -26.261286 5
98.723714 -28.240540 -26.165539 5
95.441965 -28.345159 -26.068221 5
92.185766 -28.448652 -25.972746 5
88.947734 -28.568895 -25.882744 5
85.741006 -28.667854 -25.790357 5
82.557816 -28.763856 -25.699301 5
79.384883 -28.894384 -25.617284 5
76.252424 -28.966099 -25.524972 5
73.127403 -29.077257 -25.442651 5
70.014717 -29.213241 -25.367289 5
65.209009 -35.295767 -26.531829 9
61.604798 -37.567745 -26.907540 9
58.063370 -39.839239 -27.286294 9
54.632110 -41.921580 -27.628545 9
51.383316 -43.493149 -27.866640 9
48.326095 -44.444224 -27.976990 9
45.399134 -44.958095 -27.997475 9
43.426987 -41.137531 -27.107161 9
39.807595 -45.024717 -27.840954 9
37.036509 -45.017230 -27.756150 9
34.268771 -45.043468 -27.679803 9
31.502233 -45.118433 -27.615098 9
28.753181 -45.148731 -27.542252 9
26.006408 -45.220589 -27.479514 9
23.270966 -45.276262 -27.414622 9
20.552098 -45.269165 -27.337626 9
17.837089 -45.282172 -27.266120 9
15.121502 -45.354790 -27.208535 9
12.414504 -45.411408 -27.148742 9
9.718448 -45.416711 -27.079158 9
7.025025 -45.444801 -27.015598 9
4.332396 -45.522610 -26.963840 9
1.649235 -45.531577 -26.898451 9
-1.033056 -45.581753 -26.843020 9
-3.710160 -45.593789 -26.780488 9
-6.386945 -45.659400 -26.730571 9
-9.058706 -45.637351 -26.662837 9
-11.730521 -45.654763 -26.604655 9
-14.401656 -45.702427 -26.554050 9
-17.071948 -45.719259 -26.497816 9
-19.741976 -45.764627 -26.448779 9
-22.411581 -45.830212 -26.405143 9
-25.083923 -45.818257 -26.345699 9
-27.754512 -45.896628 -26.306846 9
-30.429437 -45.909773 -26.254816 9
-33.104684 -45.959757 -26.211768 9
-35.785267 -45.969629 -26.160958 9
-38.468253 -45.995142 -26.114507 9
-41.156838 -46.002199 -26.064976 9
-43.844504 -46.064534 -26.028449 9
-46.559178 -45.923952 -25.948528 9
-49.329392 -45.401349 -25.785931 9
-52.162978 -44.528019 -25.547303 9
-55.103475 -43.076483 -25.182637 9
-58.131489 -41.291922 -24.745390 9
-61.203532 -39.507542 -24.308502 9
-64.324270 -37.700414 -23.866955 9
-67.500132 -35.843183 -23.414741 9
-71.848826 -28.161042 -21.682296 8
-74.794716 -28.200504 -21.647156 8
-77.768257 -28.160373 -21.595446 8
-80.741843 -28.177609 -21.557299 8
-83.710565 -28.268238 -21.536270 8
-86.704498 -28.302556 -21.503781 8
-89.713943 -28.327948 -21.470264 8
-92.741279 -28.338951 -21.434509 8
-95.768943 -28.403204 -21.411455 8
-98.835006 -28.384375 -21.370982 8
-101.906401 -28.404862 -21.340135 8
-105.042755 -28.269308 -21.275690 8
-108.602716 -26.870952 -20.932504 8
-113.215669 -22.427632 -19.915295 8
-116.261185 -22.928525 -19.994049 7
-119.466466 -23.002597 -19.979214 7
-122.705025 -23.039566 -19.957129 7
-125.960397 -23.088934 -19.938773 7
-129.243090 -23.124464 -19.918329 7
-132.522780 -23.225990 -19.913534 7
-135.862677 -23.235040 -19.889190 7
-139.208606 -23.290545 -19.876168 7
-142.601930 -23.294847 -19.852766 7
-146.014685 -23.317317 -19.834413 7
-149.443533 -23.366030 -19.822919 7
-227.533093 136.795621 15.859313 0
-232.921691 136.722860 15.874432 0
-238.443072 136.825089 15.926917 0
145.007646 -19.547261 -22.148063 6
141.235779 -19.664447 -22.040718 6
137.515929 -19.755950 -21.930186 6
133.810717 -19.891674 -21.831282 6
130.138847 -20.034447 -21.736066 6
126.537428 -20.105019 -21.627527 6
122.951680 -20.212587 -21.528945 6
119.080045 -21.019055 -21.582545 5
112.657043 -27.676795 -22.898302 5
107.949091 -30.792572 -23.457190 5
104.405287 -31.377463 -23.473407 5
101.108848 -31.453141 -23.381536 5
97.843283 -31.516964 -23.288787 5
94.582470 -31.633102 -23.209045 5
91.372605 -31.681068 -23.116117 5
88.169627 -31.773088 -23.034349 5
84.995210 -31.849731 -22.950780 5
81.827917 -31.969712 -22.878196 5
78.706404 -32.018508 -22.791534 5
75.594947 -32.097757 -22.712976 5
72.490739 -32.217283 -22.644680 5
69.421815 -32.285430 -22.566496 5
64.897618 -37.449896 -23.612101 9
61.357866 -39.529338 -23.981824 9
57.867451 -41.643931 -24.361844 9
54.455415 -43.681420 -24.727312 9
52.315808 -40.795832 -24.004771 9
48.183487 -46.129422 -25.104562 9
45.299402 -46.490402 -25.104283 9
42.493666 -46.576295 -25.044117 9
39.700397 -46.663049 -24.985246 9
36.942695 -46.629749 -24.900691 9
34.174975 -46.699373 -24.840106 9
31.425190 -46.727191 -24.771210 9
28.682420 -46.768284 -24.706275 9
25.952529 -46.783931 -24.636618 9
23.227952 -46.817308 -24.571885 9
20.504427 -46.900001 -24.519168 9
17.805835 -46.848636 -24.437257 9
15.096594 -46.933076 -24.386779 9
12.405113 -46.916736 -24.314507 9
9.710387 -46.983414 -24.261814 9
7.023616 -47.024764 -24.204278 9
4.341658 -47.065818 -24.147524 9
1.665185 -47.088507 -24.087450 9
-1.007851 -47.110944 -24.028130 9
-3.675882 -47.087801 -23.959272 9
-6.347076 -47.195994 -23.920999 9
-9.011522 -47.183926 -23.856208 9
-11.675967 -47.219893 -23.803090 9
-14.338980 -47.223480 -23.743355 9
-17.001694 -47.279620 -23.696330 9
-19.664025 -47.315834 -23.645501 9
-22.326816 -47.342102 -23.593124 9
-24.991709 -47.332597 -23.533277 9
-27.655776 -47.391017 -23.489656 9
-30.323857 -47.397466 -23.434833 9
-32.993322 -47.425991 -23.385742 9
-35.667157 -47.433416 -23.332481 9
-38.344664 -47.441740 -23.280079 9
-41.018385 -47.536479 -23.248182 9
-43.704721 -47.537699 -23.195445 9
-46.411406 -47.406033 -23.112741 9
-49.162939 -46.978457 -22.962422 9
-51.990699 -46.089507 -22.706159 9
-54.922718 -44.644147 -22.321753 9
-57.932385 -42.930504 -21.875444 9
-60.998160 -41.134767 -21.410128 9
-64.093302 -39.429961 -20.965792 9
-67.236791 -37.701358 -20.515927 9
-71.569066 -30.061538 -18.696448 8
-74.503430 -30.104655 -18.656319 8
-77.450362 -30.138435 -18.614635 8
-80.411331 -30.160307 -18.570788 8
-83.377324 -30.212894 -18.534672 8
-86.352816 -30.276570 -18.501733 8
-89.365540 -30.243948 -18.446981 8
-92.370055 -30.299631 -18.413353 8
-95.404065 -30.299631 -18.367334 8
-98.446118 -30.327121 -18.328288 8
-101.512242 -30.327665 -18.283521 8
-104.610176 -30.281268 -18.228350 8
-108.062329 -29.185955 -17.928632 8
-112.493792 -25.255669 -16.966300 8
-115.816493 -24.882927 -16.835650 7
-118.646453 -25.990463 -17.051978 7
-121.857737 -26.040349 -17.021427 7
-125.086681 -26.099390 -16.993584 7
-128.368509 -26.077627 -16.947352 7
-131.645675 -26.128968 -16.918812 7
-134.948495 -26.175236 -16.889636 7
-138.291134 -26.185235 -16.852493 7
-141.644412 -26.231575 -16.824434 7
-145.045421 -26.229848 -16.785621 7
-148.455641 -26.270513 -16.757323 7
-151.909271 -26.279244 -16.722054 7
-233.595521 136.972290 21.775740 0
-239.043940 136.879338 21.810409 0
-245.572038 138.834918 22.327341 0
147.598683 -22.734652 -19.070491 6
143.855663 -22.773605 -18.965449 6
140.103099 -22.902197 -18.882314 6
136.421466 -22.969093 -18.786969 6
132.769541 -23.048902 -18.696174 6
129.156384 -23.121853 -18.605421 6
125.571752 -23.206344 -18.518837 6
122.032505 -23.264992 -18.427897 6
118.520253 -23.333626 -18.340689 6
111.216855 -31.973578 -20.208710 5
107.105036 -33.792078 -20.526713 5
103.698366 -34.104196 -20.502817 5
100.431481 -34.155351 -20.420612 5
97.189171 -34.208982 -20.340208 5
93.968271 -34.271210 -20.262981 5
90.772475 -34.330749 -20.186315 5
87.585221 -34.430302 -20.120011 5
84.450334 -34.447927 -20.035962 5
81.316380 -34.522888 -19.966217 5
78.206628 -34.588696 -19.895431 5
75.114687 -34.661887 -19.827397 5
72.041847 -34.736709 -19.760764 5
68.998126 -34.777617 -19.687260 5
64.693702 -39.222871 -20.638038 9
61.176768 -41.246007 -21.028817 9
57.700651 -43.332013 -21.436262 9
54.319000 -45.277309 -21.812912 9
51.131182 -46.659734 -22.060046 9
48.110362 -47.514473 -22.185389 9
45.220496 -47.924427 -22.207878 9
42.430107 -47.967947 -22.145485 9
39.658141 -47.979458 -22.076339 9
36.890356 -48.023518 -22.015557 9
34.127217 -48.099960 -21.963107 9
31.393745 -48.069101 -21.886123 9
28.650345 -48.146559 -21.835308 9
25.925927 -48.164418 -21.771123 9
23.206262 -48.204241 -21.712766 9
20.501277 -48.193820 -21.643171 9
17.795012 -48.243975 -21.588507 9
15.099709 -48.260070 -21.526388 9
12.411240 -48.266642 -21.462594 9
9.725808 -48.295047 -21.404545 9
7.045353 -48.324371 -21.347276 9
4.368143 -48.371170 -21.294710 9
1.696375 -48.402382 -21.238978 9
-0.970186 -48.404986 -21.176952 9
-3.636100 -48.448850 -21.125264 9
-6.297352 -48.443036 -21.062221 9
-8.958872 -48.500673 -21.014810 9
-11.617414 -48.508157 -20.955890 9
-14.275569 -48.560774 -20.908228 9
-16.932564 -48.636154 -20.866482 9
-19.588989 -48.676031 -20.816681 9
-22.246768 -48.664053 -20.754864 9
-24.905281 -48.680122 -20.700188 9
-27.563751 -48.734297 -20.655078 9
-30.229557 -48.675174 -20.583103 9
-32.889867 -48.768241 -20.548147 9
-35.557909 -48.776414 -20.493122 9
-38.228181 -48.802737 -20.442837 9
-40.902195 -48.830467 -20.393248 9
-43.580050 -48.863116 -20.345196 9
-46.284109 -48.705511 -20.251446 9
-49.498263 -44.467102 -19.169603 9
-51.857590 -47.354424 -19.813598 9
-54.767034 -46.034443 -19.438374 9
-57.758349 -44.402971 -18.987275 9
-60.811332 -42.645905 -18.505282 9
-63.896665 -40.958550 -18.039817 9
-67.038544 -39.201429 -17.556967 9
-71.350580 -31.642158 -15.660248 8
-74.269815 -31.722346 -15.623319 8
-77.214035 -31.731757 -15.569407 8
-80.167353 -31.753562 -15.518770 8
-83.126195 -31.803956 -15.475365 8
-86.103358 -31.829738 -15.426189 8
-89.092365 -31.861709 -15.378756 8
-92.096022 -31.891048 -15.330902 8
-95.116236 -31.913559 -15.281587 8
-98.155461 -31.923812 -15.229466 8
-101.197242 -31.980533 -15.188945 8
-104.295679 -31.906276 -15.116435 8
-107.704609 -30.923874 -14.820729 8
-111.911280 -27.653900 -13.961806 8
-115.752038 -25.720704 -13.431054 7
-118.013071 -28.439975 -14.046513 7
-121.225055 -28.441932 -13.992824 7
-124.453952 -28.457800 -13.942698 7
-127.696148 -28.497850 -13.898670 7
-130.969963 -28.516131 -13.849384 7
-134.260367 -28.553270 -13.804873 7
-137.573822 -28.594488 -13.761477 7
-140.898414 -28.669088 -13.726452 7
-144.271031 -28.693533 -13.679091 7
-147.670414 -28.720385 -13.632402 7
-151.084466 -28.777410 -13.593273 7
-234.131221 136.926277 27.643151 0
-239.616223 136.868614 27.712556 0
-244.701270 135.919495 27.560009 0
146.853294 -25.168472 -15.739866 6
143.108574 -25.239447 -15.663206 6
139.409562 -25.297468 -15.584615 6
135.755124 -25.341390 -15.503773 6
132.153172 -25.352223 -15.416090 6
128.563287 -25.406779 -15.339902 6
125.014811 -25.445305 -15.260889 6
121.500808 -25.478964 -15.181685 6
116.188054 -29.496142 -16.061052 5
110.397282 -34.858121 -17.267349 5
106.501348 -36.224054 -17.514653 5
103.195136 -36.336739 -17.461195 5
99.942763 -36.386576 -17.393411 5
96.732470 -36.395222 -17.316461 5
93.528474 -36.448592 -17.251088 5
90.342275 -36.518089 -17.190374 5
87.202411 -36.525283 -17.115280 5
84.065772 -36.582998 -17.053140 5
80.953922 -36.631379 -16.989419 5
77.854695 -36.703564 -16.932155 5
74.795422 -36.715159 -16.860779 5
71.746293 -36.752796 -16.796362 5
68.721187 -36.770932 -16.727779 5
64.558592 -40.751981 -17.628745 9
61.042890 -42.787083 -18.055989 9
57.624100 -44.678699 -18.449629 9
54.273066 -46.517943 -18.831877 9
51.082680 -47.921526 -19.108559 9
48.986708 -44.915143 -18.302539 9
45.195607 -49.116127 -19.268647 9
42.403836 -49.183078 -19.219170 9
39.628426 -49.230617 -19.165349 9
36.862456 -49.287852 -19.114338 9
34.118504 -49.286080 -19.049160 9
31.378014 -49.316838 -18.992391 9
28.653394 -49.308336 -18.926273 9
25.934884 -49.311812 -18.863458 9
23.217693 -49.358827 -18.811765 9
20.511905 -49.381168 -18.754285 9
17.812952 -49.404926 -18.697466 9
15.119070 -49.441160 -18.644049 9
12.434947 -49.444390 -18.582709 9
9.749457 -49.514666 -18.538336 9
7.074915 -49.526502 -18.479674 9
4.406416 -49.514671 -18.415349 9
1.738780 -49.539119 -18.360308 9
-0.926547 -49.584527 -18.310734 9
-3.585335 -49.562481 -18.244504 9
-6.243636 -49.570293 -18.185934 9
-8.899572 -49.552091 -18.121026 9
-11.555981 -49.602578 -18.073516 9
-14.210566 -49.610606 -18.015523 9
-16.864911 -49.629415 -17.960391 9
-19.519127 -49.663225 -17.909177 9
-22.174380 -49.663520 -17.849664 9
-24.829595 -49.707945 -17.801387 9
-27.486613 -49.734459 -17.748715 9
-30.146469 -49.742903 -17.691585 9
-32.809137 -49.750154 -17.634238 9
-35.473216 -49.782790 -17.583386 9
-38.143189 -49.783486 -17.524522 9
-40.815287 -49.808605 -17.471896 9
-43.490786 -49.843523 -17.421804 9
-46.182658 -49.775148 -17.345538 9
-48.926714 -49.341561 -17.176481 9
-51.732806 -48.555682 -16.917665 9
-54.639447 -47.226881 -16.520336 9
-57.629759 -45.576989 -16.040625 9
-60.668473 -43.885852 -15.549645 9
-63.748257 -42.207048 -15.061028 9
-66.869043 -40.542849 -14.575348 9
-71.180922 -32.968627 -12.578381 8
-74.109054 -32.980785 -12.518604 8
-77.046492 -33.001950 -12.461049 8
-79.994060 -33.029939 -12.405152 8
-82.963083 -33.018400 -12.339018 8
-85.934862 -33.050945 -12.284069 8
-88.918582 -33.088870 -12.230380 8
-91.932192 -33.066781 -12.161125 8
-94.943928 -33.108300 -12.108067 8
-97.969754 -33.153392 -12.055772 8
-101.021534 -33.164312 -11.994498 8
-116.883160 8.085628 -1.286134 7
-107.441157 -32.364005 -11.659009 8
-111.629014 -29.140454 -10.760823 8
-115.766930 -26.326987 -9.967014 7
-117.628016 -30.180551 -10.898089 7
-120.821069 -30.209927 -10.839499 7
-124.040119 -30.227475 -10.777563 7
-127.278321 -30.254026 -10.717665 7
-130.537197 -30.287119 -10.659156 7
-133.817529 -30.326423 -10.601940 7
-137.148367 -30.304710 -10.528500 7
-140.485808 -30.330215 -10.466982 7
-143.855553 -30.343646 -10.401938 7
-147.233631 -30.400464 -10.347820 7
-150.652152 -30.431058 -10.286452 7
-234.684651 136.910462 33.552094 0
-240.221078 136.916963 33.665045 0
146.376828 -27.110487 -12.325839 6
142.667453 -27.134295 -12.258299 6
139.019448 -27.113810 -12.180178 6
135.380751 -27.143271 -12.115172 6
131.778116 -27.171475 -12.050381 6
128.211602 -27.195877 -11.985139 6
124.700092 -27.174928 -11.908921 6
121.185523 -27.225622 -11.851277 6
115.417783 -32.231797 -13.049164 5
109.898095 -37.014485 -14.193217 5
106.130987 -38.111005 -14.404590 5
102.855930 -38.173866 -14.354320 5
99.622411 -38.201145 -14.295386 5
96.417163 -38.220496 -14.234783 5
93.243145 -38.221445 -14.169823 5
90.084513 -38.241800 -14.110114 5
86.956363 -38.240187 -14.045099 5
83.827667 -38.299014 -13.995793 5
80.729265 -38.332867 -13.940391 5
77.671033 -38.307569 -13.870116 5
74.582392 -38.432086 -13.838423 5
71.552775 -38.434823 -13.775793 5
68.523611 -38.493503 -13.727719 5
64.535154 -41.893651 -14.537781 9
61.039846 -43.858049 -14.980599 9
57.619207 -45.756737 -15.407562 9
54.267251 -47.600983 -15.821508 9
51.075574 -49.013897 -16.125283 9
48.069133 -49.831000 -16.276169 9
45.201240 -50.171183 -16.304439 9
42.416952 -50.214474 -16.256267 9
39.651478 -50.224542 -16.199611 9
36.891425 -50.260894 -16.149834 9
34.137374 -50.321716 -16.106474 9
31.407780 -50.304150 -16.042875 9
28.679402 -50.329381 -15.990411 9
25.959908 -50.353490 -15.937696 9
23.251429 -50.358073 -15.879937 9
20.547375 -50.383025 -15.827484 9
17.854222 -50.377996 -15.767235 9
15.170874 -50.340138 -15.698417 9
12.479077 -50.426343 -15.661905 9
9.806846 -50.380242 -15.590869 9
7.130651 -50.421483 -15.542577 9
4.460810 -50.443130 -15.489124 9
1.795539 -50.455530 -15.433193 9
-0.866054 -50.460727 -15.375301 9
-3.524835 -50.461970 -15.316286 9
-6.182662 -50.493042 -15.264994 9
-8.838364 -50.525090 -15.213860 9
-11.491858 -50.525728 -15.154365 9
-14.144926 -50.545362 -15.099731 9
-16.797637 -50.535208 -15.037121 9
-19.450417 -50.569307 -14.986007 9
-22.103797 -50.588126 -14.930713 9
-24.758701 -50.592471 -14.871430 9
-27.413916 -50.632342 -14.821340 9
-30.073756 -50.615202 -14.755998 9
-32.732519 -50.667063 -14.708690 9
-35.398823 -50.647854 -14.642362 9
-38.066028 -50.669665 -14.586659 9
-40.738341 -50.679303 -14.527490 9
-43.412625 -50.715765 -14.475185 9
-46.101539 -50.664270 -14.399253 9
-48.843277 -50.240053 -14.223886 9
-51.652289 -49.423444 -13.943573 9
-54.547860 -48.167005 -13.545381 9
-57.536587 -46.519103 -13.041878 9
-60.571792 -44.842273 -12.529525 9
-63.655452 -43.134309 -12.007692 9
-66.766383 -41.519479 -11.509563 9
-71.092720 -33.874388 -9.396408 8
-74.025584 -33.860186 -9.323191 8
-76.961701 -33.885844 -9.260222 8
-79.913959 -33.891426 -9.191430 8
-82.865249 -33.954751 -9.137688 8
-85.849702 -33.932543 -9.060501 8
-88.842505 -33.934357 -8.989271 8
-91.831011 -34.007058 -8.936624 8
-94.846944 -34.030929 -8.870317 8
-97.884260 -34.034634 -8.798032 8
-100.920862 -34.096355 -8.740856 8
-104.020322 -34.007688 -8.642460 8
-107.359764 -33.235437 -8.358383 8
-111.438828 -30.347338 -7.499993 8
-115.763169 -26.988663 -6.511774 8
-117.414201 -31.434406 -7.639847 7
-120.606444 -31.456278 -7.567425 7
-123.814946 -31.492785 -7.498284 7
-127.048991 -31.520891 -7.426140 7
-130.308252 -31.544257 -7.351962 7
-133.581000 -31.593898 -7.284187 7
-136.898405 -31.596114 -7.202680 7
-140.213210 -31.665496 -7.138711 7
-143.567710 -31.704158 -7.065518 7
-146.952897 -31.736223 -6.989657 7
-150.387959 -31.723528 -6.900628 7
-235.246480 136.904932 39.500052 0
146.233508 -28.452043 -8.779242 6
142.530125 -28.468670 -8.730041 6
138.866117 -28.482133 -8.680012 6
135.252829 -28.468185 -8.622710 6
131.678192 -28.446085 -8.563223 6
128.104756 -28.487974 -8.520702 6
124.582500 -28.493696 -8.468547 6
121.081444 -28.521311 -8.422173 6
114.896893 -34.415017 -9.937451 5
112.585305 -32.094436 -9.266490 5
105.965961 -39.522893 -11.193659 5
102.672168 -39.640216 -11.173029 5
99.451296 -39.649868 -11.123612 5
96.262150 -39.642262 -11.069492 5
93.085902 -39.661596 -11.022467 5
89.926402 -39.697974 -10.979897 5
86.809155 -39.681840 -10.923160 5
83.697899 -39.706987 -10.877348 5
80.608955 -39.728228 -10.830359 5
77.550997 -39.717141 -10.774559 5
74.497051 -39.750877 -10.730634 5
71.469432 -39.760957 -10.680202 5
68.450697 -39.799778 -10.637330 5
64.579362 -42.802533 -11.391772 9
61.084738 -44.757645 -11.865104 9
57.646191 -46.715634 -12.339775 9
54.312779 -48.485609 -12.764311 9
51.125336 -49.877443 -13.087293 9
48.101517 -50.764505 -13.274300 9
45.262208 -50.983639 -13.280938 9
42.469691 -51.063545 -13.249780 9
39.698818 -51.100748 -13.206859 9
36.953175 -51.067621 -13.144658 9
34.204780 -51.097942 -13.099384 9
31.474623 -51.081861 -13.041273 9
28.749152 -51.088192 -12.988965 9
26.025276 -51.137394 -12.948024 9
23.317542 -51.136207 -12.893114 9
20.616852 -51.135680 -12.838083 9
17.919588 -51.160201 -12.789563 9
15.230622 -51.170257 -12.736795 9
12.541043 -51.239977 -12.699972 9
9.866095 -51.225780 -12.639943 9
7.190413 -51.268982 -12.595237 9
4.525857 -51.231704 -12.528198 9
1.858866 -51.272329 -12.482086 9
-0.799996 -51.238125 -12.415132 9
-3.459666 -51.260463 -12.363268 9
-6.116028 -51.260718 -12.304964 9
-8.771386 -51.281108 -12.251778 9
-11.425490 -51.313348 -12.201439 9
-14.078312 -51.333877 -12.147467 9
-16.730646 -51.360796 -12.094825 9
-19.383539 -51.335513 -12.027372 9
-22.036741 -51.359686 -11.973074 9
-24.690147 -51.406422 -11.924536 9
-27.347443 -51.385067 -11.856742 9
-30.002800 -51.454510 -11.813522 9
-32.664322 -51.449921 -11.749358 9
-35.327391 -51.472309 -11.692135 9
-37.993410 -51.500984 -11.636128 9
-40.661814 -51.545454 -11.583967 9
-43.341929 -51.515356 -11.510577 9
-46.039301 -51.386110 -11.409067 9
-48.779933 -50.975106 -11.228593 9
-51.585483 -50.188122 -10.942718 9
-54.475727 -48.971124 -10.536093 9
-57.469156 -47.293259 -9.999769 9
-60.493576 -45.685556 -9.481493 9
-63.577325 -43.976916 -8.933520 9
-66.711332 -42.237382 -8.375316 9
-71.051886 -34.536644 -6.147874 8
-73.978483 -34.562107 -6.078965 8
-76.921567 -34.562343 -6.002221 8
-79.882050 -34.539546 -5.918217 8
-83.472716 -31.907524 -5.100624 8
-85.812797 -34.618630 -5.782747 8
-88.803677 -34.635252 -5.707319 8
-91.818966 -34.614657 -5.620537 8
-94.830509 -34.664489 -5.552702 8
-97.879116 -34.638402 -5.462543 8
-100.936329 -34.641598 -5.379696 8
-103.990584 -34.710464 -5.314457 8
-107.362509 -33.845816 -4.983926 8
-111.432348 -31.001665 -4.090709 8
-115.787230 -27.570595 -3.028121 8
-117.315866 -32.361803 -4.298219 7
-120.504106 -32.394849 -4.216943 7
-123.735454 -32.371055 -4.118368 7
-126.962944 -32.418125 -4.038812 7
-130.231585 -32.419899 -3.945164 7
-133.519287 -32.435841 -3.854339 7
-136.834046 -32.448076 -3.761205 7
-140.164104 -32.485995 -3.674143 7
-143.565798 -32.423884 -3.557097 7
-146.944266 -32.477988 -3.472013 7
-150.375451 -32.480615 -3.370771 7
146.349353 -29.331315 -5.113443 6
142.670205 -29.296954 -5.070222 6
139.005844 -29.303118 -5.037724 6
135.380516 -29.304258 -5.003274 6
131.793825 -29.298433 -4.966331 6
128.245904 -29.282531 -4.926024 6
124.702741 -29.323091 -4.900917 6
121.214953 -29.315901 -4.861942 6
118.071524 -28.632762 -4.633647 6
109.611660 -39.726207 -7.694972 5
105.928905 -40.640733 -7.913392 5
102.670169 -40.678770 -7.886405 5
99.449935 -40.687865 -7.850801 5
96.266042 -40.668640 -7.806743 5
93.082616 -40.707373 -7.778381 5
89.941967 -40.696555 -7.735613 5
86.813888 -40.710673 -7.699299 5
83.705017 -40.731409 -7.664310 5
80.629405 -40.716902 -7.618897 5
77.557108 -40.749905 -7.586282 5
74.516032 -40.747659 -7.543228 5
71.483109 -40.777056 -7.508524 5
68.484977 -40.751924 -7.457941 5
64.680419 -43.518190 -8.192437 9
61.200933 -45.405817 -8.679835 9
57.778763 -47.287287 -9.165559 9
54.412574 -49.163266 -9.649803 9
51.230486 -50.521010 -9.987921 9
48.219176 -51.344072 -10.175014 9
45.337604 -51.733760 -10.239425 9
42.561319 -51.736099 -10.193937 9
39.797208 -51.733595 -10.146514 9
37.039428 -51.751835 -10.104389 9
34.295310 -51.752493 -10.056714 9
31.561368 -51.748845 -10.007238 9
28.825228 -51.810074 -9.975565 9
26.113227 -51.779254 -9.917204 9
23.401089 -51.797243 -9.872087 9
20.699284 -51.795227 -9.820684 9
18.003012 -51.801751 -9.771093 9
15.314815 -51.793005 -9.716536 9
12.631235 -51.791907 -9.663522 9
9.949884 -51.819950 -9.618171 9
7.277969 -51.799133 -9.558254 9
4.605936 -51.826952 -9.511548 9
1.937723 -51.859294 -9.465480 9
-0.723832 -51.840457 -9.404131 9
-3.385545 -51.870830 -9.356160 9
-6.043418 -51.869992 -9.298578 9
-8.699832 -51.872161 -9.241155 9
-11.356149 -51.931949 -9.199532 9
-14.009926 -51.888027 -9.127467 9
-16.664260 -51.945880 -9.083861 9
-19.318722 -51.935237 -9.019859 9
-21.973864 -51.944910 -8.960935 9
-24.629929 -51.964029 -8.903964 9
-27.285963 -52.020032 -8.856841 9
-29.946818 -52.009026 -8.789638 9
-32.608753 -52.030985 -8.731130 9
-35.272528 -52.068704 -8.676362 9
-37.943063 -52.063073 -8.608251 9
-40.616706 -52.073042 -8.543799 9
-43.296300 -52.071373 -8.475119 9
-45.999425 -51.910226 -8.359354 9
-48.743104 -51.495042 -8.168941 9
-51.545752 -50.749883 -7.881617 9
-54.448656 -49.461364 -7.435101 9
-57.445021 -47.785995 -6.874431 9
-60.484822 -46.105354 -6.310323 9
-63.558384 -44.479994 -5.760376 9
-66.694501 -42.748698 -5.177583 9
-71.059677 -34.950229 -2.821534 8
-73.995308 -34.953389 -2.739672 8
-76.940171 -34.967414 -2.659860 8
-79.904406 -34.948739 -2.569329 8
-82.885312 -34.915805 -2.473432 8
-85.861579 -34.959177 -2.398706 8
-88.862443 -34.958694 -2.309901 8
-91.861020 -35.022079 -2.238628 8
-94.886948 -35.038354 -2.152251 8
-97.941210 -35.011735 -2.051940 8
-100.985737 -35.075613 -1.976982 8
-104.106749 -34.946508 -1.843702 8
-107.447719 -34.202189 -1.527004 8
-111.668817 -30.929922 -0.459891 8
-115.756395 -28.313114 0.416684 7
-117.403784 -32.766542 -0.801745 7
-120.612297 -32.760711 -0.696765 7
-123.843401 -32.754979 -0.590244 7
-127.079783 -32.795861 -0.496003 7
-130.369802 -32.761198 -0.377618 7
-133.682188 -32.735098 -0.260085 7
-137.003280 -32.751145 -0.153416 7
-140.366105 -32.732527 -0.034618 7
-143.736716 -32.759751 0.072254 7
-147.160323 -32.733315 0.197065 7
-150.605448 -32.726016 0.318038 7
146.755007 -29.699616 -1.294456 6
143.029124 -29.730999 -1.290041 6
139.356266 -29.735605 -1.276687 6
135.728119 -29.724869 -1.257743 6
132.126242 -29.731118 -1.242664 6
128.541162 -29.772112 -1.236655 6
125.017325 -29.757513 -1.213332 6
121.503348 -29.788159 -1.202174 6
115.189599 -35.891653 -2.965652 5
109.852344 -40.232353 -4.213461 5
106.087855 -41.314250 -4.507583 5
102.827077 -41.347612 -4.494059 5
99.606460 -41.348283 -4.469997 5
96.411020 -41.348032 -4.444697 5
93.255188 -41.308101 -4.406813 5
90.078796 -41.379228 -4.400506 5
86.965116 -41.346160 -4.362722 5
83.847478 -41.381098 -4.343926 5
80.768771 -41.366010 -4.309521 5
77.711035 -41.346563 -4.272895 5
74.651626 -41.388928 -4.253474 5
71.624026 -41.391758 -4.221520 5
68.612716 -41.399039 -4.189944 5
64.876709 -43.913381 -4.894321 9
61.421280 -45.690526 -5.381644 9
57.981089 -47.607119 -5.909542 9
54.597905 -49.518065 -6.435385 9
51.379306 -50.993780 -6.832697 9
48.354949 -51.851218 -7.047383 9
45.479838 -52.196609 -7.110498 9
42.693826 -52.225586 -7.079513 9
39.927921 -52.215118 -7.036001 9
37.175766 -52.187821 -6.986620 9
34.416368 -52.248279 -6.962249 9
31.682679 -52.225317 -6.912340 9
28.944148 -52.280514 -6.884626 9
26.225908 -52.267797 -6.835927 9
23.514774 -52.257902 -6.787142 9
20.806372 -52.279064 -6.746631 9
18.105605 -52.296395 -6.704067 9
15.412153 -52.307138 -6.658623 9
12.724942 -52.314487 -6.611238 9
10.044253 -52.309247 -6.559173 9
7.366177 -52.325522 -6.512548 9
4.694011 -52.322883 -6.459346 9
2.024646 -52.331110 -6.408410 9
-0.639334 -52.302527 -6.345543 9
-3.304587 -52.342370 -6.302069 9
-5.965636 -52.347193 -6.247176 9
-8.625163 -52.357403 -6.192892 9
-11.284087 -52.405535 -6.148924 9
-13.940804 -52.368067 -6.078374 9
-16.598104 -52.372683 -6.019360 9
-19.255672 -52.382387 -5.960826 9
-21.913862 -52.396916 -5.902685 9
-24.573494 -52.401881 -5.840615 9
-27.235309 -52.398416 -5.774937 9
-29.898771 -52.411170 -5.713030 9
-32.563902 -52.440043 -5.654864 9
-35.233536 -52.446239 -5.588769 9
-37.907598 -52.445136 -5.519340 9
-40.584151 -52.465493 -5.455222 9
-43.269641 -52.443385 -5.377138 9
-45.958740 -52.441916 -5.304083 9
-48.717208 -51.926842 -5.074653 9
-51.530399 -51.129587 -4.758375 9
-54.437866 -49.839151 -4.291112 9
-57.430792 -48.215327 -3.720815 9
-60.475879 -46.527527 -3.128854 9
-63.582404 -44.738066 -2.503686 9
-66.721002 -43.026839 -1.899839 9
-71.132348 -35.033241 0.617580 8
-74.085048 -34.992043 0.719828 8
-77.035430 -35.019741 0.802584 8
-80.013075 -34.979093 0.907692 8
-82.986271 -35.015531 0.990815 8
-85.973466 -35.047386 1.076882 8
-88.987602 -35.027712 1.180299 8
-92.019347 -34.999784 1.287887 8
-95.849724 -32.178203 2.254517 8
-98.088789 -35.093501 1.462165 8
-101.153987 -35.117924 1.558721 8
-104.284182 -34.989651 1.704045 8
-107.728052 -33.958401 2.129723 8
-112.102540 -30.273613 3.377372 8
-115.845409 -28.710234 3.973930 7
-117.687719 -32.625047 2.877799 7
-120.922114 -32.582186 3.007253 7
-124.163120 -32.584175 3.124826 7
-127.433421 -32.571329 3.249057 7
-130.734486 -32.543454 3.380071 7
-134.062929 -32.512159 3.514318 7
-137.399560 -32.524929 3.637028 7
-140.790203 -32.475786 3.781321 7
-144.193430 -32.463857 3.916302 7
-147.636332 -32.429807 4.060577 7
-151.106102 -32.404521 4.204535 7
147.414408 -29.626503 2.678529 6
143.719521 -29.572653 2.688248 6
140.040318 -29.557589 2.687813 6
136.375624 -29.583970 2.676386 6
132.766801 -29.572465 2.678187 6
129.165383 -29.613937 2.665424 6
125.610496 -29.630557 2.661858 6
122.095257 -29.632400 2.664389 6
116.030391 -35.148928 0.983066 5
110.259600 -40.376789 -0.608724 5
106.398986 -41.647366 -0.989673 5
103.133957 -41.671808 -0.988307 5
99.888147 -41.713433 -0.990769 5
96.692126 -41.696713 -0.973982 5
93.486401 -41.764022 -0.981494 5
90.347443 -41.722471 -0.954329 5
87.197896 -41.766380 -0.951933 5
84.094813 -41.744432 -0.928028 5
81.001500 -41.752257 -0.911881 5
77.943552 -41.715408 -0.880717 5
74.891823 -41.715429 -0.859506 5
71.853010 -41.732801 -0.842284 5
68.839083 -41.728123 -0.816993 5
65.193028 -43.908629 -1.460104 9
61.688795 -45.815417 -2.018414 9
58.195697 -47.887043 -2.626371 9
54.795410 -49.831260 -3.194405 9
51.595773 -51.203704 -3.586133 9
48.564564 -52.058175 -3.817906 9
45.672726 -52.445453 -3.905157 9
42.880779 -52.473533 -3.880907 9
40.105360 -52.479522 -3.848643 9
37.336898 -52.504551 -3.821005 9
34.591332 -52.465272 -3.772361 9
31.845276 -52.476865 -3.738133 9
29.101687 -52.527941 -3.714836 9
26.380755 -52.496495 -3.664898 9
23.662853 -52.492870 -3.622292 9
20.948961 -52.512295 -3.585555 9
18.244599 -52.513394 -3.541930 9
15.547714 -52.504188 -3.493879 9
12.849247 -52.560077 -3.464685 9
10.164350 -52.542508 -3.411552 9
7.482024 -52.544396 -3.363170 9
4.803893 -52.546031 -3.313445 9
2.130179 -52.536561 -3.259010 9
-0.543195 -52.571290 -3.216987 9
-3.210615 -52.551172 -3.156685 9
-5.876014 -52.522436 -3.092403 9
-8.543002 -52.586042 -3.055477 9
-11.206378 -52.581005 -2.995935 9
-13.869187 -52.565698 -2.931871 9
-16.532154 -52.584909 -2.877206 9
-19.195132 -52.605971 -2.821779 9
-21.858979 -52.610308 -2.759789 9
-24.523080 -52.648374 -2.706949 9
-27.190440 -52.636847 -2.637262 9
-29.859715 -52.639749 -2.570676 9
-32.531144 -52.654373 -2.506341 9
-35.203534 -52.699278 -2.450060 9
-37.883568 -52.688738 -2.374990 9
-40.569321 -52.667167 -2.294994 9
-43.256767 -52.681984 -2.224921 9
-45.970878 -52.507345 -2.093860 9
-48.719850 -52.128110 -1.896866 9
-51.528130 -51.412377 -1.592232 9
-54.448529 -50.068996 -1.087927 9
-57.468216 -48.310772 -0.450419 9
-60.538654 -46.514976 0.201684 9
-63.656179 -44.713451 0.858412 9
-66.801914 -43.013185 1.486000 9
-71.264908 -34.812930 4.174069 8
-74.217531 -34.826376 4.266612 8
-77.184637 -34.826159 4.365329 8
-80.172804 -34.788003 4.477971 8
-83.162760 -34.800755 4.576363 8
-86.182459 -34.747985 4.697543 8
-89.207156 -34.735882 4.807776 8
-92.247332 -34.723292 4.920182 8
-95.291637 -34.753176 5.021073 8
-98.364258 -34.740235 5.137722 8
-101.457716 -34.716197 5.260055 8
-104.598228 -34.600918 5.413830 8
-108.108239 -33.412239 5.914599 8
-112.697634 -29.143811 7.408941 8
-115.820337 -29.439097 7.439836 7
-118.251196 -31.708001 6.836481 7
-121.504565 -31.671046 6.978034 7
-124.785759 -31.623418 7.125529 7
-128.073884 -31.621548 7.260761 7
-131.407138 -31.569151 7.414943 7
-134.771730 -31.505868 7.575330 7
-138.143968 -31.490253 7.722949 7
-141.572644 -31.409589 7.894513 7
-145.009377 -31.378468 8.052791 7
-148.479253 -31.341114 8.216001 7
-152.013418 -31.234713 8.404785 7
144.698333 -28.906242 6.863348 6
140.993540 -28.894722 6.841902 6
137.313007 -28.907091 6.815081 6
133.686587 -28.885190 6.801417 6
130.071870 -28.907823 6.775721 6
126.486296 -28.940695 6.748908 6
122.950192 -28.940039 6.734907 6
119.132439 -29.605780 6.510444 5
111.051506 -39.687412 3.285235 5
106.952670 -41.441456 2.718150 5
103.642960 -41.535338 2.682429 5
100.404507 -41.527504 2.681032 5
97.194031 -41.512423 2.683810 5
94.004572 -41.504675 2.686095 5
90.836592 -41.501487 2.688748 5
87.693795 -41.491163 2.695482 5
84.558155 -41.520200 2.691450 5
81.440527 -41.559360 2.685958 5
78.354631 -41.567214 2.692201 5
75.290287 -41.568996 2.702118 5
72.244477 -41.571135 2.713645 5
69.209394 -41.596539 2.719459 5
65.606006 -43.587277 2.099780 9
62.030956 -45.687044 1.446739 9
58.534427 -47.723380 0.815324 9
55.107341 -49.718897 0.198283 9
53.023709 -46.669914 1.193820 9
48.808279 -52.131472 -0.527626 9
45.897634 -52.562900 -0.640878 9
43.078416 -52.679222 -0.651902 9
40.300247 -52.667432 -0.620410 9
37.519659 -52.719495 -0.607777 9
34.762405 -52.708582 -0.573440 9
32.018087 -52.677964 -0.531233 9
29.278627 -52.667950 -0.494060 9
26.538471 -52.713584 -0.473157 9
23.817690 -52.689249 -0.428281 9
21.097269 -52.711232 -0.396694 9
18.387764 -52.705125 -0.354543 9
15.680725 -52.729779 -0.320705 9
12.981514 -52.739998 -0.280674 9
10.289625 -52.731112 -0.232942 9
7.603191 -52.711641 -0.180232 9
4.916192 -52.747049 -0.143593 9
2.240966 -52.675123 -0.070837 9
-0.439560 -52.721905 -0.034698 9
-2.936752 -49.078838 1.192167 9
-5.788671 -52.770675 0.056764 9
-8.458681 -52.755070 0.117797 9
-11.127703 -52.728621 0.183960 9
-13.797010 -52.743732 0.238336 9
-16.465904 -52.769652 0.290853 9
-19.135462 -52.730546 0.366054 9
-21.805663 -52.740111 0.427179 9
-24.477944 -52.723366 0.498506 9
-27.151547 -52.729252 0.564195 9
-29.826170 -52.760169 0.623465 9
-32.504634 -52.766901 0.692301 9
-35.187735 -52.755675 0.768713 9
-37.875612 -52.737678 0.849093 9
-40.562952 -52.777948 0.912282 9
-43.255378 -52.809707 0.980018 9
-45.978386 -52.614775 1.123526 9
-48.744173 -52.155013 1.355492 9
-51.575768 -51.323315 1.711213 9
-54.512868 -49.927778 2.253886 9
-57.542988 -48.166369 2.919257 9
-60.626820 -46.350876 3.605505 9
-64.620411 -39.605761 5.913311 9
-66.956530 -42.605208 5.025493 9
-71.479591 -34.177449 7.897132 8
-74.453018 -34.165693 8.005165 8
-77.446813 -34.116107 8.127898 8
-80.439533 -34.131024 8.231628 8
-83.450949 -34.121560 8.345691 8
-86.480632 -34.095234 8.467665 8
-89.518927 -34.093917 8.583736 8
-92.567263 -34.111891 8.695811 8
-95.650604 -34.060628 8.833310 8
-98.748465 -34.020430 8.969657 8
-101.866966 -33.972329 9.111201 8
-115.955698 0.941831 20.883028 8
-108.713574 -32.180612 9.968421 8
-113.849109 -26.369489 12.046079 8
-117.369627 -25.639680 12.430287 7
-119.060034 -30.116265 11.071844 7
-122.380241 -29.977066 11.262271 7
-125.699280 -29.910110 11.431461 7
-129.051545 -29.823897 11.610196 7
-132.438226 -29.719417 11.798236 7
-135.849023 -29.625210 11.986030 7
-139.301607 -29.501461 12.187112 7
-142.779849 -29.389475 12.387595 7
-146.275301 -29.309282 12.580731 7
-149.831652 -29.166630 12.798614 7
146.166525 -27.378684 11.375477 6
142.368284 -27.474108 11.297957 6
138.641477 -27.511055 11.242791 6
134.951191 -27.549778 11.189848 6
131.313830 -27.555716 11.150577 6
127.676025 -27.631579 11.090761 6
124.138934 -27.571197 11.078925 6
119.076895 -30.809281 9.973370 5
112.458609 -37.672172 7.666533 5
107.789626 -40.611925 6.666624 5
104.369655 -40.907986 6.547613 5
101.114113 -40.894820 6.533686 5
97.877953 -40.895644 6.517442 5
94.663073 -40.904691 6.500770 5
91.464117 -40.934196 6.479580 5
88.296698 -40.942374 6.467716 5
85.155487 -40.939483 6.461746 5
82.055698 -40.879270 6.476994 5
78.956751 -40.871914 6.476875 5
75.871924 -40.880472 6.473629 5
72.795428 -40.922239 6.461496 5
69.740853 -40.954529 6.454622 5
66.710687 -40.965523 6.456911 5
62.490227 -45.161503 5.072304 9
58.925254 -47.381149 4.345464 9
55.486245 -49.364223 3.698985 9
52.180925 -51.046865 3.154046 9
49.095115 -52.036295 2.841080 9
46.155399 -52.547322 2.688828 9
43.345981 -52.579270 2.697590 9
40.557637 -52.569269 2.722201 9
37.773947 -52.588676 2.738945 9
35.000493 -52.610269 2.756860 9
32.246600 -52.580064 2.793893 9
29.495616 -52.582206 2.822061 9
26.754598 -52.575738 2.854982 9
24.017675 -52.594039 2.881543 9
21.294247 -52.571897 2.923453 9
18.576141 -52.558147 2.964455 9
15.861947 -52.562165 3.001421 9
13.155680 -52.547577 3.046475 9
10.450361 -52.573189 3.080006 9
7.755899 -52.536407 3.136247 9
5.063600 -52.515961 3.188937 9
2.369586 -52.567398 3.219509 9
-0.316249 -52.551951 3.274330 9
-3.001822 -52.578857 3.316895 9
-5.682538 -52.550082 3.380007 9
-8.363383 -52.562005 3.431422 9
-11.042303 -52.543671 3.494909 9
-13.721329 -52.565107 3.547007 9
-16.399889 -52.543822 3.615391 9
-19.078988 -52.548695 3.676965 9
-21.759060 -52.546782 3.742796 9
-24.441582 -52.514197 3.820941 9
-27.124946 -52.523608 3.886972 9
-29.806369 -52.613776 3.927814 9
-32.499118 -52.540504 4.025758 9
-35.188760 -52.578858 4.088130 9
-37.887341 -52.548164 4.175879 9
-40.587830 -52.552522 4.253892 9
-43.289418 -52.594473 4.321299 9
-46.015132 -52.465321 4.448770 9
-48.791787 -51.995046 4.694134 9
-51.643222 -51.088357 5.090095 9
-54.593673 -49.674915 5.661031 9
-57.654255 -47.788666 6.395978 9
-60.779910 -45.796273 7.170698 9
-63.939939 -43.896062 7.917801 9
-67.305071 -41.157808 8.954607 9
-71.769107 -33.166134 11.790133 8
-74.769534 -33.118948 11.918057 8
-78.524531 -29.660350 13.216422 8
-80.789524 -33.115013 12.150858 8
-83.839691 -33.027473 12.300620 8
-86.902601 -32.952550 12.448840 8
-89.971456 -32.917481 12.586176 8
-93.064780 -32.851724 12.736921 8
-96.166628 -32.817941 12.879549 8
-99.283802 -32.791814 13.022465 8
-102.443554 -32.685221 13.196190 8
-105.708660 -32.309612 13.466203 8
-113.277633 -18.812305 18.291360 8
-115.415333 -22.382247 17.204371 8
-119.198336 -21.060577 17.818861 7
-120.375016 -27.129829 15.862692 7
-123.768012 -26.916317 16.096020 7
-127.187667 -26.707738 16.331285 7
-130.636385 -26.499964 16.569999 7
-134.140460 -26.230544 16.834141 7
-137.651147 -26.023791 17.080231 7
-141.211770 -25.776081 17.344708 7
-144.789791 -25.566837 17.599735 7
-148.411730 -25.336936 17.866212 7
144.396484 -24.882045 16.232789 6
140.612122 -24.935810 16.150542 6
136.875966 -24.971076 16.078148 6
133.175589 -25.008343 16.008433 6
129.518133 -25.030962 15.947101 6
125.897777 -25.047363 15.891173 6
122.310847 -25.062403 15.838910 6
115.798457 -31.489596 13.572720 5
109.004935 -38.954534 10.952750 5
105.330825 -39.757305 10.639410 5
102.035516 -39.777215 10.599497 5
98.765383 -39.799709 10.561506 5
95.518138 -39.828416 10.524146 5
92.311019 -39.817424 10.503225 5
89.109227 -39.852657 10.469055 5
85.938215 -39.866848 10.444816 5
82.789743 -39.878774 10.423997 5
79.647648 -39.932718 10.391298 5
76.550751 -39.914191 10.386170 5
73.470684 -39.901207 10.381683 5
70.408909 -39.887244 10.380062 5
66.735096 -41.967222 9.659157 9
63.072065 -44.225013 8.879466 9
59.472889 -46.487153 8.100705 9
55.980417 -48.590230 7.379128 9
52.580974 -50.563424 6.704607 9
49.463940 -51.617321 6.349247 9
46.498495 -52.178120 6.166134 9
43.663717 -52.265561 6.148491 9
40.854030 -52.298500 6.151902 9
38.066552 -52.279612 6.175443 9
35.277995 -52.317703 6.181573 9
32.511292 -52.294090 6.211229 9
29.748795 -52.296444 6.234156 9
26.989294 -52.333705 6.247253 9
24.246184 -52.321121 6.279778 9
21.507405 -52.329012 6.307447 9
18.781983 -52.289242 6.353801 9
16.057140 -52.290751 6.388102 9
13.339726 -52.278301 6.429441 9
10.624925 -52.290192 6.464572 9
7.917199 -52.279378 6.509772 9
5.211412 -52.294707 6.548134 9
2.511788 -52.279664 6.599236 9
-0.186265 -52.286845 6.644860 9
-2.880045 -52.264870 6.702825 9
-5.572340 -52.248876 6.760958 9
-8.264532 -52.274678 6.806823 9
-10.953792 -52.233606 6.878172 9
-13.643936 -52.267721 6.925652 9
-16.333379 -52.225549 7.001939 9
-19.023570 -52.228713 7.064742 9
-21.714517 -52.236725 7.128153 9
-24.408082 -52.202443 7.208623 9
-27.102570 -52.209479 7.277017 9
-29.799960 -52.205537 7.351587 9
-32.501210 -52.188966 7.432937 9
-35.206685 -52.167274 7.518469 9
-37.913274 -52.186355 7.592137 9
-40.627824 -52.164736 7.682480 9
-43.345856 -52.163099 7.768272 9
-46.074802 -52.115232 7.872767 9
