ply
format ascii 1.0
element vertex 1365
property float x
property float y
property float z
property int scalar_Label
end_header
-1.041801 38.765805 35.535289 9
3.221041 39.655702 34.524237 9
7.646410 40.468294 33.439766 9
12.150843 41.285734 32.328528 9
16.752215 42.095674 31.181809 9
21.357336 42.981590 30.049475 9
26.224258 43.727205 28.796969 9
31.114491 44.539892 27.550403 9
36.227472 45.260012 26.207734 9
49.925388 39.346073 20.535606 9
53.137355 41.848021 20.222621 9
68.933821 34.926692 13.643784 5
74.974894 35.601682 11.988689 5
81.321057 36.169362 10.207727 5
87.868108 36.715696 8.354601 5
94.887648 37.061227 6.300158 5
102.195500 37.349611 4.137262 5
119.717960 31.053335 -2.839888 6
129.273291 30.328755 -5.961753 6
139.954541 29.097879 -9.564329 6
-24.084468 141.994007 69.441871 3
-22.486575 144.198545 69.490942 3
-16.934081 144.192826 67.759276 3
-11.192317 144.195502 65.966998 3
-5.162146 144.159826 64.071480 3
3.629825 142.807856 60.986483 3
-56.832129 -22.984202 38.432208 9
-59.718780 -12.104907 42.237147 9
-59.256292 -6.514873 43.675596 9
-58.258453 -1.845353 44.711373 9
-56.900423 2.206409 45.475400 9
-55.334204 5.887207 46.076824 9
-53.609166 9.286139 46.553609 9
-51.723115 12.417644 46.909219 9
-49.657271 15.274106 47.136546 9
-47.219031 17.629864 47.121525 9
-44.486673 19.613010 46.920525 9
-41.311422 21.067506 46.450377 9
-37.917534 22.292794 45.853952 9
-34.498732 23.529496 45.249723 9
-31.003484 24.720410 44.607961 9
-27.441100 25.880794 43.935309 9
-23.803360 27.005742 43.228112 9
-20.117846 28.129166 42.503083 9
-16.367690 29.235886 41.751395 9
-13.582550 31.385245 41.543665 9
-10.395399 33.142935 41.114763 9
-6.355489 34.090435 40.226832 9
-2.313191 35.098937 39.350119 9
1.836799 36.068175 38.428315 9
6.078856 37.017952 37.470973 9
10.447183 37.921539 36.461269 9
14.859630 38.857949 35.443178 9
19.336312 39.811059 34.406651 9
24.083429 40.607577 33.247488 9
28.877113 41.447583 32.081688 9
33.745347 42.309428 30.895492 9
38.704101 43.182966 29.681560 9
44.875677 43.191879 27.890265 9
65.825194 31.984322 18.940576 5
71.051025 33.189607 17.719099 5
77.057469 33.907826 16.141392 5
83.124749 34.692699 14.557606 5
89.554570 35.333071 12.826011 5
96.252665 35.909001 10.994186 5
103.110606 36.504063 9.114740 5
119.473178 30.961923 2.897678 6
127.727218 31.053510 0.469494 6
136.257498 31.135964 -2.048578 6
146.069563 30.599180 -5.105572 6
-24.529320 142.064247 72.966558 3
-22.792106 144.174482 72.953918 3
-17.329302 144.203337 71.318439 3
-11.635685 144.215142 69.606121 3
-5.684190 144.203264 67.807047 3
0.483953 144.197975 65.940671 3
-53.514957 -20.940250 42.646440 9
-54.607914 -12.903632 45.088155 9
-54.257491 -7.188412 46.530888 9
-53.315729 -2.456589 47.553518 9
-52.029015 1.690019 48.326501 9
-50.428297 5.328604 48.878571 9
-48.529178 8.510767 49.227604 9
-46.231735 11.136114 49.320837 9
-43.533596 13.236355 49.166077 9
-40.441270 14.852638 48.775913 9
-37.207704 16.321595 48.305893 9
-33.918695 17.755446 47.808231 9
-30.528634 19.105273 47.257938 9
-27.119026 20.470654 46.702756 9
-23.613573 21.767763 46.100370 9
-20.039563 23.032543 45.467404 9
-16.427070 24.301241 44.821306 9
-12.736047 25.533980 44.140902 9
-8.937538 26.705569 43.411801 9
-5.127671 27.918688 42.686447 9
-1.178878 29.047841 41.897871 9
2.094957 30.885439 41.470786 9
5.066429 33.039249 41.203174 9
9.262195 34.079022 40.312496 9
13.610637 35.045835 39.357370 9
17.990716 36.054780 38.400181 9
22.474189 37.044167 37.405461 9
27.045412 38.031913 36.381955 9
31.777367 38.960712 35.294941 9
36.575753 39.914974 34.191656 9
41.751847 40.647718 32.923630 9
52.085554 37.428302 29.227694 9
68.439549 29.846113 22.759933 5
74.002645 30.824518 21.430786 5
79.703272 31.798744 20.057284 5
85.686381 32.669618 18.574085 5
91.866014 33.509528 17.023028 5
98.387848 34.225585 15.340058 5
105.478645 34.678716 13.426857 5
120.851443 29.801524 7.862870 6
128.365712 30.372403 5.847219 6
140.810704 27.974463 1.704574 6
144.814588 31.065977 1.286592 6
-24.990238 142.146163 76.459702 3
-23.201593 144.212309 76.426775 3
-17.667558 144.184138 74.816551 3
-11.999712 144.193745 73.173364 3
-6.112466 144.199241 71.462462 3
0.023788 144.192405 69.673160 3
6.363245 144.204866 67.825924 3
-41.799423 -31.196194 41.546703 9
-48.936338 -14.406612 47.668302 9
-48.739941 -8.496521 49.140881 9
-47.691367 -3.913044 50.054193 9
-46.058802 -0.215395 50.589233 9
-43.959666 2.804880 50.829211 9
-41.292850 5.059697 50.725967 9
-38.408600 7.037625 50.493351 9
-35.433831 8.913208 50.208202 9
-32.348841 10.670238 49.861345 9
-29.177641 12.345792 49.468323 9
-25.941167 13.970662 49.042290 9
-22.609419 15.515566 48.568086 9
-19.218323 17.027080 48.066702 9
-15.742139 18.481082 47.525366 9
-12.170354 19.871812 46.939860 9
-8.575473 21.281019 46.349485 9
-4.856041 22.605834 45.702019 9
-1.075389 23.917207 45.031659 9
2.817247 25.168422 44.313421 9
6.726144 26.457901 43.596821 9
10.761398 27.681989 42.827144 9
14.888954 28.878848 42.022733 9
18.536808 30.571655 41.463748 9
21.462093 32.948977 41.260925 9
25.869981 34.052270 40.348158 9
30.451684 35.076787 39.366075 9
35.103327 36.117502 38.365471 9
39.906054 37.110670 37.309043 9
46.579285 36.685454 35.403176 9
66.916621 25.680948 27.262665 5
72.059021 26.934608 26.165182 5
77.488642 28.055961 24.954147 5
86.595131 26.561610 22.117187 5
88.926685 30.156017 22.328354 5
94.942264 31.145326 20.913917 5
101.100050 32.142876 19.458280 5
120.538637 24.279594 12.277210 6
123.629655 27.716197 12.225954 6
130.669332 28.616388 10.492001 6
137.956052 29.489510 8.679074 6
145.694554 30.218062 6.703226 6
-25.453431 142.231588 79.916154 3
-23.516598 144.197829 79.824906 3
-18.085358 144.211858 78.312812 3
-12.395656 144.192175 76.718280 3
-6.545147 144.200086 75.082330 3
-0.455118 144.199322 73.374603 3
5.876230 144.196872 71.596008 3
-36.135732 -13.184882 49.249112 9
-35.454162 -8.051009 50.344223 9
-33.673180 -4.448073 50.789141 9
-31.459838 -1.444276 50.977256 9
-28.942723 1.155422 50.988187 9
-26.219064 3.493460 50.880882 9
-23.308305 5.609571 50.669870 9
-20.292374 7.613162 50.402203 9
-17.180687 9.523039 50.084789 9
-13.967077 11.339456 49.716127 9
-10.644193 13.061627 49.294160 9
-7.202263 14.686517 48.815666 9
-3.708947 16.292581 48.316580 9
-0.117489 17.835057 47.774287 9
3.594563 19.297318 47.179073 9
7.348334 20.763999 46.571176 9
11.220541 22.163255 45.913874 9
15.137660 23.571031 45.243961 9
19.215330 24.882385 44.506889 9
23.357363 26.193035 43.749931 9
27.592191 27.480639 42.960446 9
31.948203 28.724851 42.126270 9
36.040015 30.260058 41.425368 9
38.871225 32.904092 41.307054 9
44.592649 33.195322 39.886497 9
65.843518 21.150168 31.553857 5
70.760447 22.547925 30.592833 5
76.299533 23.543792 29.372815 5
81.723495 24.721779 28.221335 5
87.150791 25.987949 27.085637 5
92.814215 27.173487 25.865766 5
98.646632 28.335651 24.592383 5
104.995893 29.240668 23.120371 5
121.033408 23.710076 17.622626 6
127.402162 24.971383 16.218560 6
134.016782 26.183825 14.734320 6
141.116984 27.205122 13.074076 6
148.453013 28.209063 11.343147 6
-25.864601 142.288372 83.315369 3
-23.853705 144.198036 83.199654 3
-18.406642 144.187354 81.735888 3
-12.802104 144.198649 80.232384 3
-6.972003 144.200231 78.663750 3
-0.898394 144.190170 77.024603 3
5.373664 144.199584 75.333750 3
-17.576826 -12.588570 49.408574 9
-16.859692 -7.565927 50.413275 9
-15.109082 -3.869152 50.855605 9
-12.794601 -0.875958 50.994532 9
-10.178831 1.753687 50.972989 9
-7.317347 4.103966 50.824072 9
-4.338269 6.332043 50.615457 9
-1.138632 8.336667 50.298563 9
2.143445 10.276986 49.943938 9
5.566764 12.098289 49.524537 9
9.058931 13.882139 49.076887 9
12.719762 15.534571 48.554825 9
16.438521 17.172253 48.012358 9
20.277714 18.739306 47.421235 9
24.223626 20.255029 46.789219 9
28.258427 21.741203 46.125649 9
32.397864 23.188284 45.424403 9
36.687420 24.561827 44.666308 9
41.026647 25.954914 43.897410 9
45.973309 26.903420 42.873615 9
66.832016 14.910149 34.952025 5
71.409590 16.586365 34.178283 5
76.155188 18.195055 33.344137 5
81.051334 19.757310 32.458638 5
86.150776 21.240001 31.501045 5
91.509464 22.610787 30.449972 5
97.375322 23.701978 29.205463 5
103.164855 24.948190 28.011360 5
119.671508 18.880858 22.481418 6
126.391535 19.850640 20.983454 6
132.465059 21.369042 19.767021 6
138.826338 22.801617 18.454999 6
145.373486 24.224239 17.089864 6
-26.214860 139.214095 85.989334 3
-26.299623 142.361217 86.689911 3
-24.196372 144.203355 86.544898 3
-18.795535 144.202992 85.153169 3
-13.229795 144.219044 83.720456 3
-7.375472 144.190119 82.201615 3
-1.325367 144.174920 80.633023 3
4.885485 144.197605 79.028763 3
1.869804 -11.724226 49.625459 9
2.680129 -6.840576 50.526271 9
4.589889 -3.244103 50.879044 9
7.006481 -0.227201 50.981000 9
9.746465 2.436495 50.925768 9
12.732417 4.848029 50.754080 9
15.911459 7.076588 50.493779 9
19.219634 9.197366 50.176653 9
22.742692 11.135794 49.765855 9
26.364144 13.014588 49.316124 9
30.154091 14.774512 48.797698 9
34.041275 16.489525 48.243797 9
38.013837 18.175287 47.660655 9
42.179574 19.742255 47.002838 9
47.350624 20.507454 45.926402 9
70.165892 6.615365 37.415089 5
74.100829 8.871729 36.955170 5
78.303944 10.954350 36.390279 5
82.741593 12.902912 35.737090 5
87.387002 14.749234 35.008908 5
92.241059 16.502253 34.207394 5
97.267067 18.198423 33.349234 5
102.489198 19.827699 32.426345 5
119.390524 13.278391 26.908455 6
124.875643 15.060577 25.948524 6
130.643765 16.735156 24.893720 6
136.975757 18.127700 23.638257 6
144.077914 19.128026 22.108202 6
151.105578 20.303487 20.630455 6
-26.634704 139.292194 89.348678 3
-26.725345 142.430474 90.027616 3
-24.505013 144.190812 89.846954 3
-19.147876 144.199963 88.524942 3
-13.614582 144.217903 87.159537 3
-7.812974 144.200581 85.718699 3
-1.842645 144.209568 84.239758 3
4.396189 144.198772 82.688347 3
22.416677 -10.690179 49.860257 9
23.407542 -5.989885 50.635451 9
25.466270 -2.436374 50.920864 9
28.007254 0.613395 50.987017 9
30.920012 3.296130 50.888215 9
34.099863 5.733393 50.674201 9
37.527160 7.959304 50.356695 9
41.110858 10.070691 49.977056 9
45.249183 11.722445 49.370847 9
80.270584 -7.636041 37.217715 5
81.623754 -3.036231 37.867368 5
84.247238 0.472969 37.992469 5
87.564045 3.420399 37.837274 5
91.330804 6.032662 37.505525 5
95.441218 8.413992 37.043609 5
99.836328 10.625489 36.477917 5
104.568593 12.641804 35.790934 5
123.550486 4.421343 29.657647 6
127.941215 7.023504 29.166902 6
132.828218 9.331819 28.497110 6
138.075940 11.460190 27.703419 6
143.654031 13.444245 26.800215 6
149.548695 15.306730 25.795348 6
-27.092176 139.394906 92.689350 3
-27.188923 142.524034 93.346781 3
-24.853476 144.203078 93.134437 3
-19.528295 144.214714 91.876512 3
-13.982177 144.209267 90.561476 3
-8.223378 144.198603 89.193605 3
-2.279601 144.204298 87.783731 3
3.947908 144.181316 86.299295 3
104.730577 -4.625720 37.672248 5
141.128393 -8.485461 28.762852 6
141.333743 -2.668515 29.874542 6
144.242915 1.195013 29.989480 6
148.291429 4.288991 29.693961 6
-27.522919 139.483145 95.988627 3
-27.599300 142.587830 96.615703 3
-25.163237 144.194595 96.380044 3
-19.874624 144.211982 95.186812 3
-14.365426 144.211224 93.939058 3
-8.625783 144.194375 92.634894 3
-2.732706 144.209774 91.301146 3
3.409534 144.212642 89.907319 3
-27.924873 139.555539 99.247999 3
-27.970488 142.630008 99.842242 3
-25.428799 144.162008 99.584596 3
-20.185149 144.190640 98.457728 3
-14.703630 144.190052 97.273203 3
-9.026050 144.190979 96.045836 3
-3.152503 144.199788 94.776810 3
2.979000 144.190675 93.447799 3
-28.323415 139.627425 102.477742 3
-28.437458 142.730823 103.071541 3
-25.798344 144.191437 102.797203 3
-20.541933 144.197232 101.717173 3
-15.090914 144.197898 100.595727 3
-9.419491 144.185793 99.426135 3
-3.559209 144.184893 98.219257 3
2.509703 144.190903 96.970212 3
-28.768752 139.729371 105.694237 3
-28.824204 142.785456 106.247610 3
-26.103160 144.184699 105.964147 3
-20.910218 144.212006 104.953940 3
-15.465490 144.200420 103.887467 3
-9.847134 144.201046 102.789066 3
-4.016945 144.199037 101.648626 3
2.042400 144.192228 100.462368 3
-29.159406 139.799448 108.867097 3
-29.230740 142.853399 109.403473 3
-26.433577 144.194327 109.114788 3
-21.196982 144.181840 108.142191 3
-15.816920 144.191699 107.146983 3
-10.231545 144.194575 106.112685 3
-4.432940 144.192931 105.038260 3
1.594076 144.185745 103.920729 3
-29.566455 139.880945 112.019155 3
-29.626588 142.916418 112.530901 3
-26.764400 144.205594 112.242160 3
-21.580693 144.208478 111.334287 3
-16.193520 144.198601 110.389088 3
-10.613327 144.188358 109.410468 3
-4.864362 144.196859 108.405862 3
1.102340 144.203797 107.363358 3
-29.999699 139.979851 115.153241 3
-30.052373 142.998763 115.641834 3
-27.075233 144.206504 115.341878 3
-21.910953 144.206016 114.488693 3
-16.530590 144.184935 113.597256 3
-11.032378 144.204130 112.693538 3
-5.306371 144.208213 111.750587 3
0.686152 144.184417 110.760019 3
-30.384522 140.050432 118.250595 3
-30.433279 143.055591 118.717460 3
-27.361476 144.194261 118.414501 3
-22.229455 144.198165 117.618582 3
-16.910439 144.196658 116.793822 3
-11.439768 144.215140 115.949656 3
-5.721392 144.206859 115.064060 3
0.215642 144.195149 114.145187 3
-30.747423 140.108795 121.320309 3
-30.816229 143.114920 121.771433 3
-27.671735 144.197290 121.473144 3
-22.564244 144.200941 120.731750 3
-17.273859 144.200596 119.964489 3
-11.775290 144.188282 119.166581 3
-6.104926 144.190251 118.347258 3
-0.232956 144.196191 117.500749 3
-33.189887 138.484371 124.416419 0
-33.227544 141.469370 124.839904 0
-33.304512 144.441083 125.268374 0
-32.229997 146.699029 125.441357 0
-22.888321 144.198809 123.822558 3
-17.637628 144.206081 123.114391 3
-12.161879 144.190824 122.374219 3
-6.528026 144.196365 121.617333 3
-0.667277 144.191419 120.830085 3
-33.574721 138.571507 127.441445 0
-33.640096 141.562109 127.850508 0
-33.675716 144.497357 128.250134 0
-32.471172 146.667019 128.391902 0
-25.916678 145.754705 127.445333 0
-20.674048 145.717076 126.784043 0
-12.554649 144.198151 125.562472 3
-6.921435 144.188022 124.859900 3
-1.107539 144.191341 124.138634 3
-33.973897 138.668725 130.449240 0
-34.027965 141.640777 130.835698 0
-34.075148 144.571752 131.218101 0
-32.651796 146.600254 131.315108 0
-26.345730 145.817606 130.483812 0
-21.130217 145.779426 129.877545 0
-15.745997 145.748687 129.254926 0
-10.191899 145.730002 128.616536 0
-4.428475 145.707835 127.955924 0
-34.365806 138.762397 133.436064 0
-34.387998 141.703331 133.796691 0
-34.468190 144.643397 134.165696 0
-31.482190 145.737246 133.983015 0
-26.753481 145.869449 133.498613 0
-21.570308 145.834034 132.947617 0
-16.221184 145.806530 132.382503 0
-10.694228 145.785671 131.801988 0
-5.019588 145.792848 131.212060 0
-0.896543 146.706768 130.901692 0
-34.755343 138.855553 136.403843 0
-34.761379 141.775096 136.742355 0
-34.819822 144.691074 137.088086 0
-31.811087 145.758618 136.922621 0
-27.203161 145.946690 136.501779 0
-22.022192 145.896563 136.000246 0
-16.735709 145.887474 135.496173 0
-11.214903 145.852704 134.969423 0
-5.547209 145.846019 134.434925 0
-1.319571 146.689767 134.142523 0
-35.115703 138.931217 139.349237 0
-35.149216 141.856743 139.673110 0
-35.184385 144.747517 139.996072 0
-32.088334 145.750362 139.838596 0
-28.047237 146.253440 139.545912 0
-22.480799 145.964121 139.035019 0
-17.249220 145.969230 138.589240 0
-11.757662 145.933115 138.119527 0
-6.159170 145.945265 137.649348 0
-1.759761 146.682964 137.367792 0
-35.514827 139.032244 142.283977 0
-35.528229 141.933853 142.585824 0
-35.572264 144.819002 142.891374 0
-32.376058 145.749133 142.742418 0
-27.933854 146.006863 142.428992 0
-23.809205 146.526041 142.170981 0
-17.644834 145.986941 141.646663 0
-12.261899 145.994063 141.244120 0
-8.599960 147.014604 141.085324 0
-2.210199 146.682769 140.576774 0
-35.447167 135.914944 144.858871 0
-35.876348 139.110339 145.197279 0
-35.907481 142.011980 145.482775 0
-35.942391 144.880633 145.768552 0
-32.672479 145.753853 145.634197 0
-28.229514 145.997930 145.360786 0
-23.122796 145.946454 145.016343 0
-19.881056 147.027714 144.914990 0
-12.645947 145.991059 144.335528 0
-6.849699 145.865488 143.948587 0
-2.633975 146.670020 143.765506 0
-36.073304 136.175911 147.813372 0
-36.251032 139.197552 148.097363 0
-36.270559 142.080904 148.362784 0
-36.324527 144.950399 148.632470 0
-32.953047 145.749912 148.511530 0
-28.538222 145.997366 148.281489 0
-23.490072 145.965241 147.992030 0
-18.442781 146.029232 147.715590 0
-13.078341 146.015361 147.417519 0
-7.287540 145.876295 147.087279 0
-3.072912 146.666297 146.940265 0
-36.484994 136.299029 150.723960 0
-36.610971 139.276167 150.981527 0
-36.657848 142.165630 151.231398 0
-36.687174 145.009135 151.480166 0
-33.273238 145.770235 151.381372 0
-28.859525 146.004894 151.191289 0
-23.832526 145.970774 150.951653 0
-18.898686 146.083557 150.733700 0
-13.464218 146.015383 150.479876 0
-7.726726 145.888910 150.210876 0
-3.503110 146.659152 150.099032 0
-36.909005 136.430877 153.620881 0
-36.995773 139.371269 153.854704 0
-37.027076 142.239887 154.084569 0
-37.054867 145.071691 154.315308 0
-33.570134 145.777388 154.237355 0
-29.144855 145.992184 154.086197 0
-24.221246 146.003485 153.903028 0
-19.170918 146.036436 153.721152 0
-13.769451 145.972334 153.522271 0
-8.079385 145.856428 153.312835 0
-3.965966 146.670073 153.246309 0
-37.305380 136.545507 156.501208 0
-37.372163 139.461716 156.714028 0
-37.375726 142.302029 156.923528 0
-37.433289 145.141501 157.138843 0
-33.863415 145.783013 157.082576 0
-29.429337 145.979610 156.970934 0
-24.571107 146.014824 156.838876 0
-20.374804 146.510447 156.766323 0
-14.212914 146.005526 156.564117 0
-8.496605 145.859256 156.407803 0
-4.335086 146.633114 156.372908 0
-37.701787 136.660808 159.368583 0
-37.710261 139.528439 159.558598 0
-37.769773 142.393090 159.754025 0
-37.785279 145.195873 159.948703 0
-34.157787 145.789871 159.918177 0
-29.738763 145.982202 159.847832 0
-24.883881 146.005659 159.761523 0
-21.786244 147.102773 159.791319 0
-14.639472 146.030380 159.591834 0
-8.937354 145.875559 159.491746 0
-4.818546 146.656767 159.494918 0
-38.090754 136.771882 162.223322 0
-38.095780 139.625929 162.395083 0
-38.110413 142.451482 162.569926 0
-38.168270 145.269795 162.749504 0
-34.436529 145.787922 162.743988 0
-30.027602 145.973323 162.714426 0
-25.190811 145.993748 162.674603 0
-21.324692 146.648016 162.691391 0
-14.965675 146.001064 162.602966 0
-9.334437 145.869339 162.561507 0
-5.242000 146.649960 162.601111 0
-38.420943 136.845254 165.064393 0
-38.474089 139.719404 165.220192 0
-38.470574 142.522606 165.376797 0
-38.485564 145.304150 165.537114 0
-34.707007 145.781499 165.561578 0
-30.322404 145.968442 165.573164 0
-25.530674 146.001274 165.580412 0
-22.554293 147.141621 165.660529 0
-15.284354 145.968221 165.605154 0
-9.760993 145.879684 165.621865 0
-5.611066 146.615418 165.694678 0
-38.804438 136.953824 167.897778 0
-38.811284 139.787166 168.034031 0
-38.847484 142.604734 168.174491 0
-38.865596 145.377407 168.317907 0
-34.985904 145.780546 168.372353 0
-30.624064 145.968057 168.424538 0
-25.911361 146.032805 168.478579 0
-22.731122 147.045571 168.575988 0
-15.654258 145.964082 168.600639 0
-10.266407 145.933173 168.673447 0
-6.053577 146.620138 168.780870 0
-39.156432 137.042333 170.720943 0
-39.184243 139.878231 170.839873 0
-39.204887 142.675162 170.962602 0
-39.184090 145.413466 171.088702 0
-35.314611 145.809890 171.177120 0
-30.916649 145.962774 171.268819 0
-26.204657 146.014638 171.367028 0
-22.849094 146.916630 171.487348 0
-16.055132 145.977577 171.588046 0
-10.527753 145.856040 171.711613 0
-6.461390 146.607316 171.856958 0
-39.535197 137.148741 173.535820 0
-39.535846 139.956089 173.637026 0
-39.565850 142.748272 173.742547 0
-39.599169 145.509225 173.852320 0
-35.591559 145.808547 173.974852 0
-31.237547 145.974535 174.106949 0
-26.550594 146.027183 174.249353 0
-23.434407 147.051257 174.395539 0
-16.402956 145.962394 174.567304 0
-10.920604 145.850192 174.744387 0
-6.891147 146.606681 174.924664 0
-39.909243 137.252479 176.342451 0
-39.923294 140.057300 176.426228 0
-39.904184 142.807599 176.515234 0
-39.931930 145.554895 176.608278 0
-35.875648 145.811810 176.767347 0
-31.502975 145.953984 176.939830 0
-26.842847 146.009183 177.125943 0
-23.938466 147.140847 177.292539 0
-16.747398 145.945780 177.540299 0
-11.290902 145.832680 177.770269 0
-7.283704 146.586984 177.984989 0
-40.249232 137.334307 179.142484 0
-40.264680 140.129380 179.208943 0
-40.271984 142.885786 179.280807 0
-40.280829 145.610846 179.357737 0
-36.167461 145.820006 179.554995 0
-31.758881 145.928062 179.768986 0
-27.186685 146.021280 179.996523 0
-24.212652 147.101104 180.186496 0
-17.116709 145.943311 180.507039 0
-11.713659 145.843994 180.788576 0
-7.722189 146.592075 181.037513 0
-40.637476 137.448041 181.934676 0
-40.604615 140.200835 181.985878 0
-40.633823 142.960576 182.040206 0
-40.631652 145.668315 182.101314 0
-36.442655 145.818422 182.339169 0
-32.100503 145.952989 182.591546 0
-27.519871 146.027546 182.862402 0
-24.473182 147.053843 183.077806 0
-17.517439 145.958631 183.467025 0
-12.036249 145.801468 183.804600 0
-8.122394 146.577367 184.084898 0
-40.986671 137.536496 184.722417 0
-40.988197 140.300609 184.755365 0
-40.992503 143.033686 184.794187 0
-40.987112 145.728944 184.839453 0
-36.714680 145.815106 185.120470 0
-32.365867 145.933072 185.413655 0
-27.827981 146.019554 185.725472 0
-23.581052 146.352943 186.030075 0
-17.834283 145.927769 186.426135 0
-12.473613 145.821516 186.810937 0
-8.522584 146.563030 187.127185 0
-41.325276 137.618241 187.506051 0
-41.336734 140.378133 187.521575 0
-41.337962 143.098727 187.544212 0
-41.338626 145.787403 187.573211 0
-37.013827 145.828336 187.897676 0
-32.677659 145.940789 188.230727 0
-28.136046 146.011719 188.585711 0
-25.179975 147.065214 188.842089 0
-18.213235 145.931621 189.378382 0
-12.870830 145.820117 189.814525 0
-8.950182 146.563601 190.163237 0
-41.682422 137.712361 190.284357 0
-41.683581 140.454779 190.283915 0
-41.666521 143.153312 190.291764 0
-41.683247 145.841823 190.303642 0
-37.297879 145.832560 190.673781 0
-32.977083 145.941317 191.046356 0
-28.468997 146.018483 191.441824 0
-25.514570 147.060543 191.720697 0
-18.582351 145.930240 192.327915 0
-13.281392 145.826259 192.813296 0
-9.324746 146.536219 193.199279 0
-42.052419 137.815117 193.057801 0
-42.043002 140.539704 193.041799 0
-42.049704 143.242561 193.031538 0
-42.058685 145.915497 193.028180 0
-37.533041 145.807200 193.453198 0
-33.253241 145.928110 193.862725 0
-28.804303 146.026752 194.295646 0
-25.926023 147.099793 194.590200 0
-18.911551 145.906771 195.278637 0
-13.650272 145.809888 195.812620 0
-9.751456 146.536850 196.228206 0
-42.394783 137.899847 195.830853 0
-42.400250 140.623382 195.796967 0
-42.432223 143.331582 195.767908 0
-42.368237 145.948509 195.756533 0
-37.814352 145.809827 196.228455 0
-33.559622 145.932894 196.675769 0
-29.107734 146.016538 197.151416 0
-25.816378 146.841902 197.511754 0
-19.296682 145.914603 198.222633 0
-14.041385 145.805785 198.808033 0
-10.151410 146.523374 199.257175 0
-42.757155 137.997859 198.599594 0
-42.766959 140.713289 198.548791 0
-42.738458 143.372442 198.510597 0
-42.707272 145.999865 198.480603 0
-38.088193 145.807898 199.004815 0
-33.841994 145.923385 199.491458 0
-29.454430 146.031566 200.002139 0
-26.439378 147.001984 200.357096 0
-19.703790 145.934835 201.162520 0
-14.449306 145.810985 201.800068 0
-10.545653 146.506940 202.285443 0
106.825615 -8.445816 -36.576393 5
102.891949 -12.908181 -35.735973 5
99.880546 -14.058351 -35.295431 5
96.931849 -15.088576 -34.881079 5
94.066928 -15.889188 -34.504655 5
91.233792 -16.663902 -34.142531 5
88.447907 -17.332945 -33.803266 5
85.692962 -17.959732 -33.479432 5
82.976670 -18.494919 -33.176123 5
80.284830 -18.999381 -32.886378 5
77.608850 -19.514856 -32.605506 5
74.966246 -19.933061 -32.344921 5
72.345454 -20.308191 -32.098551 5
69.735956 -20.701232 -31.859790 5
67.145901 -21.052370 -31.634803 5
64.718824 -20.213977 -31.542266 5
64.876497 2.748139 -33.735020 5
58.443240 -31.411451 -30.062440 9
55.753621 -34.111194 -29.640006 9
53.159576 -36.343426 -29.275999 9
50.600242 -38.697639 -28.910021 9
48.096529 -40.921380 -28.567319 9
45.674368 -42.534166 -28.295456 9
43.316467 -43.538791 -28.093176 9
40.998685 -44.096514 -27.943639 9
38.702301 -44.382277 -27.828992 9
36.422256 -44.290756 -27.759271 9
34.138995 -44.348780 -27.682401 9
31.857398 -44.405950 -27.613211 9
29.577020 -44.419576 -27.555852 9
27.297238 -44.479609 -27.501513 9
25.017365 -44.504604 -27.458137 9
22.736878 -44.522533 -27.422980 9
20.455738 -44.547339 -27.394685 9
18.171950 -44.540170 -27.377023 9
15.888310 -44.573393 -27.362974 9
13.600323 -44.566499 -27.360357 9
11.311187 -44.582520 -27.363068 9
9.017679 -44.579679 -27.375175 9
6.721839 -44.589745 -27.393612 9
4.419094 -44.567913 -27.422753 9
2.110805 -44.537858 -27.460330 9
-0.202190 -44.511678 -27.505198 9
-2.518200 -44.504657 -27.555893 9
-4.842403 -44.478367 -27.616204 9
-7.176502 -44.427570 -27.686699 9
-9.522902 -44.343853 -27.768271 9
-11.853164 -44.406268 -27.843307 9
-14.206844 -44.368554 -27.936132 9
-16.575355 -44.294562 -28.040549 9
-18.953143 -44.220297 -28.153064 9
-21.338601 -44.155793 -28.272735 9
-23.730683 -44.106691 -28.399049 9
-26.140100 -44.024926 -28.536930 9
-28.575821 -43.877842 -28.689837 9
-31.009333 -43.792959 -28.844889 9
-33.446282 -43.742562 -29.004924 9
-35.913591 -43.621572 -29.180875 9
-38.394103 -43.502670 -29.365384 9
-40.965965 -43.109020 -29.587680 9
-43.648994 -42.401988 -29.852585 9
-46.662315 -40.684851 -30.235366 9
-50.070163 -37.849475 -30.750333 9
-53.813656 -34.186680 -31.369131 9
-57.813121 -30.016138 -32.059459 9
-64.719664 -17.598575 -33.676724 8
-67.774348 -16.934558 -34.020554 8
-70.900619 -16.158900 -34.388858 8
-74.097500 -15.285575 -34.780631 8
-77.374279 -14.300300 -35.198074 8
-80.758429 -13.144065 -35.648650 8
-84.286327 -11.742067 -36.141977 8
-88.076381 -9.828748 -36.710577 8
-92.818873 -5.815419 -37.546014 8
107.106057 -18.615406 -32.511103 5
103.904620 -20.462757 -32.001071 5
101.080063 -21.044889 -31.636891 5
98.302201 -21.534156 -31.293250 5
95.543774 -22.030489 -30.959475 5
92.821258 -22.460823 -30.642816 5
90.145547 -22.764756 -30.348974 5
87.500532 -22.998898 -30.071833 5
84.869440 -23.233956 -29.804125 5
82.263759 -23.407789 -29.551794 5
79.669972 -23.582135 -29.308609 5
77.081939 -23.789695 -29.071337 5
74.505914 -23.995233 -28.843308 5
71.935360 -24.237569 -28.620761 5
69.376184 -24.480048 -28.407115 5
66.839434 -24.638364 -28.210116 5
65.595143 -14.699879 -28.953892 5
65.174803 3.738070 -30.473383 5
58.287815 -34.253726 -26.837639 9
55.647284 -36.634141 -26.478473 9
53.088024 -38.644785 -26.162995 9
50.564833 -40.711332 -25.852276 9
48.086222 -42.730296 -25.555394 9
45.674252 -44.322407 -25.305703 9
43.325179 -45.331178 -25.116294 9
41.019884 -45.817911 -24.980961 9
38.735838 -46.004192 -24.879649 9
36.458835 -46.103170 -24.793414 9
34.186922 -46.068063 -24.726214 9
31.914066 -46.145975 -24.656492 9
29.642759 -46.113254 -24.603661 9
27.371508 -46.157488 -24.551448 9
25.099619 -46.152295 -24.510775 9
22.828319 -46.201668 -24.472669 9
20.555185 -46.210926 -24.445280 9
18.281815 -46.245866 -24.422950 9
16.001435 -46.178924 -24.416629 9
13.724702 -46.223210 -24.408039 9
11.441263 -46.202661 -24.412296 9
9.156720 -46.210547 -24.421413 9
6.864451 -46.170775 -24.441938 9
4.570190 -46.156495 -24.467617 9
2.275315 -46.177257 -24.497644 9
-0.031733 -46.131852 -24.540760 9
-2.345861 -46.076884 -24.592138 9
-4.654607 -46.107106 -24.643609 9
-6.977492 -46.077055 -24.707794 9
-9.306793 -46.049146 -24.779337 9
-11.647538 -45.995238 -24.860746 9
-13.993275 -45.958522 -24.948300 9
-16.356117 -45.873239 -25.047837 9
-18.710516 -45.879841 -25.147026 9
-21.088698 -45.809807 -25.260818 9
-23.470495 -45.769758 -25.379837 9
-25.876626 -45.665006 -25.512630 9
-28.302976 -45.523131 -25.656875 9
-30.725397 -45.450076 -25.803066 9
-33.169398 -45.338602 -25.961003 9
-35.626634 -45.226669 -26.127340 9
-38.067690 -45.224461 -26.291933 9
-40.577253 -45.021217 -26.483751 9
-43.238037 -44.354925 -26.728048 9
-46.102259 -43.099564 -27.037981 9
-49.405853 -40.555032 -27.482272 9
-52.873311 -37.702427 -27.969452 9
-56.577115 -34.353852 -28.519042 9
-65.051888 -17.266281 -30.437284 8
-66.066104 -22.447482 -30.182681 8
-68.925425 -22.282338 -30.465137 8
-71.797530 -22.140900 -30.755780 8
-74.731783 -21.893891 -31.067952 8
-77.812168 -21.337683 -31.423256 8
-80.909236 -20.819249 -31.786607 8
-84.058952 -20.250777 -32.167403 8
-87.295372 -19.557795 -32.574039 8
-90.583759 -18.831313 -32.997376 8
-93.942931 -18.033679 -33.441951 8
-97.385780 -17.143893 -33.910671 8
-100.941182 -16.108947 -34.410181 8
-104.672936 -14.808070 -34.955172 8
110.769519 -16.452172 -29.842709 5
106.136487 -23.185089 -28.883101 5
103.132319 -24.427103 -28.463485 5
100.398110 -24.774355 -28.139000 5
97.683849 -25.117486 -27.824925 5
94.959766 -25.577206 -27.510152 5
92.295785 -25.863514 -27.220898 5
89.643723 -26.168691 -26.939454 5
87.005441 -26.484066 -26.666508 5
84.425450 -26.589027 -26.421153 5
81.826805 -26.848132 -26.171333 5
79.245275 -27.087976 -25.932125 5
76.679057 -27.313022 -25.703001 5
74.121242 -27.559756 -25.480772 5
71.584096 -27.750308 -25.271859 5
69.048386 -28.002217 -25.066372 5
66.540840 -28.129680 -24.879533 5
65.855178 -14.061977 -25.852041 5
65.865740 8.034251 -27.461941 5
58.217142 -36.287416 -23.746745 9
55.613178 -38.404333 -23.438728 9
53.065850 -40.372963 -23.152193 9
50.558171 -42.345274 -22.874785 9
48.094511 -44.255862 -22.611397 9
45.696494 -45.728774 -22.390885 9
43.357769 -46.650918 -22.221257 9
41.056512 -47.162073 -22.091024 9
38.781227 -47.257327 -22.000043 9
36.511156 -47.273306 -21.922241 9
34.241507 -47.338350 -21.847793 9
31.974362 -47.320031 -21.786728 9
29.707184 -47.370841 -21.727479 9
27.440589 -47.398953 -21.676981 9
25.173148 -47.381312 -21.636939 9
22.906216 -47.423706 -21.599410 9
20.636571 -47.405515 -21.573428 9
18.367805 -47.447829 -21.549936 9
16.093963 -47.420390 -21.538669 9
13.821395 -47.456552 -21.529679 9
11.544157 -47.457359 -21.530359 9
9.262105 -47.437305 -21.539641 9
6.979806 -47.456168 -21.553082 9
4.691302 -47.448451 -21.575588 9
2.400049 -47.455449 -21.604099 9
0.101279 -47.437254 -21.641627 9
-2.206957 -47.387225 -21.688713 9
-4.514156 -47.390363 -21.739002 9
-6.836488 -47.330035 -21.801316 9
-9.159475 -47.312128 -21.867706 9
-11.492535 -47.275435 -21.942846 9
-13.828616 -47.265341 -22.023327 9
-16.181094 -47.207945 -22.114853 9
-18.534043 -47.193958 -22.210523 9
-20.899234 -47.161870 -22.315120 9
-23.279150 -47.104515 -22.429287 9
-25.670362 -47.042441 -22.551511 9
-28.073384 -46.975954 -22.681845 9
-30.486416 -46.914867 -22.819591 9
-32.905794 -46.874918 -22.963556 9
-35.346354 -46.798978 -23.118401 9
-37.806441 -46.698779 -23.283322 9
-40.271043 -46.631850 -23.453740 9
-42.899728 -46.049650 -23.675083 9
-45.708111 -44.952992 -23.948510 9
-48.856410 -42.879212 -24.314337 9
-52.316236 -40.010221 -24.759642 9
-55.823287 -37.217825 -25.211858 9
-59.498511 -34.144657 -25.702202 9
-66.002483 -23.264215 -26.891548 8
-67.924166 -25.689093 -26.931998 8
-70.849173 -25.337333 -27.226323 8
-73.804470 -24.974611 -27.532327 8
-76.788938 -24.606498 -27.849723 8
-79.823264 -24.184111 -28.183257 8
-82.915851 -23.693244 -28.534652 8
-86.007468 -23.280101 -28.890476 8
-89.097326 -22.942656 -29.250879 8
-92.127397 -22.806980 -29.603528 8
-95.236965 -22.556578 -29.979126 8
-98.404339 -22.247528 -30.372735 8
-101.557346 -22.035911 -30.769006 8
-104.851192 -21.601375 -31.200727 8
128.369741 -6.877971 -29.200256 6
124.770265 -8.894639 -28.645082 6
121.415730 -10.328570 -28.156936 6
118.189917 -11.494037 -27.705994 6
116.869626 -6.455850 -27.799613 6
115.328600 -1.884404 -27.852112 5
105.330399 -27.135206 -25.416637 5
102.463114 -27.978044 -25.055644 5
99.777019 -28.239394 -24.752751 5
97.102486 -28.523171 -24.457509 5
94.458810 -28.750087 -24.176136 5
91.826655 -28.993969 -23.902556 5
89.214506 -29.216588 -23.639654 5
86.626117 -29.395068 -23.389005 5
84.055781 -29.548767 -23.148919 5
81.484608 -29.768845 -22.912412 5
78.938507 -29.922617 -22.689367 5
76.405125 -30.067147 -22.475354 5
73.867646 -30.299500 -22.263224 5
71.359916 -30.416167 -22.067695 5
68.857005 -30.561478 -21.878178 5
66.362844 -30.709517 -21.696482 5
65.823795 -15.697883 -22.582098 5
65.860290 6.442047 -23.951703 5
58.160189 -38.172486 -20.716355 9
55.600549 -39.939250 -20.459358 9
53.061511 -41.883620 -20.199452 9
50.565079 -43.791658 -19.951079 9
48.121804 -45.498386 -19.725009 9
45.734309 -46.868259 -19.529788 9
43.397188 -47.822119 -19.370072 9
41.097462 -48.384313 -19.243670 9
38.822332 -48.599788 -19.147153 9
36.557786 -48.620213 -19.070278 9
34.295308 -48.601513 -19.002758 9
32.032556 -48.647219 -18.937876 9
29.770877 -48.655107 -18.882226 9
27.509346 -48.675220 -18.832570 9
25.247897 -48.705796 -18.789017 9
22.986509 -48.749094 -18.751423 9
20.723837 -48.769449 -18.722057 9
18.455938 -48.703384 -18.704941 9
16.192255 -48.770571 -18.686123 9
13.922324 -48.758336 -18.679117 9
11.650330 -48.758009 -18.678134 9
9.373907 -48.741702 -18.684957 9
7.093786 -48.726245 -18.698535 9
4.810632 -48.721689 -18.718248 9
2.522719 -48.713216 -18.745060 9
0.226064 -48.671819 -18.780847 9
-2.073389 -48.653497 -18.822072 9
-4.377606 -48.642308 -18.869777 9
-6.696606 -48.571956 -18.928263 9
-9.009154 -48.590354 -18.988049 9
-11.341125 -48.529966 -19.059983 9
-13.679701 -48.478426 -19.138463 9
-16.020173 -48.461981 -19.221812 9
-18.372483 -48.426794 -19.313593 9
-20.734218 -48.389335 -19.412790 9
-23.113448 -48.314306 -19.521821 9
-25.478372 -48.350467 -19.630807 9
-27.873250 -48.296565 -19.753273 9
-30.288708 -48.203708 -19.885936 9
-32.696532 -48.189719 -20.020841 9
-35.125094 -48.139673 -20.165895 9
-37.567749 -48.083575 -20.319148 9
-41.218058 -43.798543 -20.778480 9
-42.613075 -47.559751 -20.678654 9
-45.396223 -46.525584 -20.926388 9
-50.398899 -38.495489 -21.691730 9
-51.812747 -42.140763 -21.620844 9
-55.243470 -39.544838 -22.015690 9
-58.836926 -36.673482 -22.444098 9
-66.153209 -23.469151 -23.670298 8
-67.012729 -28.831794 -23.503778 8
-69.854485 -28.641696 -23.768342 8
-74.380938 -24.125545 -24.383230 8
-75.631474 -28.198642 -24.332406 8
-78.587675 -27.900711 -24.636003 8
-81.585469 -27.567942 -24.953119 8
-84.590848 -27.284474 -25.277088 8
-87.633233 -26.981250 -25.613754 8
-90.707411 -26.673151 -25.962130 8
-93.833185 -26.319271 -26.325992 8
-96.992567 -25.962912 -26.701943 8
-100.268600 -25.433802 -27.105414 8
-103.574326 -24.922022 -27.520160 8
-110.338628 -17.633231 -28.570908 8
148.812229 -9.467341 -28.456944 6
145.107512 -11.071328 -27.878602 6
141.595900 -12.327784 -27.346307 6
138.206598 -13.389690 -26.845243 6
134.930412 -14.262679 -26.373786 6
131.705828 -15.097455 -25.918551 6
128.561389 -15.807327 -25.486076 6
125.471626 -16.453046 -25.070815 6
122.412717 -17.098065 -24.667357 6
119.427389 -17.607374 -24.285804 6
116.876794 -16.808208 -24.013760 6
112.958036 -20.537032 -23.413789 5
107.995444 -28.145314 -22.548491 5
104.754546 -30.236865 -22.105808 5
102.044962 -30.577492 -21.800491 5
99.391525 -30.777821 -21.514358 5
96.753795 -30.979370 -21.237107 5
94.126915 -31.200062 -20.967401 5
91.533208 -31.344353 -20.711569 5
88.944883 -31.524288 -20.461889 5
86.366741 -31.719907 -20.219651 5
83.816769 -31.843024 -19.990462 5
81.277463 -31.970266 -19.769177 5
78.750869 -32.088689 -19.556529 5
76.238646 -32.184776 -19.353249 5
73.722857 -32.359674 -19.153007 5
71.236633 -32.413805 -18.967982 5
68.751124 -32.516369 -18.787716 5
66.261041 -32.712251 -18.609573 5
65.820000 -17.102005 -19.366718 5
65.866350 4.964228 -20.488418 5
58.162972 -39.494865 -17.764501 9
55.596443 -41.371217 -17.524133 9
53.083548 -43.087896 -17.301721 9
50.601648 -44.859477 -17.084813 9
48.164140 -46.517761 -16.882664 9
45.774359 -47.954797 -16.700917 9
43.441267 -48.888126 -16.554646 9
41.154136 -49.238900 -16.447462 9
38.878040 -49.512350 -16.351328 9
36.615952 -49.507642 -16.276938 9
34.353976 -49.547514 -16.206731 9
32.093462 -49.576700 -16.143670 9
29.833739 -49.573728 -16.088875 9
27.573698 -49.554452 -16.041473 9
25.314382 -49.618871 -15.996176 9
23.053325 -49.608773 -15.961339 9
20.792305 -49.637762 -15.930966 9
18.529268 -49.646133 -15.908198 9
16.262665 -49.622926 -15.893605 9
13.994296 -49.615303 -15.884725 9
11.725949 -49.646741 -15.880340 9
9.453126 -49.654653 -15.883735 9
7.172220 -49.611179 -15.896383 9
4.894748 -49.647412 -15.911443 9
2.605032 -49.605547 -15.937198 9
0.312393 -49.584420 -15.968499 9
-1.983636 -49.578999 -16.005630 9
-4.280598 -49.606631 -16.047695 9
-6.592535 -49.569083 -16.099929 9
-8.909540 -49.543360 -16.158298 9
-11.234772 -49.511008 -16.223824 9
-13.562905 -49.505587 -16.294747 9
-15.903186 -49.475549 -16.373884 9
-18.252480 -49.442668 -16.460120 9
-20.613583 -49.395809 -16.554123 9
-22.983232 -49.354078 -16.654909 9
-25.371263 -49.274954 -16.764905 9
-27.758994 -49.244807 -16.879368 9
-30.158102 -49.211787 -17.001241 9
-32.567314 -49.183078 -17.130186 9
-34.989263 -49.149985 -17.266773 9
-37.436231 -49.069786 -17.413582 9
-39.898301 -48.984181 -17.568321 9
-42.419867 -48.743928 -17.739988 9
-45.207176 -47.685375 -17.968999 9
-48.212246 -46.042350 -18.242926 9
-51.497771 -43.677867 -18.571707 9
-54.873553 -41.231016 -18.917324 9
-58.378647 -38.598335 -19.286859 9
-66.068150 -24.338820 -20.414672 8
-66.395715 -31.150698 -20.206579 8
-69.195208 -31.034400 -20.451921 8
-72.005526 -30.944791 -20.704858 8
-74.869639 -30.772844 -20.972851 8
-77.716557 -30.701438 -21.243724 8
-80.678331 -30.407925 -21.539859 8
-83.651220 -30.153284 -21.843633 8
-86.625631 -29.958297 -22.153616 8
-89.648411 -29.716217 -22.477610 8
-92.721476 -29.428043 -22.815907 8
-95.818281 -29.155091 -23.164254 8
-98.963543 -28.846975 -23.526692 8
-102.121736 -28.579791 -23.897641 8
-105.863421 -27.224962 -24.366942 8
-116.882908 -11.921771 -25.980241 7
-118.747621 -14.647818 -26.164146 7
-122.538817 -13.752459 -26.656178 7
-126.492155 -12.660865 -27.180378 7
-130.594375 -11.411431 -27.734724 7
-134.953408 -9.829609 -28.335877 7
-139.759566 -7.615856 -29.013005 7
149.260312 -16.694850 -24.912037 6
145.947163 -17.418198 -24.429705 6
142.762234 -17.919399 -23.977283 6
139.706109 -18.176763 -23.555130 6
136.679765 -18.425033 -23.144927 6
133.675116 -18.682991 -22.745090 6
130.708448 -18.904748 -22.358667 6
127.771218 -19.109212 -21.984024 6
124.850849 -19.329385 -21.618692 6
121.947785 -19.563347 -21.262680 6
119.015115 -19.955395 -20.906508 6
116.080557 -20.430276 -20.555355 6
111.707099 -25.733088 -19.912356 5
107.539791 -30.745306 -19.307959 5
104.449778 -32.356189 -18.928546 5
101.791183 -32.554105 -18.644889 5
99.146968 -32.760204 -18.369500 5
96.540381 -32.881663 -18.107609 5
93.930194 -33.075103 -17.850012 5
91.353558 -33.188690 -17.605233 5
88.784658 -33.324751 -17.367356 5
86.244018 -33.388511 -17.141441 5
83.698065 -33.530920 -16.919211 5
81.177434 -33.604606 -16.708462 5
78.649535 -33.771433 -16.500617 5
76.148793 -33.849028 -16.305055 5
73.650273 -33.968518 -16.114941 5
71.166094 -34.057769 -15.933850 5
68.706785 -34.037074 -15.765532 5
66.244342 -34.082393 -15.601253 5
65.886053 -17.952157 -16.212587 5
65.849860 3.315572 -17.053960 5
58.189042 -40.592139 -14.855886 9
55.635473 -42.361843 -14.644365 9
53.122348 -44.095442 -14.443016 9
50.644360 -45.838906 -14.249542 9
48.211684 -47.451826 -14.070034 9
45.836947 -48.675532 -13.915573 9
43.501250 -49.648644 -13.779497 9
41.209840 -50.097742 -13.673279 9
38.939896 -50.237503 -13.587065 9
36.675956 -50.303694 -13.510440 9
34.415481 -50.303261 -13.443020 9
32.155662 -50.300583 -13.382015 9
29.896063 -50.311724 -13.326738 9
27.636613 -50.328066 -13.277546 9
25.377025 -50.346440 -13.234566 9
23.015574 -46.698414 -13.349982 9
20.722093 -46.752685 -13.317653 9
18.596468 -50.461584 -13.140886 9
16.329974 -50.422616 -13.125427 9
14.062678 -50.418772 -13.114810 9
11.796699 -50.470680 -13.108199 9
9.520117 -50.420833 -13.112085 9
7.248453 -50.471987 -13.118139 9
4.961909 -50.405592 -13.135376 9
2.676924 -50.402761 -13.156358 9
-0.059827 -46.685843 -13.337615 9
-1.912040 -50.362521 -13.218938 9
-4.215352 -50.340261 -13.259969 9
-6.516913 -50.371952 -13.305214 9
-8.835106 -50.334114 -13.359879 9
-11.150767 -50.355440 -13.418593 9
-13.484122 -50.314417 -13.486533 9
-15.828770 -50.257173 -13.561816 9
-18.169372 -50.266535 -13.640920 9
-20.534029 -50.198582 -13.730109 9
-22.898994 -50.176072 -13.824118 9
-25.269896 -50.170105 -13.924238 9
-27.655916 -50.141397 -14.032267 9
-30.053437 -50.109351 -14.147422 9
-32.457371 -50.096205 -14.268756 9
-34.886331 -50.031112 -14.399592 9
-37.316578 -50.008160 -14.535680 9
-39.767951 -49.954738 -14.680474 9
-42.328164 -49.576932 -14.848238 9
-45.025369 -48.815858 -15.042551 9
-48.017732 -47.206164 -15.287279 9
-51.260528 -44.967671 -15.573362 9
-54.604232 -42.608012 -15.876638 9
-58.016395 -40.235062 -16.192135 9
-66.071738 -24.954013 -17.195441 8
-66.420158 -31.701102 -17.060643 8
-68.630584 -33.163235 -17.208820 8
-71.449100 -33.019016 -17.451478 8
-74.294558 -32.863277 -17.703964 8
-77.161879 -32.711119 -17.965605 8
-80.038353 -32.594394 -18.234709 8
-82.989961 -32.358314 -18.520443 8
-85.930655 -32.209112 -18.810997 8
-88.906834 -32.039293 -19.112833 8
-91.918235 -31.852647 -19.425973 8
-95.012578 -31.551268 -19.756875 8
-98.076549 -31.378855 -20.090423 8
-101.207153 -31.132732 -20.439703 8
-104.508270 -30.614929 -20.818517 8
-111.181251 -23.676264 -21.649418 8
-116.940376 -18.820412 -22.365071 7
-120.452473 -18.374977 -22.791686 7
-124.058411 -17.837453 -23.238385 7
-127.524617 -17.628187 -23.674666 7
-131.010942 -17.452378 -24.121692 7
-134.584963 -17.195584 -24.588470 7
-138.515215 -16.419754 -25.110370 7
-142.574543 -15.527557 -25.657834 7
-146.733223 -14.575801 -26.227207 7
148.499784 -19.517170 -21.384818 6
145.319731 -19.966277 -20.945029 6
142.163844 -20.434649 -20.515856 6
141.229333 -15.392972 -20.440853 6
135.955752 -21.346219 -19.693783 6
132.853521 -21.916604 -19.292799 6
129.780749 -22.492033 -18.902775 6
126.779788 -22.951575 -18.530390 6
123.889916 -23.168792 -18.182036 6
120.987478 -23.488533 -17.837873 6
118.115311 -23.786465 -17.504721 6
115.304883 -23.958306 -17.187775 5
111.125227 -28.690230 -16.647265 5
107.253795 -32.748008 -16.159246 5
104.276930 -33.994331 -15.825644 5
101.619990 -34.213509 -15.551957 5
99.015198 -34.299834 -15.292967 5
96.418017 -34.410582 -15.040938 5
93.841981 -34.491297 -14.798286 5
91.276427 -34.581388 -14.563086 5
88.714079 -34.712087 -14.333911 5
86.160882 -34.859020 -14.111804 5
83.637051 -34.924033 -13.900807 5
81.118855 -35.013359 -13.696288 5
78.612548 -35.094771 -13.499518 5
76.117522 -35.167796 -13.310419 5
73.628025 -35.262507 -13.127733 5
71.150867 -35.336991 -12.953031 5
68.686683 -35.380136 -12.786624 5
66.220376 -35.490515 -12.624752 5
65.869144 -19.429613 -13.057407 5
65.854871 1.862561 -13.666285 5
58.236101 -41.488730 -11.981371 9
55.708495 -43.008070 -11.801188 9
53.187660 -44.805011 -11.619501 9
50.710617 -46.523749 -11.448565 9
48.275860 -48.148871 -11.288622 9
45.898107 -49.406933 -11.148420 9
43.567693 -50.280318 -11.027969 9
41.276648 -50.701582 -10.928924 9
39.004930 -50.861127 -10.844673 9
36.741761 -50.870828 -10.771389 9
34.480353 -50.850955 -10.705145 9
32.218699 -50.886940 -10.643242 9
29.957997 -50.888125 -10.588510 9
27.698328 -51.013002 -10.536049 9
25.437996 -51.000718 -10.493879 9
23.176934 -51.001020 -10.457376 9
20.915336 -51.019857 -10.426362 9
18.650826 -51.002586 -10.402492 9
16.383850 -50.982255 -10.384765 9
14.115105 -50.976857 -10.372646 9
11.844068 -50.978844 -10.366373 9
9.568939 -50.968666 -10.366543 9
7.293899 -50.999400 -10.371576 9
5.011938 -50.994702 -10.383780 9
2.718769 -50.928406 -10.403967 9
0.430935 -50.955478 -10.427488 9
-1.867270 -50.937783 -10.458535 9
-4.174786 -50.894859 -10.496555 9
-7.014748 -47.316002 -10.649406 9
-8.796178 -50.898041 -10.588608 9
-11.114859 -50.910323 -10.643726 9
-13.449880 -50.869141 -10.706850 9
-15.787255 -50.859837 -10.775361 9
-18.128183 -50.873837 -10.849551 9
-20.490283 -50.824398 -10.932247 9
-22.850090 -50.830923 -11.019665 9
-25.229316 -50.791793 -11.115156 9
-27.612356 -50.781000 -11.216357 9
-30.010927 -50.749166 -11.324965 9
-32.420949 -50.716580 -11.440378 9
-34.844085 -50.678839 -11.562817 9
-37.282614 -50.629964 -11.692576 9
-39.710974 -50.662798 -11.826413 9
-42.256154 -50.339152 -11.980266 9
-44.994752 -49.444317 -12.162837 9
-47.895631 -48.134260 -12.369442 9
-51.145365 -45.875331 -12.621591 9
-54.446007 -43.646692 -12.883169 9
-57.828936 -41.357538 -13.158033 9
-66.036239 -25.675975 -13.988160 8
-66.323521 -32.579507 -13.915825 8
-68.298344 -34.664313 -14.044227 8
-71.090332 -34.572233 -14.271354 8
-73.906819 -34.472133 -14.507550 8
-76.751883 -34.356358 -14.753322 8
-79.623716 -34.232130 -15.008533 8
-82.502700 -34.147422 -15.271115 8
-85.419599 -34.031235 -15.544508 8
-88.382467 -33.869756 -15.829653 8
-91.376573 -33.699773 -16.125033 8
-114.555900 8.960827 -18.604159 8
-97.437837 -33.386101 -16.744659 8
-100.537147 -33.180022 -17.072579 8
-103.699965 -32.911602 -17.414625 8
-107.908617 -30.698930 -17.876784 8
-116.830851 -19.779419 -18.855211 7
-118.785140 -22.201672 -19.090379 7
-122.267727 -21.828517 -19.498550 7
-125.783289 -21.471423 -19.918564 7
-129.373240 -21.060078 -20.355090 7
-133.064667 -20.554258 -20.811288 7
-136.765413 -20.114266 -21.277316 7
-140.577871 -19.572549 -21.764582 7
-144.484445 -18.965424 -22.271431 7
-148.445670 -18.360499 -22.793768 7
150.420560 -23.028888 -18.292079 6
147.263412 -23.421333 -17.866749 6
144.122018 -23.851394 -17.450810 6
141.022278 -24.256733 -17.047413 6
138.006661 -24.526788 -16.661793 6
134.975387 -24.905323 -16.281253 6
131.973820 -25.279327 -15.911411 6
129.012950 -25.616395 -15.553555 6
126.110742 -25.860855 -15.209872 6
123.271664 -25.989420 -14.880872 6
120.419032 -26.217552 -14.556760 6
117.582280 -26.462330 -14.241182 6
114.863792 -26.399007 -13.947217 5
110.825676 -30.700246 -13.489132 5
107.172063 -34.043534 -13.085161 5
104.188948 -35.321993 -12.773352 5
101.557852 -35.463644 -12.513377 5
98.952602 -35.566399 -12.262775 5
96.374910 -35.616948 -12.021786 5
93.801295 -35.702366 -11.787232 5
91.248256 -35.754964 -11.561331 5
88.698826 -35.843200 -11.341714 5
86.169791 -35.892129 -11.130720 5
83.644847 -35.972627 -10.926013 5
81.140154 -36.005040 -10.729947 5
78.625860 -36.138383 -10.538026 5
76.138726 -36.180119 -10.355828 5
73.653689 -36.260482 -10.179501 5
71.187140 -36.280624 -10.011717 5
68.724632 -36.322572 -9.850139 5
66.273139 -36.337911 -9.695996 5
65.830108 -21.060953 -9.933317 5
65.853365 0.371326 -10.312224 5
