ply
format ascii 1.0
element vertex 1375
property float x
property float y
property float z
property int scalar_Label
end_header
-98.325447 -26.469528 -26.790262 8
-101.383288 -26.277851 -27.023853 8
-104.536120 -25.934846 -27.267952 8
-108.511010 -23.857158 -27.543031 8
-117.680925 -10.802751 -27.979134 7
-121.299696 -10.034796 -28.271704 7
-125.037973 -9.116607 -28.577704 7
-128.900039 -8.052364 -28.897795 7
-132.971630 -6.687280 -29.235465 7
-137.324963 -4.906499 -29.594189 7
143.247867 -5.198386 -29.537670 6
139.176815 -7.221195 -29.119150 6
135.428898 -8.629676 -28.725323 6
131.821016 -9.824946 -28.347597 6
128.352606 -10.788062 -27.985149 6
124.970905 -11.634953 -27.635448 6
121.645403 -12.435241 -27.297070 6
118.395465 -13.128661 -26.970238 6
116.868690 -9.000728 -26.696723 6
107.785046 -26.903172 -26.248393 5
104.032804 -29.810125 -25.948643 5
101.137012 -30.273922 -25.676795 5
98.330560 -30.530123 -25.414376 5
95.529291 -30.836798 -25.159627 5
92.762069 -31.097169 -24.912854 5
90.014195 -31.356729 -24.673710 5
87.307540 -31.531793 -24.442182 5
84.621919 -31.688341 -24.217915 5
81.951486 -31.845387 -24.000769 5
79.282934 -32.056364 -23.790713 5
76.589955 -32.440650 -23.588013 5
73.973623 -32.558341 -23.391768 5
71.353910 -32.751336 -23.202474 5
68.763914 -32.862550 -23.019560 5
66.434838 -31.661717 -22.836880 5
66.417276 -17.583135 -22.588884 5
60.686560 -35.377701 -22.522920 9
57.853596 -37.384973 -22.379629 9
55.076801 -39.322284 -22.244219 9
52.351697 -41.202776 -22.116486 9
49.670311 -43.069881 -21.996520 9
47.085573 -44.486792 -21.880271 9
44.605863 -45.262836 -21.765142 9
42.172314 -45.783007 -21.653872 9
39.794573 -45.864719 -21.544170 9
37.425149 -45.913130 -21.439725 9
35.061315 -45.946322 -21.340660 9
32.699800 -46.000718 -21.247341 9
30.342243 -46.051131 -21.159466 9
27.988012 -46.099988 -21.077031 9
25.637057 -46.137091 -20.999884 9
23.289533 -46.132233 -20.927609 9
20.941841 -46.186779 -20.861465 9
18.596148 -46.216309 -20.800367 9
16.251309 -46.257248 -20.744772 9
13.906703 -46.242178 -20.693755 9
11.562330 -46.283826 -20.648832 9
9.216466 -46.273252 -20.608504 9
6.870613 -46.303532 -20.574056 9
4.524326 -46.348421 -20.545127 9
2.176475 -46.387045 -20.521424 9
-0.177606 -46.355761 -20.502029 9
-2.807157 -42.630910 -20.434595 9
-5.199051 -42.650657 -20.426446 9
-7.596360 -42.648125 -20.423385 9
-9.996735 -42.656617 -20.425909 9
-12.401663 -42.663708 -20.433850 9
-14.369112 -46.331132 -20.499943 9
-16.743102 -46.386482 -20.519236 9
-19.131341 -46.373486 -20.542967 9
-21.526810 -46.355042 -20.572066 9
-23.934602 -46.302810 -20.606169 9
-26.341867 -46.301367 -20.646491 9
-28.754165 -46.313772 -20.692535 9
-31.183557 -46.276053 -20.743469 9
-33.616046 -46.268712 -20.800427 9
-36.063568 -46.232102 -20.862656 9
-38.518842 -46.205856 -20.930724 9
-40.985960 -46.172678 -21.004458 9
-43.538452 -45.824799 -21.080202 9
-46.207257 -45.076586 -21.157329 9
-49.063075 -43.701017 -21.233780 9
-52.096097 -41.807643 -21.311599 9
-55.255031 -39.640871 -21.394164 9
-58.403150 -37.709438 -21.487179 9
-61.758822 -35.256295 -21.583239 9
-66.120446 -29.734826 -21.659985 8
-68.866759 -29.710343 -21.796492 8
-71.649676 -29.624139 -21.939297 8
-74.457001 -29.519807 -22.088922 8
-77.268541 -29.458794 -22.245922 8
-80.109811 -29.368003 -22.409855 8
-82.978913 -29.256924 -22.580936 8
-85.849699 -29.197883 -22.759678 8
-88.765671 -29.077051 -22.945595 8
-91.696647 -28.976360 -23.139232 8
-94.705595 -28.743301 -23.340235 8
-97.711665 -28.580958 -23.549465 8
-100.715775 -28.483694 -23.766890 8
-103.763114 -28.347007 -23.992447 8
-107.242832 -27.323337 -24.226751 8
-113.890449 -19.632560 -24.480067 8
-118.360341 -16.905438 -24.744925 7
-121.779442 -16.503486 -25.016381 7
-125.215408 -16.144055 -25.297564 7
-128.749767 -15.667766 -25.589397 7
-132.371516 -15.105500 -25.892273 7
-136.005631 -14.604645 -26.205622 7
-139.757001 -13.972685 -26.531136 7
-143.562183 -13.333244 -26.868333 7
-147.488951 -12.571160 -27.218783 7
149.943334 -12.842090 -27.124895 6
146.372270 -13.614674 -26.728548 6
142.863916 -14.345381 -26.344193 6
139.434290 -14.991970 -25.971683 6
136.038071 -15.651679 -25.609931 6
132.246086 -17.355327 -25.254534 6
129.053385 -17.727343 -24.915902 6
125.934965 -17.987335 -24.586937 6
122.819562 -18.309598 -24.266971 6
119.744450 -18.597355 -23.955992 6
116.653230 -19.001133 -23.653966 6
112.565077 -22.318068 -23.368648 5
106.645760 -31.257930 -23.118977 5
103.377525 -32.799135 -22.859871 5
100.495271 -33.286405 -22.605034 5
97.719747 -33.512326 -22.356508 5
94.994710 -33.635417 -22.114628 5
92.270652 -33.813490 -21.880336 5
89.555060 -34.023649 -21.653455 5
86.888600 -34.116600 -21.432442 5
84.210240 -34.311482 -21.219314 5
81.553716 -34.483269 -21.012747 5
78.916338 -34.638008 -20.812668 5
76.307920 -34.728516 -20.618321 5
73.700540 -34.870548 -20.431106 5
71.113272 -34.978251 -20.249788 5
68.533999 -35.104449 -20.075033 5
66.464984 -32.620750 -19.864613 5
66.427635 -18.719755 -19.466630 5
60.610317 -36.957933 -19.613363 9
57.813836 -38.778642 -19.494255 9
55.037154 -40.745520 -19.385675 9
52.328738 -42.544782 -19.281736 9
49.657407 -44.369736 -19.185768 9
47.099524 -45.605652 -19.085367 9
44.616134 -46.441556 -18.983403 9
42.197266 -46.859398 -18.878838 9
39.818214 -46.988838 -18.773810 9
37.454830 -47.010493 -18.671832 9
35.094935 -47.038085 -18.575257 9
32.739831 -47.048659 -18.483545 9
30.385211 -47.101403 -18.398003 9
28.034610 -47.139498 -18.317331 9
25.686643 -47.177602 -18.241836 9
23.341326 -47.201608 -18.171161 9
20.998476 -47.181335 -18.104549 9
18.655345 -47.218183 -18.044414 9
16.313150 -47.305988 -17.990632 9
13.972055 -47.333608 -17.940476 9
11.630762 -47.346938 -17.895041 9
9.288732 -47.355755 -17.854559 9
6.945478 -47.361151 -17.819049 9
4.600168 -47.355645 -17.788320 9
2.251454 -47.327582 -17.762071 9
-0.096828 -47.352843 -17.742236 9
-2.448079 -47.370276 -17.727268 9
-4.804886 -47.356239 -17.716566 9
-7.166359 -47.334387 -17.710744 9
-9.525353 -47.381005 -17.711767 9
-11.897262 -47.344187 -17.715758 9
-14.268149 -47.362250 -17.726277 9
-16.651460 -47.323325 -17.740480 9
-19.029941 -47.365334 -17.761908 9
-21.426050 -47.325452 -17.786439 9
-23.824456 -47.317506 -17.816993 9
-26.232726 -47.293796 -17.852393 9
-28.646186 -47.285547 -17.893454 9
-31.072401 -47.252546 -17.939208 9
-33.496219 -47.277302 -17.991727 9
-35.954254 -47.177548 -18.046590 9
-38.412847 -47.127039 -18.108100 9
-40.849681 -47.219712 -18.178497 9
-43.394004 -46.894664 -18.244554 9
-46.041897 -46.219983 -18.308285 9
-48.847146 -45.029141 -18.366324 9
-51.839520 -43.270930 -18.418185 9
-54.970997 -41.182943 -18.469897 9
-58.152122 -39.114266 -18.529599 9
-61.392831 -37.032434 -18.596787 9
-65.822242 -31.270509 -18.595625 8
-68.576362 -31.199148 -18.721525 8
-71.335673 -31.164946 -18.854664 8
-74.118834 -31.111212 -18.993981 8
-76.921379 -31.054302 -19.139899 8
-79.748203 -30.982680 -19.292309 8
-82.599688 -30.898374 -19.451370 8
-85.457686 -30.851894 -19.618060 8
-88.338826 -30.799451 -19.791703 8
-91.281804 -30.647127 -19.970960 8
-94.218096 -30.570389 -20.158761 8
-97.195551 -30.452410 -20.353418 8
-100.177908 -30.381404 -20.556329 8
-103.211465 -30.251966 -20.766194 8
-106.534670 -29.549284 -20.977267 8
-111.691463 -25.025509 -21.155893 8
-117.222325 -19.992944 -21.345423 7
-120.570889 -19.686876 -21.595265 7
-123.943207 -19.405002 -21.854485 7
-127.359911 -19.107676 -22.122922 7
-130.843317 -18.755653 -22.400580 7
-134.399141 -18.344037 -22.687812 7
-137.942306 -18.033151 -22.985679 7
-141.464234 -17.833838 -23.294113 7
-144.996337 -17.686511 -23.612861 7
-148.593283 -17.497048 -23.941915 7
147.619961 -18.804389 -23.680596 6
144.337332 -19.069798 -23.313812 6
141.057557 -19.400375 -22.956999 6
137.824969 -19.698084 -22.609674 6
134.635276 -19.968240 -22.271551 6
131.472124 -20.245721 -21.942617 6
128.343776 -20.508685 -21.622521 6
125.249345 -20.756062 -21.311028 6
122.191791 -20.976748 -21.007795 6
119.154305 -21.211277 -20.713077 6
116.642758 -20.067311 -20.408158 6
110.727855 -28.550031 -20.246974 5
105.955667 -34.269520 -20.067678 5
102.844927 -35.397115 -19.831547 5
100.100368 -35.509852 -19.586888 5
97.353514 -35.687528 -19.350380 5
94.642245 -35.808985 -19.119774 5
91.944384 -35.942429 -18.896176 5
89.258596 -36.091812 -18.679599 5
86.604929 -36.182767 -18.468373 5
83.949623 -36.335805 -18.264967 5
81.323152 -36.434673 -18.066740 5
78.701035 -36.572002 -17.875699 5
76.091467 -36.714967 -17.691036 5
73.511767 -36.783644 -17.510655 5
70.931628 -36.908612 -17.337728 5
68.368161 -37.010703 -17.170182 5
66.417652 -33.976240 -16.922851 5
66.431384 -19.883731 -16.368709 5
60.569868 -38.317700 -16.731170 9
57.797977 -40.013971 -16.633737 9
55.053546 -41.790969 -16.546059 9
52.339775 -43.638493 -16.467800 9
49.684884 -45.356872 -16.392790 9
47.134994 -46.541575 -16.308086 9
44.651305 -47.392697 -16.219126 9
42.237769 -47.777963 -16.121119 9
39.860148 -47.911033 -16.020325 9
37.495301 -47.971472 -15.922288 9
35.137885 -47.996460 -15.828123 9
32.783695 -48.027217 -15.739146 9
30.432508 -48.063392 -15.655323 9
28.085079 -48.084326 -15.575927 9
25.741108 -48.076504 -15.500455 9
23.398541 -48.067962 -15.429838 9
21.056297 -48.090727 -15.365185 9
18.714842 -48.146483 -15.306565 9
16.374873 -48.142303 -15.250679 9
14.034715 -48.132615 -15.199425 9
11.694774 -48.173739 -15.154817 9
9.354371 -48.200845 -15.114534 9
7.012709 -48.213857 -15.078558 9
4.668005 -48.191008 -15.046089 9
2.323157 -48.211171 -15.019996 9
-0.025853 -48.198979 -14.997534 9
-2.373235 -48.251091 -14.982245 9
-4.730786 -48.208333 -14.968299 9
-7.086390 -48.235224 -14.961741 9
-9.450354 -48.215324 -14.958304 9
-11.812432 -48.256199 -14.961957 9
-14.189791 -48.205089 -14.967097 9
-16.563644 -48.229267 -14.979890 9
-18.942490 -48.255702 -14.997669 9
-21.335727 -48.224055 -15.018249 9
-23.735812 -48.194882 -15.043875 9
-26.137263 -48.202793 -15.075833 9
-28.557331 -48.147715 -15.110518 9
-30.970122 -48.179181 -15.153371 9
-33.398699 -48.170364 -15.199843 9
-35.837429 -48.156229 -15.251234 9
-38.288271 -48.130646 -15.307372 9
-40.742683 -48.134704 -15.369748 9
-43.267426 -47.885709 -15.428535 9
-45.889264 -47.308000 -15.481386 9
-48.707996 -46.054340 -15.516789 9
-51.704022 -44.276271 -15.540648 9
-54.801702 -42.305942 -15.564802 9
-57.947614 -40.352105 -15.596565 9
-61.151502 -38.383236 -15.635078 9
-65.604384 -32.539470 -15.555746 8
-68.349346 -32.483046 -15.672078 8
-71.113198 -32.421237 -15.794395 8
-73.877242 -32.411476 -15.924562 8
-76.659751 -32.398673 -16.060908 8
-80.575104 -29.292665 -16.111222 8
-82.325086 -32.250848 -16.349183 8
-85.177934 -32.204698 -16.503990 8
-88.065303 -32.123717 -16.664499 8
-90.972655 -32.048527 -16.831997 8
-93.901453 -31.976924 -17.006522 8
-96.860497 -31.889717 -17.187681 8
-99.848601 -31.792592 -17.375771 8
-102.832763 -31.761805 -17.572817 8
-108.286460 -26.404426 -17.650096 8
-110.511298 -28.225549 -17.908954 8
-117.973580 -19.144015 -17.930099 7
-119.359615 -22.860164 -18.248201 7
-122.657376 -22.676785 -18.488034 7
-126.003681 -22.465298 -18.735922 7
-129.405676 -22.216051 -18.991942 7
-132.817857 -22.017704 -19.257959 7
-136.305079 -21.751647 -19.532045 7
-139.818396 -21.510912 -19.816064 7
-143.402818 -21.218033 -20.109028 7
-147.024231 -20.936235 -20.412180 7
-150.723680 -20.598881 -20.724902 7
150.153974 -21.175949 -20.687010 6
146.884615 -21.380699 -20.330168 6
143.654881 -21.568552 -19.982327 6
140.465462 -21.734633 -19.643153 6
137.234705 -22.060346 -19.315547 6
134.089515 -22.260866 -18.994597 6
130.978896 -22.445892 -18.681857 6
127.903135 -22.611416 -18.377023 6
124.884905 -22.696676 -18.078540 6
121.876872 -22.815441 -17.788620 6
118.860096 -23.019011 -17.508465 6
116.694423 -20.956461 -17.179189 6
109.711390 -32.420313 -17.205906 5
105.546313 -36.443158 -17.060544 5
103.840609 -33.392413 -16.731525 5
99.845107 -37.285277 -16.604100 5
97.136515 -37.370035 -16.376692 5
94.437002 -37.480239 -16.156533 5
91.753818 -37.591705 -15.942828 5
89.061513 -37.792733 -15.738334 5
86.413390 -37.895168 -15.536948 5
83.786592 -37.972730 -15.340843 5
81.157150 -38.115434 -15.152991 5
78.553595 -38.211149 -14.969495 5
75.968173 -38.284964 -14.791078 5
73.403484 -38.319898 -14.616998 5
70.836906 -38.414709 -14.450795 5
68.293590 -38.451409 -14.288039 5
66.427533 -35.024461 -13.997139 5
66.368221 -21.404617 -13.308215 5
60.596091 -39.281887 -13.861269 9
57.815777 -41.033667 -13.789755 9
55.079687 -42.764697 -13.724495 9
52.384453 -44.490052 -13.665928 9
49.745463 -46.090017 -13.608890 9
47.182196 -47.375717 -13.545069 9
44.710998 -48.123232 -13.464333 9
42.286423 -48.611211 -13.377908 9
39.926042 -48.576183 -13.273908 9
37.559729 -48.647482 -13.179346 9
35.202070 -48.670745 -13.087464 9
32.848078 -48.693115 -13.000291 9
30.492466 -48.797324 -12.921526 9
28.146351 -48.796266 -12.842734 9
25.800881 -48.827422 -12.770073 9
23.457644 -48.855143 -12.701914 9
21.117757 -48.802074 -12.634662 9
18.776397 -48.854651 -12.576904 9
16.436511 -48.836034 -12.520444 9
14.096623 -48.873023 -12.471174 9
11.756486 -48.881213 -12.425141 9
9.415566 -48.886547 -12.383551 9
7.075354 -48.944293 -12.349015 9
4.730589 -48.913916 -12.314873 9
2.387750 -48.967221 -12.289276 9
0.036307 -48.909053 -12.262936 9
-2.311468 -48.954906 -12.246131 9
-4.665226 -48.957790 -12.231851 9
-7.023392 -48.952392 -12.221759 9
-9.389205 -48.913328 -12.214647 9
-11.753576 -48.934418 -12.215024 9
-14.122674 -48.953972 -12.219946 9
-16.501510 -48.937217 -12.227764 9
-18.886471 -48.920368 -12.240232 9
-21.274506 -48.926688 -12.258483 9
-23.675069 -48.895451 -12.279638 9
-26.074875 -48.914177 -12.307897 9
-28.483368 -48.924473 -12.340498 9
-30.904682 -48.908107 -12.376612 9
-33.333947 -48.895841 -12.417731 9
-35.772571 -48.882571 -12.463648 9
-38.214929 -48.896352 -12.515711 9
-40.679147 -48.856287 -12.570179 9
-43.194943 -48.646270 -12.621763 9
-46.849036 -43.906412 -12.470202 9
-48.627089 -46.850319 -12.677461 9
-51.590294 -45.196947 -12.679481 9
-54.679589 -43.255351 -12.674789 9
-57.813361 -41.341788 -12.677980 9
-61.464619 -37.872081 -12.618978 9
-65.447955 -33.604774 -12.533126 8
-68.184694 -33.566669 -12.640489 8
-70.952769 -33.484440 -12.751757 8
-73.722173 -33.452222 -12.871080 8
-76.520137 -33.389681 -12.995081 8
-79.326397 -33.357387 -13.126408 8
-82.165442 -33.288685 -13.262361 8
-84.997598 -33.292105 -13.407491 8
-87.871300 -33.240384 -13.556681 8
-90.758122 -33.210024 -13.713136 8
-93.686430 -33.132803 -13.874274 8
-96.630174 -33.075218 -14.042826 8
-99.590190 -33.035646 -14.218805 8
-103.923041 -29.991467 -14.291173 8
-105.735693 -32.628229 -14.579579 8
-109.790419 -30.436204 -14.700742 8
-115.568836 -24.834359 -14.714808 8
-118.555374 -25.195188 -14.946215 7
-121.831453 -25.024306 -15.167193 7
-125.148651 -24.839148 -15.395794 7
-128.465615 -24.720630 -15.634744 7
-131.869653 -24.505266 -15.879094 7
-135.304371 -24.303113 -16.132518 7
-138.762068 -24.128926 -16.395585 7
-142.257123 -23.958125 -16.667739 7
-145.785050 -23.800124 -16.949419 7
-149.398070 -23.569793 -17.238656 7
149.716299 -23.090398 -17.357809 6
146.494177 -23.216203 -17.017814 6
143.282242 -23.384687 -16.687571 6
140.117874 -23.514681 -16.364757 6
136.978797 -23.651514 -16.050402 6
133.843203 -23.844234 -15.745864 6
130.767273 -23.961611 -15.447010 6
127.685952 -24.154404 -15.158382 6
124.675380 -24.235747 -14.873747 6
121.664956 -24.376335 -14.598569 6
118.691411 -24.481802 -14.329507 6
114.157999 -28.906496 -14.226794 5
112.267048 -26.219410 -13.870494 5
105.301074 -38.126359 -14.081042 5
102.407855 -38.661155 -13.868968 5
99.674028 -38.789005 -13.647546 5
96.957353 -38.920575 -13.432587 5
94.268216 -39.019992 -13.222485 5
91.599643 -39.105613 -13.017855 5
88.950456 -39.178024 -12.818599 5
86.309923 -39.272984 -12.626194 5
83.690233 -39.344581 -12.438526 5
81.101625 -39.347358 -12.253375 5
78.519563 -39.371628 -12.074738 5
75.933677 -39.462436 -11.904723 5
73.376667 -39.479700 -11.736666 5
70.822950 -39.530829 -11.575585 5
68.276145 -39.600481 -11.420727 5
66.393843 -36.290377 -11.102571 5
66.402977 -22.381003 -10.251009 5
60.650446 -40.077347 -11.001207 9
57.876357 -41.785295 -10.951670 9
55.165204 -43.346973 -10.901255 9
52.475904 -45.012468 -10.862743 9
49.827259 -46.660817 -10.829737 9
47.262906 -47.936665 -10.783074 9
44.781783 -48.752354 -10.717402 9
42.355178 -49.248691 -10.639689 9
39.989041 -49.265421 -10.540697 9
37.627726 -49.276562 -10.445949 9
35.262778 -49.383076 -10.361017 9
32.909925 -49.389118 -10.275035 9
30.563099 -49.342023 -10.190531 9
28.213216 -49.386300 -10.115600 9
25.867673 -49.392143 -10.042933 9
23.522913 -49.426825 -9.976316 9
21.180039 -49.457730 -9.913886 9
18.838992 -49.446512 -9.853417 9
16.498040 -49.452099 -9.798272 9
14.157051 -49.445603 -9.746777 9
11.815493 -49.439870 -9.699664 9
9.473261 -49.445441 -9.657541 9
7.129930 -49.452707 -9.619848 9
4.784628 -49.450176 -9.585909 9
2.436459 -49.433959 -9.555491 9
0.087988 -49.456569 -9.531681 9
-2.261129 -49.503833 -9.513658 9
-4.619647 -49.466711 -9.494995 9
-6.975954 -49.501217 -9.484900 9
-9.342574 -49.468643 -9.475192 9
-11.711418 -49.462409 -9.471400 9
-14.084499 -49.463143 -9.472392 9
-16.464895 -49.449035 -9.476895 9
-18.854566 -49.412224 -9.484463 9
-21.240500 -49.446679 -9.500662 9
-23.639202 -49.438890 -9.518811 9
-26.042595 -49.446362 -9.542326 9
-28.460264 -49.415628 -9.568086 9
-30.882693 -49.405350 -9.599571 9
-33.313160 -49.398330 -9.635797 9
-35.751705 -49.396145 -9.676885 9
-38.201492 -49.385817 -9.722113 9
-40.651114 -49.420434 -9.774595 9
-44.035486 -45.575307 -9.608045 9
-45.798394 -48.610300 -9.843119 9
-48.548891 -47.633348 -9.852142 9
-51.566783 -45.778738 -9.816625 9
-54.610880 -44.010011 -9.791977 9
-57.746007 -42.096572 -9.765304 9
-60.929673 -40.198101 -9.745841 9
-65.402989 -34.306195 -9.511058 8
-68.141909 -34.265434 -9.608865 8
-70.892729 -34.239875 -9.712990 8
-73.670833 -34.184816 -9.821057 8
-76.449708 -34.180181 -9.937485 8
-79.262354 -34.132184 -10.057270 8
-82.093263 -34.087950 -10.183049 8
-84.944989 -34.042289 -10.314629 8
-87.794942 -34.054386 -10.455173 8
-90.677557 -34.036378 -10.600165 8
-93.578369 -34.027142 -10.751722 8
-96.524968 -33.963197 -10.906741 8
-99.476703 -33.943162 -11.070313 8
-102.456882 -33.913713 -11.239856 8
-105.635587 -33.508546 -11.397831 8
-109.588883 -31.538075 -11.488605 8
-115.265822 -26.156642 -11.429349 8
-118.121137 -26.773247 -11.661340 7
-121.366491 -26.649829 -11.866074 7
-124.624200 -26.565513 -12.080073 7
-127.928322 -26.455507 -12.300567 7
-131.271631 -26.336733 -12.528503 7
-134.639010 -26.238909 -12.765313 7
-139.865942 -22.932828 -12.878822 7
-141.527190 -25.968684 -13.260518 7
-145.042507 -25.812630 -13.520060 7
-148.620322 -25.621732 -13.787082 7
149.479044 -24.583730 -14.053561 6
146.237273 -24.761031 -13.732882 6
143.048948 -24.890963 -13.418609 6
139.923507 -24.947195 -13.109344 6
136.801360 -25.056194 -12.809932 6
133.716566 -25.141439 -12.517131 6
130.641071 -25.265528 -12.233453 6
127.606065 -25.353697 -11.955533 6
124.602529 -25.423529 -11.683926 6
121.624082 -25.487884 -11.419046 6
118.657649 -25.578853 -11.162283 6
113.859337 -30.712358 -11.157491 5
108.925451 -36.585918 -11.205226 5
105.257321 -39.216917 -11.106160 5
102.348481 -39.803224 -10.912799 5
99.640037 -39.861729 -10.698780 5
96.921322 -40.006620 -10.495199 5
94.241882 -40.082098 -10.293795 5
91.585236 -40.134790 -10.096857 5
88.954549 -40.149050 -9.903383 5
86.319659 -40.228583 -9.719017 5
83.713303 -40.254751 -9.537091 5
81.115863 -40.296316 -9.361369 5
78.537226 -40.312424 -9.189437 5
75.957933 -40.380775 -9.025744 5
73.408912 -40.367880 -8.862395 5
70.847837 -40.457864 -8.710226 5
68.301569 -40.531603 -8.562145 5
66.336448 -37.669278 -8.239436 5
66.462617 -23.215885 -7.202832 5
60.740864 -40.661116 -8.141928 9
57.976540 -42.291882 -8.111210 9
55.257878 -43.879509 -8.084105 9
52.563775 -45.556249 -8.068852 9
49.914903 -47.184846 -8.056632 9
47.354879 -48.404676 -8.023926 9
44.870179 -49.226015 -7.970754 9
42.451623 -49.622910 -7.894826 9
40.077868 -49.684370 -7.801434 9
37.709356 -49.745538 -7.712368 9
35.348559 -49.769448 -7.625134 9
32.995009 -49.741419 -7.538682 9
30.640367 -49.769784 -7.460230 9
28.290256 -49.766012 -7.383822 9
25.940793 -49.793327 -7.313704 9
23.594120 -49.797946 -7.246217 9
21.248822 -49.796855 -7.182490 9
18.904014 -49.816232 -7.124300 9
16.559982 -49.814513 -7.068788 9
14.215983 -49.829701 -7.018554 9
11.871633 -49.833713 -6.971653 9
9.526510 -49.838127 -6.928878 9
7.179898 -49.833849 -6.889589 9
4.833517 -49.873750 -6.857470 9
2.483645 -49.873754 -6.826658 9
0.131829 -49.882228 -6.800525 9
-2.224978 -49.860005 -6.776330 9
-4.581397 -49.887433 -6.759710 9
-6.942829 -49.895270 -6.745815 9
-9.311345 -49.872819 -6.733899 9
-11.680970 -49.885118 -6.728540 9
-14.053190 -49.915173 -6.728557 9
-16.437624 -49.888842 -6.728750 9
-18.821275 -49.913243 -6.736666 9
-21.218826 -49.883778 -6.744968 9
-23.612856 -49.921855 -6.762205 9
-26.021714 -49.910388 -6.780175 9
-28.436572 -49.909122 -6.803097 9
-30.863417 -49.887259 -6.828840 9
-33.289742 -49.912967 -6.862194 9
-35.733770 -49.894562 -6.896785 9
-38.177610 -49.921909 -6.938907 9
-40.648026 -49.874208 -6.980200 9
-43.164327 -49.682075 -7.015948 9
-45.801205 -49.064916 -7.026958 9
-48.581760 -47.985231 -7.011006 9
-51.553035 -46.322695 -6.960289 9
-54.610405 -44.518108 -6.905414 9
-57.749245 -42.605255 -6.848936 9
-60.923688 -40.751083 -6.802380 9
-66.279392 -32.035039 -6.300852 8
-69.046727 -32.006201 -6.391027 8
-70.919442 -34.730877 -6.669459 8
-73.678525 -34.742287 -6.771718 8
-76.453212 -34.758164 -6.879530 8
-79.262900 -34.726443 -6.989561 8
-82.097062 -34.681174 -7.104153 8
-84.937542 -34.672528 -7.226631 8
-87.784167 -34.699700 -7.356974 8
-90.668482 -34.683908 -7.490221 8
-93.596381 -34.616176 -7.625961 8
-96.509126 -34.639414 -7.773269 8
-99.478348 -34.585524 -7.921721 8
-102.451541 -34.578476 -8.079122 8
-105.587538 -34.273087 -8.224628 8
-109.434522 -32.536080 -8.291162 8
-115.711167 -25.932060 -8.078638 7
-117.884551 -27.946991 -8.385402 7
-121.113627 -27.851594 -8.574285 7
-124.360328 -27.784022 -8.771776 7
-127.607005 -27.777415 -8.979815 7
-130.931559 -27.686710 -9.190367 7
-134.303904 -27.573318 -9.407138 7
-137.698869 -27.484851 -9.632902 7
-141.135851 -27.388389 -9.866022 7
-144.613225 -27.289167 -10.106965 7
-149.951068 -24.195248 -10.203450 7
-151.595966 -27.241229 -10.621017 7
149.400208 -25.746184 -10.762484 6
146.207025 -25.824699 -10.454407 6
143.026842 -25.937730 -10.155709 6
139.919011 -25.956071 -9.859557 6
136.808076 -26.039681 -9.574072 6
134.972260 -23.251312 -9.138732 6
130.684360 -26.161710 -9.021935 6
127.653962 -26.236368 -8.756972 6
124.656597 -26.288416 -8.497447 6
121.688057 -26.324740 -8.243575 6
118.736197 -26.373988 -7.996900 6
113.773316 -31.930467 -8.089307 5
111.788861 -29.560018 -7.711702 5
105.291110 -40.078129 -8.136985 5
102.383146 -40.659605 -7.959811 5
99.672296 -40.725357 -7.756229 5
96.996381 -40.734947 -7.554573 5
94.317822 -40.803529 -7.362151 5
91.657495 -40.864649 -7.174623 5
89.012223 -40.926576 -6.992444 5
86.396575 -40.934348 -6.811827 5
83.792088 -40.949304 -6.636768 5
81.188530 -41.010308 -6.469893 5
78.609942 -41.022628 -6.304636 5
76.039504 -41.049408 -6.145270 5
73.479800 -41.078764 -5.990919 5
70.940443 -41.063940 -5.838193 5
68.398041 -41.110200 -5.694532 5
66.457365 -38.124597 -5.335752 5
66.404839 -24.679329 -4.214408 5
60.868294 -41.030766 -5.275406 9
58.107347 -42.611058 -5.263683 9
55.373029 -44.265030 -5.263435 9
52.687110 -45.854496 -5.264278 9
50.042627 -47.412465 -5.268491 9
47.466322 -48.716726 -5.259050 9
44.981604 -49.500652 -5.215178 9
42.556946 -49.912844 -5.147551 9
40.169176 -50.075607 -5.065102 9
37.801952 -50.087538 -4.975145 9
35.436489 -50.126284 -4.891312 9
33.076619 -50.141692 -4.809686 9
30.723423 -50.097607 -4.727382 9
28.368925 -50.110459 -4.653497 9
26.015056 -50.162758 -4.586680 9
23.666049 -50.142172 -4.518035 9
21.317766 -50.124307 -4.453504 9
18.969860 -50.110764 -4.393205 9
16.621886 -50.158502 -4.341690 9
14.274145 -50.112467 -4.286541 9
11.927060 -50.188710 -4.245078 9
9.578008 -50.165545 -4.199484 9
7.227273 -50.143064 -4.157791 9
4.876190 -50.159777 -4.123112 9
2.524018 -50.188951 -4.093295 9
0.167637 -50.182590 -4.064448 9
-2.192528 -50.165946 -4.038612 9
-4.557980 -50.129454 -4.015010 9
-6.924744 -50.126772 -3.998014 9
-9.288026 -50.199397 -3.991019 9
-11.669966 -50.133600 -3.976618 9
-14.050650 -50.129840 -3.971155 9
-16.432516 -50.159111 -3.972280 9
-18.823954 -50.158067 -3.974843 9
-21.222588 -50.151258 -3.980859 9
-23.624413 -50.167499 -3.992696 9
-26.037033 -50.160705 -4.006616 9
-28.454622 -50.169564 -4.025792 9
-30.880510 -50.176490 -4.048814 9
-33.322647 -50.144234 -4.072684 9
-35.767273 -50.146315 -4.103400 9
-38.229085 -50.113243 -4.135358 9
-40.671689 -50.210436 -4.181957 9
-43.196987 -49.997783 -4.207714 9
-45.837427 -49.384639 -4.205553 9
-48.636125 -48.253741 -4.166372 9
-51.614761 -46.585478 -4.089025 9
-54.670167 -44.809815 -4.008263 9
-57.781004 -43.014472 -3.931270 9
-60.987851 -41.069238 -3.847897 9
-65.479866 -35.166217 -3.458180 8
-68.223951 -35.135052 -3.537965 8
-70.975503 -35.132328 -3.624815 8
-73.721627 -35.194933 -3.721632 8
-76.525118 -35.140868 -3.814306 8
-79.347630 -35.087643 -3.912093 8
-82.169271 -35.090129 -4.019272 8
-85.011105 -35.090758 -4.131455 8
-87.884240 -35.063421 -4.246740 8
-90.762497 -35.076437 -4.370392 8
-93.683742 -35.037856 -4.495552 8
-96.632043 -34.990550 -4.625570 8
-99.593193 -34.969210 -4.763112 8
-102.572305 -34.962359 -4.907388 8
-105.677519 -34.737412 -5.041567 8
-109.670776 -32.708276 -5.051803 8
-115.177205 -27.722077 -4.859176 8
-117.861871 -28.687091 -5.100563 7
-121.061291 -28.655730 -5.277105 7
-124.307910 -28.592879 -5.457946 7
-127.552248 -28.595146 -5.649923 7
-130.862988 -28.534428 -5.844315 7
-134.181465 -28.521738 -6.048869 7
-137.534267 -28.509351 -6.260446 7
-140.955075 -28.441507 -6.475534 7
-144.396189 -28.403641 -6.699966 7
-147.891627 -28.340069 -6.930269 7
-151.402685 -28.316578 -7.170829 7
149.527624 -26.484734 -7.465907 6
146.343312 -26.537441 -7.172125 6
143.188868 -26.587769 -6.885316 6
140.062153 -26.638201 -6.605487 6
136.949784 -26.716657 -6.334333 6
133.899342 -26.714278 -6.064536 6
130.860656 -26.740688 -5.803153 6
127.832313 -26.799674 -5.550401 6
124.830576 -26.851582 -5.303493 6
121.861075 -26.879466 -5.061097 6
118.915096 -26.902138 -4.824380 6
113.896372 -32.577161 -5.001921 5
109.152934 -37.879352 -5.167531 5
105.418919 -40.665545 -5.161465 5
102.519972 -41.209705 -4.997750 5
99.807828 -41.269535 -4.803559 5
97.130192 -41.274683 -4.610428 5
94.465051 -41.289286 -4.423088 5
91.803032 -41.343932 -4.243861 5
89.171717 -41.344590 -4.065385 5
86.548891 -41.363614 -3.893198 5
83.942349 -41.371701 -3.724931 5
81.329466 -41.453845 -3.567329 5
78.749975 -41.455281 -3.407933 5
76.177651 -41.474662 -3.254582 5
73.643718 -41.373731 -3.095888 5
71.094782 -41.380934 -2.950493 5
68.558271 -41.376249 -2.808531 5
66.417250 -39.400103 -2.505643 5
66.374504 -25.985148 -1.240044 5
61.048774 -41.098291 -2.386222 9
58.274977 -42.708296 -2.399107 9
55.543498 -44.296175 -2.415797 9
52.847051 -45.903053 -2.439693 9
50.773244 -43.247656 -2.099473 9
47.606563 -48.802225 -2.476371 9
45.097547 -49.736468 -2.457333 9
42.666788 -50.160369 -2.398042 9
40.277679 -50.290742 -2.316999 9
37.904104 -50.320889 -2.230977 9
35.538988 -50.298138 -2.144057 9
33.172790 -50.331290 -2.065879 9
30.815591 -50.272851 -1.983254 9
28.456128 -50.284839 -1.910651 9
26.100088 -50.268146 -1.839172 9
23.744213 -50.286731 -1.774564 9
21.390668 -50.269819 -1.710417 9
19.037344 -50.271618 -1.651624 9
16.684444 -50.267280 -1.595919 9
14.331483 -50.272657 -1.544739 9
11.978539 -50.300697 -1.499265 9
9.624359 -50.293035 -1.454146 9
7.267911 -50.261097 -1.410408 9
4.913349 -50.322663 -1.378886 9
2.553610 -50.305647 -1.343742 9
0.191238 -50.291728 -1.312489 9
-2.176259 -50.251419 -1.282402 9
-4.543402 -50.264945 -1.260905 9
-6.920742 -50.206126 -1.236324 9
-9.290178 -50.276651 -1.227351 9
-11.670007 -50.283288 -1.216090 9
-14.061206 -50.236748 -1.203534 9
-16.447640 -50.275079 -1.202504 9
-18.846160 -50.264260 -1.200575 9
-21.247415 -50.278813 -1.204678 9
-23.659227 -50.268104 -1.210128 9
-26.079396 -50.252070 -1.218795 9
-28.500262 -50.276662 -1.234958 9
-30.937955 -50.253035 -1.250402 9
-33.373147 -50.287432 -1.274991 9
-35.830310 -50.257179 -1.297395 9
-38.295649 -50.236041 -1.324470 9
-40.759553 -50.266805 -1.360187 9
-43.299547 -50.021651 -1.374387 9
-45.923042 -49.506371 -1.367768 9
-48.739707 -48.332854 -1.304942 9
-51.724018 -46.672276 -1.202019 9
-54.771739 -44.952268 -1.098434 9
-57.925062 -43.036791 -0.981967 9
-61.109870 -41.194988 -0.877327 9
-65.606780 -35.311091 -0.412006 8
-68.319543 -35.399233 -0.493298 8
-71.122619 -35.259359 -0.558534 8
-73.894015 -35.269962 -0.641904 8
-76.689869 -35.260646 -0.728108 8
-79.487752 -35.296503 -0.823016 8
-82.333643 -35.252931 -0.915604 8
-85.177972 -35.266767 -1.018099 8
-88.045010 -35.273951 -1.124878 8
-90.919305 -35.314652 -1.239530 8
-93.850460 -35.269668 -1.351724 8
-96.797247 -35.243205 -1.470667 8
-99.769383 -35.213645 -1.594557 8
-102.764247 -35.188794 -1.724154 8
-105.894949 -34.926698 -1.838987 8
-110.027613 -32.628018 -1.787661 8
-115.383558 -27.987534 -1.548154 8
-117.988131 -29.127046 -1.801024 7
-121.169183 -29.144261 -1.965674 7
-124.420107 -29.084916 -2.130032 7
-127.666805 -29.094351 -2.306191 7
-130.979506 -29.041746 -2.483580 7
-134.290093 -29.054637 -2.672659 7
-137.657864 -29.027195 -2.865033 7
-141.047068 -29.025007 -3.066079 7
-144.492075 -28.990993 -3.271447 7
-147.996164 -28.923784 -3.481259 7
-151.507483 -28.910536 -3.702388 7
149.746020 -27.036900 -4.164928 6
146.595513 -27.007979 -3.880486 6
143.432659 -27.062461 -3.608917 6
140.302155 -27.107625 -3.343204 6
137.219634 -27.105962 -3.080264 6
134.150585 -27.130658 -2.825607 6
131.130623 -27.098365 -2.572536 6
128.115675 -27.108587 -2.328807 6
125.106455 -27.161107 -2.094404 6
122.134171 -27.178184 -1.862922 6
119.173755 -27.220311 -1.639201 6
114.135715 -32.908596 -1.895869 5
109.539551 -37.766247 -2.096588 5
105.684479 -40.857583 -2.158819 5
102.730615 -41.540604 -2.022666 5
100.024895 -41.564109 -1.834954 5
97.342638 -41.565764 -1.650182 5
94.678382 -41.559083 -1.469427 5
92.047376 -41.489982 -1.287768 5
89.390894 -41.553997 -1.122602 5
86.769275 -41.546221 -0.955559 5
84.154690 -41.560507 -0.794997 5
81.557031 -41.558809 -0.637403 5
78.968768 -41.567480 -0.485123 5
76.386559 -41.599715 -0.339346 5
73.821877 -41.605695 -0.195393 5
71.265861 -41.620299 -0.056453 5
68.719371 -41.638144 0.078021 5
66.430148 -40.397876 0.328162 5
66.464271 -26.639665 1.773551 5
61.247316 -41.065491 0.517183 9
58.445919 -42.787182 0.471072 9
55.708920 -44.361438 0.433781 9
53.020498 -45.862042 0.398424 9
50.342024 -47.549289 0.339696 9
47.740445 -48.938950 0.305113 9
45.247338 -49.686822 0.329136 9
42.797499 -50.216183 0.370613 9
40.413302 -50.232819 0.459126 9
38.033335 -50.252007 0.543798 9
35.656724 -50.280287 0.623997 9
33.286137 -50.277392 0.703785 9
30.918709 -50.268793 0.780645 9
28.553092 -50.269471 0.853085 9
26.189903 -50.260964 0.922989 9
23.828976 -50.227247 0.992009 9
21.467693 -50.234311 1.053452 9
19.106577 -50.300454 1.105430 9
16.747358 -50.289827 1.161828 9
14.387774 -50.258955 1.216906 9
12.028743 -50.328554 1.258274 9
9.665925 -50.230351 1.313513 9
7.304151 -50.252179 1.353023 9
4.941304 -50.278406 1.388696 9
2.574864 -50.267784 1.424800 9
0.206688 -50.272642 1.455931 9
-2.165632 -50.259761 1.485529 9
-4.540338 -50.261577 1.510229 9
-6.919025 -50.260855 1.531816 9
-9.303263 -50.247110 1.551375 9
-11.686093 -50.289738 1.561683 9
-14.080638 -50.270894 1.574988 9
-16.478956 -50.268004 1.583228 9
-18.886045 -50.245449 1.590100 9
-21.292775 -50.270533 1.588583 9
-23.708035 -50.281997 1.585042 9
-26.135726 -50.261954 1.581322 9
-28.568635 -50.258116 1.572439 9
-31.009921 -50.253798 1.560111 9
-33.458388 -50.257399 1.543444 9
-35.913410 -50.273045 1.521989 9
-38.381909 -50.269833 1.498931 9
-40.872203 -50.216205 1.477512 9
-43.411279 -50.008233 1.468442 9
-46.060806 -49.420327 1.494949 9
-48.873874 -48.295298 1.573045 9
-51.895878 -46.528575 1.713174 9
-54.985405 -44.696347 1.855618 9
-58.122068 -42.878427 1.992026 9
-61.343646 -40.950996 2.134968 9
-65.792809 -35.267231 2.657074 8
-68.557832 -35.221311 2.597332 8
-71.325299 -35.220411 2.528795 8
-74.101565 -35.243754 2.453555 8
-76.912266 -35.218677 2.378931 8
-79.751755 -35.166730 2.302649 8
-82.599698 -35.146113 2.218774 8
-85.458701 -35.149278 2.128030 8
-88.325828 -35.183432 2.029659 8
-91.242794 -35.145895 1.933837 8
-94.161525 -35.158516 1.828345 8
-97.093463 -35.192662 1.715995 8
-100.064496 -35.190012 1.602464 8
-103.066032 -35.174013 1.485333 8
-106.252027 -34.816983 1.396369 8
-110.544914 -32.213870 1.519316 8
-115.742862 -27.940823 1.795163 7
-118.334489 -29.127332 1.538574 7
-121.537316 -29.124869 1.390943 7
-124.744641 -29.171907 1.233047 7
-129.587340 -26.231453 1.350340 7
-131.276350 -29.220232 0.904513 7
-134.612999 -29.205424 0.735085 7
-137.967746 -29.220079 0.556883 7
-141.375868 -29.204178 0.375324 7
-144.806342 -29.213337 0.185167 7
-148.262574 -29.242409 -0.013211 7
-151.783590 -29.229825 -0.214416 7
150.162972 -27.188657 -0.833379 6
147.001790 -27.160608 -0.563144 6
143.850845 -27.168507 -0.302217 6
140.722387 -27.186597 -0.048279 6
137.619813 -27.206137 0.199553 6
135.761240 -24.453844 0.693705 6
131.535346 -27.141470 0.687287 6
128.516759 -27.135659 0.920325 6
125.500291 -27.180464 1.143141 6
122.522355 -27.185944 1.364204 6
119.569623 -27.181440 1.580913 6
114.537858 -32.803818 1.252434 5
110.077508 -37.238766 1.025126 5
106.063422 -40.728165 0.878466 5
103.041846 -41.576445 0.981346 5
100.348180 -41.537375 1.166182 5
97.659903 -41.529333 1.343460 5
94.979231 -41.546345 1.513786 5
92.331196 -41.505285 1.685568 5
89.676114 -41.535363 1.845862 5
87.053905 -41.498969 2.008658 5
84.430890 -41.512010 2.162225 5
81.821808 -41.521043 2.312057 5
79.234344 -41.492332 2.461726 5
76.659327 -41.457396 2.608055 5
74.085465 -41.462744 2.746218 5
71.534694 -41.410697 2.886513 5
68.979078 -41.425146 3.015932 5
67.077329 -38.179090 3.489072 5
66.415384 -28.030349 4.700704 5
61.479035 -40.848869 3.447938 9
58.675331 -42.519733 3.383622 9
55.925247 -44.106725 3.323260 9
53.206651 -45.738352 3.253075 9
50.534854 -47.309266 3.184626 9
47.927776 -48.662110 3.135344 9
45.407063 -49.557029 3.131970 9
42.960591 -49.978262 3.176839 9
40.890861 -46.748852 3.622462 9
38.158757 -50.229333 3.321338 9
35.779474 -50.203570 3.405346 9
33.402306 -50.187813 3.484966 9
31.027350 -50.178281 3.560631 9
28.651015 -50.239987 3.625050 9
26.283783 -50.161795 3.701961 9
23.913554 -50.180552 3.764754 9
21.545399 -50.177491 3.826805 9
19.177773 -50.190748 3.883821 9
16.810939 -50.161766 3.942454 9
14.443550 -50.137534 3.997393 9
12.075618 -50.136732 4.046514 9
9.706370 -50.118453 4.094481 9
7.337590 -50.160359 4.132427 9
4.965573 -50.149368 4.173279 9
2.589976 -50.115130 4.213665 9
0.213412 -50.115808 4.246918 9
-2.163889 -50.146574 4.273578 9
-4.545999 -50.152906 4.299908 9
-6.933887 -50.136604 4.325706 9
-9.327871 -50.105150 4.350113 9
-11.721420 -50.124690 4.365500 9
-14.118979 -50.150063 4.377058 9
-16.528284 -50.124444 4.391339 9
-18.937350 -50.146422 4.396958 9
-21.358907 -50.125400 4.404360 9
-23.782420 -50.137561 4.404738 9
-26.217247 -50.125017 4.404762 9
-28.660009 -50.113094 4.401491 9
-31.103435 -50.142332 4.390230 9
-33.559802 -50.147714 4.378467 9
-36.025215 -50.153418 4.363390 9
-38.504491 -50.139759 4.347245 9
-40.994967 -50.122970 4.328137 9
-43.557234 -49.853730 4.334724 9
-46.209819 -49.290888 4.371622 9
-49.067833 -48.029963 4.485122 9
-52.091953 -46.297372 4.648913 9
-55.220200 -44.367661 4.831250 9
-58.407007 -42.420775 5.011348 9
-61.636841 -40.512818 5.182675 9
-66.080947 -34.898529 5.771985 8
-68.824894 -34.956593 5.709877 8
-71.609392 -34.939301 5.652472 8
-74.388492 -34.988819 5.583566 8
-78.224810 -32.110576 5.841654 8
-80.057776 -34.924344 5.452300 8
-82.895408 -34.962720 5.372609 8
-85.766563 -34.964023 5.292965 8
-88.661161 -34.958370 5.209908 8
-91.579197 -34.948141 5.123104 8
-94.498617 -34.987844 5.026424 8
-97.460003 -34.981571 4.930483 8
-100.428157 -35.013900 4.825820 8
-103.444978 -34.991724 4.722653 8
-106.738480 -34.432678 4.673699 8
-111.383614 -31.132363 4.918781 8
-115.667667 -28.782182 5.052801 7
-118.902987 -28.687456 4.935583 7
-122.107926 -28.713996 4.800150 7
-125.338724 -28.748553 4.658728 7
-128.615784 -28.754592 4.515128 7
-131.908660 -28.791168 4.362935 7
-135.205281 -28.879601 4.199842 7
-138.587911 -28.875619 4.040974 7
-141.965076 -28.942465 3.869013 7
-145.404538 -28.964969 3.695916 7
-148.887598 -28.978328 3.517845 7
147.524492 -27.076319 2.784444 6
144.370579 -27.063345 3.033387 6
141.249478 -27.037746 3.277967 6
138.143990 -27.034581 3.514746 6
135.056759 -27.047631 3.744418 6
132.015448 -27.011838 3.973815 6
128.993719 -26.984198 4.197186 6
125.989056 -26.969601 4.414095 6
123.006950 -26.953309 4.626172 6
120.052121 -26.920950 4.835053 6
117.123491 -26.872004 5.040920 6
110.926804 -35.861770 4.260432 5
106.565184 -40.254358 3.965072 5
103.460165 -41.301747 4.027178 5
101.839536 -37.990636 4.565956 5
98.039407 -41.301946 4.367564 5
95.358509 -41.283770 4.533545 5
92.697805 -41.247208 4.697534 5
90.047953 -41.220489 4.856431 5
87.422901 -41.152705 5.016070 5
84.793671 -41.144744 5.165039 5
82.186272 -41.101072 5.314270 5
79.568294 -41.145443 5.449582 5
76.986446 -41.090988 5.592565 5
74.404014 -41.082986 5.726494 5
71.838854 -41.043700 5.860441 5
69.278768 -41.024693 5.988436 5
66.732917 -40.980296 6.115882 5
66.453525 -28.950490 7.659936 5
61.842839 -39.896982 6.478650 9
58.957246 -41.946091 6.346292 9
56.168545 -43.687269 6.245664 9
53.436472 -45.325544 6.152616 9
50.760069 -46.841723 6.069684 9
48.117335 -48.373679 5.980423 9
45.582536 -49.299988 5.960317 9
43.515342 -46.183323 6.428477 9
40.701597 -49.957951 6.054513 9
38.309522 -49.930470 6.140249 9
35.914347 -49.981507 6.213300 9
33.531019 -49.927113 6.296241 9
31.147481 -49.906581 6.372011 9
28.766031 -49.886384 6.444741 9
26.385965 -49.873397 6.513596 9
24.007258 -49.861804 6.579307 9
21.630097 -49.827083 6.644936 9
19.251925 -49.878658 6.696876 9
16.875338 -49.878423 6.752321 9
14.498654 -49.866117 6.806346 9
12.121266 -49.852159 6.857663 9
9.742517 -49.828913 6.907237 9
7.363587 -49.850325 6.948303 9
4.981634 -49.832609 6.991382 9
2.596933 -49.809621 7.032233 9
0.210549 -49.807205 7.067600 9
-2.174997 -49.857449 7.093427 9
-4.568647 -49.839244 7.124995 9
-6.966040 -49.825770 7.153073 9
-9.366996 -49.821682 7.177068 9
-11.776573 -49.783283 7.202505 9
-14.182479 -49.823343 7.215099 9
-16.598814 -49.820598 7.230199 9
-19.023068 -49.804838 7.244027 9
-21.448125 -49.828657 7.249905 9
-23.886255 -49.811434 7.258045 9
-26.329308 -49.810652 7.261145 9
-28.783954 -49.789304 7.263886 9
-31.240012 -49.806464 7.258758 9
-33.697938 -49.856497 7.246463 9
-36.183088 -49.816707 7.242543 9
-38.669236 -49.820331 7.230081 9
-41.158775 -49.853494 7.210820 9
-43.736320 -49.563570 7.229392 9
-46.444570 -48.821942 7.301964 9
-49.326541 -47.519328 7.442183 9
-52.385576 -45.709491 7.643014 9
-55.548512 -43.710189 7.864091 9
-58.759901 -41.734100 8.078426 9
-65.326653 -28.866477 9.660139 8
-66.425492 -34.352973 8.926379 8
-69.203127 -34.351504 8.880057 8
-71.982545 -34.394909 8.824545 8
-74.802484 -34.368740 8.774153 8
-77.619370 -34.403493 8.712488 8
-80.459577 -34.423771 8.648948 8
-83.336572 -34.397010 8.587528 8
-86.224346 -34.395893 8.519114 8
-89.114389 -34.441409 8.441071 8
-92.041631 -34.446614 8.364134 8
-94.974300 -34.491737 8.278315 8
-97.921111 -34.555361 8.186226 8
-100.912306 -34.569904 8.096115 8
-103.931030 -34.577764 8.002680 8
-107.405174 -33.667382 8.017022 8
-112.518726 -29.440817 8.429544 8
-116.460578 -27.856062 8.514167 7
-119.652788 -27.892087 8.397208 7
-122.877367 -27.921954 8.276377 7
-126.110803 -27.992507 8.145965 7
-129.412296 -27.993270 8.019129 7
-132.732008 -28.021022 7.884169 7
-136.077812 -28.061985 7.742657 7
-139.460044 -28.099346 7.596495 7
-142.878021 -28.136454 7.445178 7
-146.336140 -28.168019 7.289213 7
-149.824164 -28.213000 7.126273 7
148.150043 -26.785717 6.168526 6
145.015206 -26.700646 6.411813 6
141.889411 -26.650980 6.645950 6
138.796260 -26.585513 6.876819 6
135.721055 -26.534248 7.101099 6
132.663475 -26.497095 7.318865 6
129.602381 -26.523543 7.524391 6
126.601065 -26.462063 7.735457 6
123.619874 -26.402951 7.941656 6
120.652934 -26.359624 8.141470 6
117.699478 -26.333518 8.334773 6
111.952277 -34.015228 7.594752 5
107.240504 -39.296979 7.130934 5
103.992014 -40.701457 7.128467 5
101.214330 -40.832926 7.276125 5
98.509042 -40.799417 7.440014 5
95.820125 -40.761870 7.600596 5
93.146780 -40.720499 7.757909 5
90.483760 -40.690897 7.910071 5
87.838149 -40.647023 8.060383 5
85.208747 -40.589566 8.208835 5
82.586895 -40.548079 8.351760 5
79.983119 -40.480160 8.494569 5
77.380077 -40.452601 8.628827 5
74.780486 -40.456585 8.755648 5
72.205183 -40.399023 8.886995 5
69.629182 -40.387985 9.009055 5
67.065934 -40.360406 9.129970 5
66.393499 -30.384998 10.540086 5
66.416325 -15.473714 12.599004 5
59.261946 -41.245966 9.346821 9
56.446396 -43.057984 9.213297 9
53.679331 -44.832493 9.080167 9
50.981277 -46.410369 8.968569 9
48.341621 -47.824186 8.874505 9
45.786393 -48.812783 8.832888 9
43.310907 -49.301055 8.854228 9
40.870020 -49.587041 8.899338 9
38.462810 -49.610987 8.976445 9
36.062771 -49.599449 9.055464 9
33.666062 -49.585606 9.131994 9
31.273334 -49.550892 9.208553 9
28.881460 -49.535343 9.279776 9
26.490929 -49.530543 9.346801 9
24.101874 -49.528998 9.410647 9
21.713761 -49.539393 9.470150 9
19.327207 -49.511202 9.532178 9
16.940421 -49.505906 9.588401 9
14.553534 -49.503823 9.641498 9
12.165868 -49.482027 9.694604 9
9.777656 -49.489909 9.740987 9
7.387469 -49.473389 9.788040 9
4.993962 -49.427651 9.836441 9
2.601914 -49.465112 9.870780 9
0.202643 -49.417790 9.914101 9
-2.195196 -49.443437 9.944746 9
-4.600484 -49.414517 9.980243 9
-7.008606 -49.402706 10.010737 9
-9.419240 -49.410546 10.035869 9
-11.840978 -49.360189 10.066370 9
-14.256860 -49.408426 10.080607 9
-16.691729 -49.347998 10.107177 9
-19.120342 -49.383084 10.117884 9
-21.565442 -49.347821 10.135629 9
-24.006605 -49.384634 10.140720 9
-26.469860 -49.331659 10.155525 9
-28.934251 -49.321983 10.161631 9
-31.398490 -49.358093 10.158678 9
-33.873202 -49.382709 10.154575 9
-36.372435 -49.333229 10.157966 9
-38.870948 -49.336132 10.151339 9
-42.251784 -45.569583 10.663065 9
-43.990687 -48.964084 10.181918 9
-46.686907 -48.325996 10.255390 9
-49.615774 -46.895557 10.435320 9
-52.720821 -44.972535 10.680100 9
-55.904728 -42.958155 10.934185 9
-59.156773 -40.901745 11.190655 9
-65.261659 -29.638152 12.711220 8
-66.839973 -33.588772 12.133104 8
-69.641615 -33.565178 12.098926 8
-72.441542 -33.598699 12.053654 8
-75.244055 -33.673510 11.999448 8
-78.058459 -33.761655 11.940118 8
-80.918309 -33.772548 11.888018 8
-83.802516 -33.770366 11.834299 8
-86.712864 -33.753486 11.779130 8
-89.625362 -33.784810 11.713894 8
-92.572337 -33.783805 11.649513 8
-95.535079 -33.799058 11.579324 8
-98.544568 -33.759864 11.512852 8
-102.887417 -30.788712 11.838439 8
-104.606355 -33.754529 11.358794 8
-108.250068 -32.528494 11.440431 8
-114.047367 -26.942225 12.101831 8
-117.455106 -26.528064 12.063864 7
-120.671839 -26.570017 11.960633 7
-123.899484 -26.647789 11.848443 7
-127.154561 -26.729587 11.731474 7
-130.454937 -26.784037 11.613797 7
-133.796567 -26.822180 11.493843 7
-137.165531 -26.871608 11.367879 7
-140.572603 -26.914938 11.238103 7
-145.999706 -23.607405 11.540434 7
-147.461191 -27.058572 10.956924 7
-150.960003 -27.132462 10.808793 7
149.022973 -25.996942 9.634038 6
145.852630 -25.941780 9.860906 6
142.707996 -25.888395 10.082767 6
139.590712 -25.831335 10.300407 6
136.504305 -25.760402 10.515231 6
133.432041 -25.711168 10.722796 6
130.374543 -25.681935 10.923359 6
127.365866 -25.589390 11.127778 6
124.371472 -25.512725 11.325934 6
121.382816 -25.473341 11.515064 6
118.410604 -25.444131 11.698743 6
113.406780 -31.014428 11.136602 5
108.209596 -37.523510 10.438447 5
104.661323 -39.710035 10.306403 5
101.820204 -39.971921 10.426541 5
99.103458 -39.917950 10.585372 5
96.395910 -39.882073 10.738266 5
93.707850 -39.830117 10.889896 5
91.009663 -39.859765 11.026999 5
88.355768 -39.784631 11.175054 5
85.716046 -39.701642 11.320937 5
83.072900 -39.675168 11.455810 5
80.473068 -39.523425 11.604841 5
77.840856 -39.543068 11.726977 5
75.245718 -39.452816 11.861287 5
72.649992 -39.406178 11.986460 5
70.063845 -39.358563 12.108741 5
67.484154 -39.322859 12.226353 5
66.337864 -31.787921 13.401343 5
66.398448 -16.763673 15.641645 5
59.611904 -40.289179 12.408875 9
56.779810 -42.090790 12.252400 9
54.012166 -43.748745 12.112243 9
51.270746 -45.500526 11.954608 9
48.581467 -47.164360 11.805599 9
46.002879 -48.229483 11.738969 9
43.502762 -48.822749 11.737083 9
41.062516 -48.986308 11.794361 9
38.635613 -49.085972 11.858196 9
36.226491 -49.039242 11.940660 9
33.819132 -49.002972 12.019065 9
31.409602 -49.038114 12.084523 9
29.009004 -48.965260 12.163219 9
26.605401 -48.978873 12.226776 9
24.205083 -48.952796 12.293650 9
21.805858 -48.912837 12.360090 9
19.405949 -48.926677 12.416156 9
17.006788 -48.925682 12.471940 9
14.607477 -48.902328 12.528573 9
12.207789 -48.913182 12.577715 9
9.805941 -48.863010 12.633450 9
7.403428 -48.859338 12.679885 9
4.999027 -48.853481 12.724222 9
2.591916 -48.839321 12.767376 9
0.182277 -48.830351 12.807348 9
-2.229339 -48.837938 12.842447 9
-4.645807 -48.826827 12.877919 9
-7.065868 -48.821237 12.910161 9
-9.489605 -48.823081 12.938885 9
-11.922949 -48.781505 12.971680 9
-14.810767 -45.063795 13.551421 9
-17.291703 -45.030218 13.578525 9
-19.241201 -48.796568 13.034692 9
-21.692324 -48.805911 13.050196 9
-24.148351 -48.827397 13.061443 9
-26.621139 -48.792463 13.078694 9
-29.094555 -48.801984 13.086832 9
-31.574581 -48.820251 13.091194 9
-34.066144 -48.823911 13.095266 9
-36.570537 -48.811271 13.099292 9
-39.084531 -48.801383 13.100400 9
-41.627994 -48.710370 13.111146 9
-44.253479 -48.333422 13.162194 9
-47.007066 -47.524834 13.275324 9
-49.988946 -45.955967 13.499667 9
-53.150415 -43.894283 13.795015 9
-56.351227 -41.892045 14.078557 9
-59.688478 -39.615424 14.400150 9
-65.309810 -30.036522 15.810211 8
-67.346906 -32.535937 15.411255 8
-70.163006 -32.529345 15.384014 8
-72.987911 -32.547930 15.350086 8
-75.822398 -32.589031 15.309845 8
-78.689142 -32.589109 15.272728 8
-81.563322 -32.620998 15.227845 8
-84.433234 -32.714635 15.170727 8
-87.350234 -32.735178 15.121378 8
-90.282503 -32.769694 15.066813 8
