ply
format ascii 1.0
element vertex 1343
property float x
property float y
property float z
property int scalar_Label
end_header
-20.462193 -0.181553 50.963199 9
-20.595131 -3.473283 50.881217 9
-20.991362 -6.853794 50.538575 9
-21.700045 -10.349425 49.886298 9
-22.606922 -13.938658 49.038986 9
-23.912862 -17.695902 47.795929 9
-25.593319 -21.630720 46.182078 9
-27.928038 -25.858932 43.918187 9
-30.794703 -30.364804 41.127197 9
-34.660952 -35.351266 37.342552 9
-43.574780 -42.469008 28.522609 9
-69.751476 141.233519 8.104642 3
-76.539076 139.201019 1.382347 3
-91.635750 139.194469 -13.473577 3
-49.536711 43.003424 27.116307 9
-44.392772 39.864024 32.180839 9
-40.618047 36.740374 35.904566 9
-42.174392 33.176577 34.400794 9
-35.368977 30.523937 41.103313 9
-33.468775 27.422667 42.996301 9
-31.658258 24.354982 44.804118 9
-30.112732 21.289597 46.354842 9
-28.841016 18.213784 47.639892 9
-27.783253 15.126831 48.718039 9
-26.958323 12.015818 49.570863 9
-26.336219 8.877011 50.227882 9
-25.898203 5.705761 50.707570 9
-25.739444 2.471381 50.916835 9
-25.725775 -0.804536 50.987259 9
-25.981887 -4.161616 50.796907 9
-26.421990 -7.587773 50.429980 9
-27.173345 -11.128593 49.762165 9
-28.232296 -14.796692 48.797362 9
-29.660220 -18.625454 47.475911 9
-31.596292 -22.677898 45.662215 9
-34.148557 -27.014206 43.251322 9
-36.920150 -31.517496 40.631651 9
-42.299346 -37.100024 35.471742 9
-76.932718 142.340318 7.404880 3
-79.971461 139.201607 4.405497 3
-95.266696 139.201619 -10.321609 3
-81.994172 41.244273 1.592610 8
-50.830987 39.612309 31.521475 9
-46.141242 36.518235 36.045030 9
-43.049725 33.386097 39.038004 9
-40.848363 30.231638 41.180083 9
-38.790473 27.113240 43.187754 9
-36.942682 24.015386 44.997095 9
-35.416235 20.912140 46.501453 9
-34.124929 17.804500 47.783581 9
-33.083543 14.679866 48.829400 9
-32.267422 11.532447 49.662655 9
-31.652374 8.357653 50.306650 9
-31.250219 5.144207 50.750193 9
-31.089213 1.876296 50.966382 9
-31.120063 -1.444244 51.002616 9
-31.443110 -4.852118 50.763043 9
-32.003632 -8.344867 50.300317 9
-32.849641 -11.946831 49.568790 9
-34.040266 -15.688452 48.512276 9
-35.637958 -19.604607 47.071525 9
-37.779329 -23.758324 45.116561 9
-40.674821 -28.245890 42.447152 9
-43.980447 -32.976619 39.392735 9
-84.349659 143.486919 6.660063 3
-84.213073 139.420832 6.683327 3
-98.847860 139.193998 -7.109788 3
-115.975095 139.195224 -23.239984 3
-86.809656 41.160674 3.266199 8
-74.677846 38.107947 14.677544 8
-68.490950 34.863256 20.512070 8
-48.727492 33.117488 39.090019 9
-46.778744 29.896191 40.952575 9
-44.377438 26.778400 43.243417 9
-42.380449 23.663113 45.158535 9
-40.806800 20.530965 46.680208 9
-39.528758 17.385731 47.928362 9
-38.461140 14.230358 48.982979 9
-37.640600 11.048955 49.809810 9
-37.112823 7.821793 50.366208 9
-36.750223 4.564472 50.771891 9
-36.611197 1.256292 50.972318 9
-36.697531 -2.112753 50.966031 9
-37.096653 -5.574983 50.671460 9
-37.732408 -9.122974 50.160192 9
-38.678240 -12.788025 49.363862 9
-40.017418 -16.608469 48.205059 9
-41.831160 -20.626663 46.608454 9
-44.419632 -24.961181 44.294432 9
-48.189137 -29.783531 40.884867 9
-91.844000 140.545423 5.908594 3
-102.492256 139.200791 -3.943445 3
-119.826791 139.205037 -19.915848 3
-128.154143 136.696025 -27.647926 0
-92.056783 41.054147 4.614736 8
-80.696736 37.912689 15.069764 8
-74.515296 34.626100 20.774679 8
-61.627646 32.151036 32.637683 9
-52.887749 29.549294 40.696302 9
-52.390169 26.151928 41.195471 9
-49.532914 23.085183 43.863630 9
-47.044893 20.032357 46.196873 9
-45.323015 16.913851 47.831412 9
-44.096877 13.746694 49.015519 9
-43.259741 10.531075 49.847305 9
-42.642707 7.285343 50.481768 9
-42.332106 3.981643 50.840022 9
-42.274654 0.619476 50.971126 9
-42.455448 -2.808189 50.888982 9
-42.854709 -6.306402 50.611963 9
-43.674352 -9.938896 49.955721 9
-44.920753 -13.725058 48.914978 9
-46.986849 -17.799218 47.131345 9
-52.210745 -22.919456 42.470824 9
-54.516769 -27.251481 40.483406 9
-99.683681 141.697709 5.133160 3
-106.065948 139.187404 -0.697716 3
-123.602007 139.194155 -16.505755 3
-131.998802 136.681066 -24.139904 0
-97.767103 40.923699 5.635435 8
-86.824457 37.714676 15.488575 8
-80.635594 34.386892 21.078241 8
-76.218412 31.043956 25.082036 8
-72.721118 27.710108 28.264748 8
-61.449989 25.412390 38.425962 9
-58.520579 22.273066 41.106451 9
-58.161182 18.823165 41.486499 9
-56.543814 15.579164 42.999477 9
-53.463864 12.625267 45.827810 9
-51.384708 9.557077 47.763154 9
-50.227163 6.350935 48.877156 9
-49.767109 3.018090 49.371253 9
-49.768809 -0.415979 49.457098 9
-50.239047 -3.971647 49.129116 9
-51.758623 -7.814905 47.868475 9
-55.141175 -12.204587 44.949189 9
-58.063542 -16.566629 42.449405 9
-60.921932 -20.999649 40.014951 9
-75.807956 -29.203333 26.853312 8
-84.858989 -35.955564 18.917205 8
-107.733567 142.876798 4.364242 3
-109.738769 139.196752 2.475747 3
-127.448071 139.197959 -13.142041 0
-135.881616 136.672718 -20.650091 0
-107.294820 40.578414 3.409861 8
-93.102310 37.511187 15.901944 8
-86.908199 34.141135 21.376634 8
-82.427462 30.761777 25.352235 8
-78.958684 27.383052 28.444668 8
-76.731764 23.938012 30.452562 8
-75.024861 20.475123 32.009573 8
-69.440166 17.618334 36.971951 9
-66.222048 14.521428 39.863185 9
-64.785716 11.193641 41.197318 9
-63.681915 7.834044 42.245269 9
-67.859748 3.449271 38.673494 9
-67.332810 -0.059439 39.228753 9
-68.385201 -3.917189 38.407847 9
-64.672844 -6.682864 41.761108 9
-68.742404 -11.307426 38.314643 9
-66.001684 -14.257414 40.828420 9
-76.464250 -20.793954 31.815266 8
-79.091031 -25.350376 29.657728 8
-84.068590 -30.700613 25.458612 8
-116.116081 144.113290 3.505617 3
-115.895061 139.817263 3.546501 3
-131.300431 139.200600 -9.764158 0
-139.784070 136.666437 -17.159174 0
-99.559820 37.300441 16.291058 8
-93.321350 33.890096 21.686522 8
-88.798681 30.471421 25.614605 8
-85.244869 27.059018 28.716649 8
-83.158766 23.556159 30.565069 8
-81.261068 20.075909 32.257649 8
-79.152245 16.668554 34.136920 8
-77.512576 13.234486 35.619609 8
-76.306913 9.761378 36.736121 8
-75.544255 6.230549 37.479076 8
-75.150172 2.639137 37.912589 8
-75.195004 -1.042186 37.976850 8
-75.674849 -4.829987 37.675711 8
-76.608824 -8.746115 36.993404 8
-78.205180 -12.860259 35.752638 8
-80.577127 -17.228273 33.857738 8
-84.103777 -21.984679 30.986377 8
-86.461987 -26.510746 29.122332 8
-93.184058 -32.417023 23.547495 8
-124.485964 141.016367 2.700240 3
-127.882920 137.515964 -0.290429 0
-143.672371 136.654532 -13.636619 0
-164.831048 136.511235 -31.478353 0
-107.232646 37.011955 15.794714 8
-99.779932 33.641732 22.093429 8
-95.272667 30.178806 25.925933 8
-91.770846 26.717811 28.920688 8
-89.721174 23.167873 30.703421 8
-87.656353 19.665980 32.505075 8
-85.542456 16.217119 34.353956 8
-83.911546 12.739784 35.804123 8
-82.778211 9.212881 36.843681 8
-82.027545 5.637964 37.569237 8
-81.699301 1.992369 37.947889 8
-81.812731 -1.744414 37.963996 8
-82.418950 -5.600923 37.575375 8
-83.546162 -9.603080 36.759147 8
-85.347784 -13.808959 35.387978 8
-88.032219 -18.298754 33.289016 8
-91.708275 -23.136624 30.373013 8
-94.785164 -27.911686 27.968014 8
-102.922264 -34.276123 21.358384 8
-130.884728 145.987700 4.022104 0
-130.576383 141.581506 4.101842 0
-130.353579 137.214788 4.121011 0
-147.578519 136.643897 -10.108287 0
-169.591808 136.628702 -28.258190 0
-108.131048 33.248397 21.082158 8
-101.767538 29.891672 26.356800 8
-98.393194 26.375119 29.185565 8
-96.465044 22.768121 30.834971 8
-94.214121 19.245402 32.755687 8
-92.106452 15.752459 34.565510 8
-90.521241 12.225087 35.953853 8
-89.383189 8.655922 36.982745 8
-88.685170 5.029083 37.658397 8
-88.434487 1.326222 37.975280 8
-88.646839 -2.473160 37.921084 8
-89.385815 -6.400799 37.444461 8
-90.673000 -10.482095 36.528557 8
-92.744879 -14.795602 34.981237 8
-95.796585 -19.421443 32.644665 8
-99.196614 -24.229050 30.035420 8
-103.332605 -29.341136 26.838601 8
-139.693107 142.854649 3.199240 0
-139.438909 138.416293 3.227136 0
-151.540623 136.642431 -6.602545 0
-173.573188 136.583280 -24.368602 0
-133.429561 27.314859 6.742821 7
-105.172453 26.024856 29.465649 8
-103.419071 22.354099 30.944264 8
-100.902207 18.818792 33.041889 8
-98.821785 15.278324 34.796799 8
-97.269426 11.702250 36.135889 8
-96.152239 8.085973 37.133896 8
-95.515187 4.405003 37.755247 8
-95.373161 0.638264 37.988551 8
-95.695979 -3.227032 37.858539 8
-96.548759 -7.222677 37.313861 8
-98.079933 -11.402675 36.236878 8
-100.403881 -15.820397 34.537495 8
-103.899345 -20.601601 31.915248 8
-107.700137 -25.562385 29.062303 8
-149.122429 144.170570 2.271852 0
-148.854204 139.662398 2.293649 0
-155.582735 136.654711 -3.134072 0
-177.728249 136.570277 -20.595883 0
-139.930903 27.066349 7.891939 7
-129.771362 23.859349 15.927768 7
-123.813641 20.412131 20.676963 7
-118.779516 16.986880 24.709040 7
-106.100691 14.738029 34.730988 8
-104.202453 11.164739 36.319032 8
-103.145176 7.493918 37.256810 8
-102.589776 3.753800 37.810216 8
-102.529215 -0.073152 37.985317 8
-102.967306 -4.006375 37.779780 8
-103.996583 -8.084372 37.122136 8
-106.102867 -12.438463 35.634463 8
-126.874736 -21.268973 19.610780 7
-158.892456 145.534047 1.310888 0
-158.640086 140.960284 1.303159 0
-158.397557 136.406050 1.299138 0
-181.942131 136.565749 -16.841866 0
-206.316529 136.319407 -35.626810 0
-146.925142 26.780491 8.786745 7
-137.032081 23.497402 16.442365 7
-131.033794 20.005033 21.121681 7
-126.018215 16.527938 25.055512 7
-123.469130 12.826920 27.109332 7
-121.654682 9.071226 28.609368 7
-120.610061 5.228260 29.529354 7
-120.235180 1.287087 29.946538 7
-120.493460 -2.770268 29.889648 7
-121.641991 -7.018099 29.163419 7
-123.777838 -11.509738 27.695204 7
-127.382363 -16.388622 25.119901 7
-137.640079 -22.922162 17.492613 7
-168.722459 142.291622 0.326170 0
-168.382531 137.645905 0.378264 0
-186.110397 136.548794 -13.024579 0
-212.534861 136.632157 -32.918609 0
-144.459382 23.128058 16.983519 7
-138.434063 19.588174 21.583241 7
-133.521798 16.047870 25.357655 7
-131.008112 12.292761 27.346542 7
-129.272316 8.476302 28.762741 7
-128.254404 4.579882 29.651760 7
-127.996078 0.570226 29.983246 7
-128.482597 -3.577674 29.769153 7
-129.846543 -7.917013 28.911737 7
-132.310646 -12.526159 27.246509 7
-136.523928 -17.587874 24.292317 7
-179.229131 143.682659 -0.719141 0
-178.887999 138.962359 -0.684504 0
-190.704623 136.610734 -9.488774 0
-216.646697 136.552267 -28.583239 0
-146.274425 19.133216 21.878631 7
-141.280097 15.548778 25.634179 7
-138.752064 11.744604 27.596496 7
-137.065347 7.870771 28.953751 7
-136.155850 3.907270 29.753497 7
-136.064197 -0.180742 29.966995 7
-136.670590 -4.401015 29.682601 7
-138.286829 -8.839167 28.674369 7
-141.206543 -13.591996 26.730348 7
-148.331184 -19.336468 21.743545 7
-190.105106 145.119238 -1.776352 0
-189.742067 140.317670 -1.744673 0
-190.499549 135.749534 -2.496344 0
-220.665967 136.453459 -24.161593 0
-149.220140 15.040309 25.947632 7
-146.759455 11.175336 27.825385 7
-145.136562 7.240348 29.115432 7
-144.341506 3.207211 29.825688 7
-144.342222 -0.948126 29.979963 7
-145.186425 -5.262639 29.545397 7
-147.116285 -9.812837 28.351116 7
-201.072365 141.735799 -2.877665 0
-200.708733 136.873006 -2.850551 0
-225.495311 136.496464 -20.284203 0
-212.808810 143.200378 -4.016869 0
-212.392769 138.244844 -3.972801 0
-230.481430 136.561777 -16.466558 0
-225.124964 144.743594 -5.261736 0
-224.674875 139.694391 -5.214868 0
-235.547043 136.635019 -12.649174 0
-244.754916 137.415160 -11.452853 0
-246.794557 147.036724 -32.889467 0
-244.375846 146.822957 -33.912191 0
-240.267277 143.494121 -37.145813 0
-239.317669 146.176336 -36.173473 0
-237.161514 146.622106 -36.788192 0
-234.764591 146.679860 -37.696665 0
-232.300575 146.674793 -38.670051 0
-250.691649 146.258920 -28.919957 0
-248.824553 147.059815 -29.207135 0
-245.986577 145.950873 -30.794673 0
-243.664814 145.943958 -31.659071 0
-241.316785 145.939899 -32.538892 0
-239.028006 146.096631 -33.325347 0
-236.531431 145.927968 -34.355291 0
-234.002292 145.764314 -35.402409 0
-231.526457 145.752996 -36.362932 0
-229.000841 145.714427 -37.363088 0
-226.906147 146.429324 -37.842297 0
-224.485747 146.652501 -38.691055 0
-251.232504 143.210662 -27.325746 0
-246.999012 139.134843 -30.783087 0
-248.009296 145.935624 -27.167296 0
-245.736515 145.964440 -27.972704 0
-243.446758 146.010146 -28.782892 0
-241.078717 145.958539 -29.674576 0
-238.759170 146.049870 -30.487533 0
-236.320100 145.976623 -31.429239 0
-233.796655 145.813622 -32.451514 0
-231.327806 145.804524 -33.388033 0
-228.801684 145.755516 -34.371856 0
-226.268307 145.752028 -35.344276 0
-223.699937 145.749170 -36.336921 0
-221.314972 146.084817 -37.109282 0
-219.097380 146.713479 -37.688676 0
-251.518569 139.517065 -26.092693 0
-251.721937 144.829238 -23.535443 0
-250.542288 147.041261 -22.912664 0
-247.785594 146.005284 -24.360682 0
-245.491274 145.981484 -25.181908 0
-243.175840 145.969115 -26.011702 0
-240.868328 146.023258 -26.814357 0
-238.496777 146.009841 -27.677642 0
-236.102817 146.009468 -28.549571 0
-233.636357 145.936344 -29.487830 0
-231.148320 145.883577 -30.431343 0
-228.638239 145.850884 -31.380549 0
-226.096879 145.823931 -32.345527 0
-223.508782 145.779983 -33.342492 0
-220.902785 145.766485 -34.339338 0
-218.253816 145.745769 -35.362646 0
-215.558288 145.715116 -36.415162 0
-213.463319 146.604481 -36.833545 0
-251.661065 140.433328 -22.753750 0
-251.404551 144.718517 -20.889787 0
-250.297558 147.068218 -20.200189 0
-247.539882 146.024354 -21.619255 0
-245.274734 146.048971 -22.391706 0
-242.945775 146.000835 -23.225182 0
-240.644815 146.057988 -24.007677 0
-238.236542 145.968908 -24.899653 0
-235.905625 146.072891 -25.684162 0
-233.443851 145.998278 -26.601196 0
-230.965218 145.951765 -27.518123 0
-228.438090 145.881241 -28.469587 0
-225.921842 145.885698 -29.390420 0
-223.344960 145.849686 -30.357746 0
-220.765204 145.866474 -31.309511 0
-218.115067 145.833360 -32.315785 0
-215.420496 145.793711 -33.348144 0
-212.681962 145.750729 -34.405177 0
-209.914886 145.728338 -35.470868 0
-207.643486 146.444239 -36.036782 0
-251.291448 140.223329 -20.143368 0
-250.771138 143.933791 -18.674270 0
-249.946578 146.870368 -17.653949 0
-247.244743 145.938542 -18.972391 0
-244.986542 145.970681 -19.723385 0
-242.686864 145.972246 -20.507667 0
-240.403555 146.054591 -21.256890 0
-238.049415 146.055662 -22.071800 0
-234.737675 144.417722 -23.936808 0
-232.459388 144.691301 -24.619062 0
-230.752195 145.965108 -24.674701 0
-228.252939 145.932026 -25.579192 0
-225.740020 145.932455 -26.480276 0
-223.213796 145.966550 -27.377885 0
-220.597670 145.916734 -28.349897 0
-217.975988 145.916775 -29.309005 0
-215.297203 145.890017 -30.306627 0
-212.568188 145.850114 -31.334622 0
-209.824710 145.849997 -32.357666 0
-207.016147 145.820046 -33.423898 0
-204.149053 145.773140 -34.525650 0
-201.657977 146.280357 -35.262149 0
-199.048059 146.675390 -36.096697 0
-250.542400 139.186107 -18.035133 0
-249.885408 142.616023 -16.774519 0
-249.210412 145.877375 -15.597616 0
-247.593883 147.135850 -15.592231 0
-244.761695 146.010989 -17.011220 0
-242.492151 146.060668 -17.748564 0
-240.183813 146.086225 -18.514686 0
-237.790324 146.007460 -19.359266 0
-235.406645 146.000984 -20.175630 0
-232.062763 144.396242 -21.998390 0
-230.589528 146.058801 -21.812686 0
-228.086812 146.009869 -22.704935 0
-225.598841 146.040323 -23.564743 0
-223.014281 145.972580 -24.505066 0
-220.452161 145.997046 -25.405167 0
-217.808634 145.954463 -26.367781 0
-215.160934 145.963992 -27.316434 0
-212.435069 145.918665 -28.321699 0
-209.695109 145.913534 -29.321730 0
-206.871901 145.853766 -30.380415 0
-204.021930 145.820451 -31.444365 0
-201.158149 145.831006 -32.501932 0
-198.181650 145.758582 -33.640907 0
-195.464232 146.075245 -34.533913 0
-192.958268 146.700138 -35.231159 0
-249.601360 137.734845 -16.157404 0
-248.804263 140.889969 -15.094622 0
-248.046458 144.009376 -14.039465 0
-247.026892 146.494777 -13.337073 0
-244.551970 146.075441 -14.314507 0
-242.251852 146.057501 -15.074326 0
-239.922654 146.036616 -15.850151 0
-237.566185 146.018000 -16.639340 0
-235.137980 145.925124 -17.488130 0
-232.764859 145.982604 -18.262433 0
-230.318541 145.966839 -19.096619 0
-227.882208 146.020744 -19.904576 0
-225.386770 146.030989 -20.755842 0
-222.868243 146.058593 -21.613551 0
-220.286515 146.043108 -22.515972 0
-217.666665 146.026732 -23.437603 0
-215.001972 146.001710 -24.384012 0
-212.313655 146.000858 -25.334809 0
-209.567254 145.976644 -26.321158 0
-206.763740 145.934011 -27.340898 0
-203.950305 145.939185 -28.351217 0
-201.064390 145.909726 -29.407092 0
-198.104544 145.848235 -30.508183 0
-195.129329 145.832152 -31.603207 0
-192.065549 145.771566 -32.753939 0
-189.044851 145.829048 -33.849381 0
-186.665780 146.699729 -34.401191 0
-247.576276 138.861289 -13.557239 0
-246.587848 141.545910 -12.783390 0
-245.723590 144.388685 -11.911710 0
-244.500364 146.441044 -11.476558 0
-241.981028 145.992093 -12.462852 0
-239.665247 145.989734 -13.210159 0
-237.268727 145.892515 -14.026396 0
-234.869530 145.845903 -14.828423 0
-232.477463 145.864891 -15.607184 0
-230.055106 145.884126 -16.400938 0
-227.613387 145.923205 -17.198439 0
-225.162382 145.998619 -17.989946 0
-222.673651 146.065396 -18.802714 0
-220.114396 146.076022 -19.666464 0
-217.507738 146.070542 -20.557875 0
-215.435716 146.898455 -20.948882 0
-212.740037 146.859099 -21.894592 0
-210.053350 146.890846 -22.815220 0
-206.661857 146.020146 -24.332424 0
-203.831149 145.992073 -25.337123 0
-200.979514 145.997656 -26.341926 0
-198.034379 145.944496 -27.407664 0
-195.050797 145.907236 -28.486719 0
-192.032023 145.891188 -29.576077 0
-188.934963 145.845937 -30.710261 0
-185.788282 145.809272 -31.864975 0
-182.528569 145.710624 -33.089620 0
-180.116548 146.632577 -33.633329 0
-246.165825 136.458374 -12.187136 0
-245.050504 138.931556 -11.561303 0
-243.804384 141.068666 -11.111973 0
-242.609373 143.246395 -10.635723 0
-241.383368 145.306951 -10.219460 0
-239.838655 146.730301 -10.155205 0
-236.980859 145.780729 -11.428709 0
-234.611886 145.782024 -12.184680 0
-232.225195 145.803911 -12.943197 0
-229.823168 145.850667 -13.701946 0
-227.391222 145.898577 -14.474808 0
-224.913880 145.924708 -15.275663 0
-222.415327 145.969945 -16.081142 0
-219.867391 145.992035 -16.916640 0
-217.299689 146.038381 -17.754538 0
-214.865697 146.332140 -18.459771 0
-212.745522 147.114575 -18.881529 0
-210.003749 147.056081 -19.832334 0
-207.239832 147.027323 -20.784708 0
-203.874390 146.258459 -22.222048 0
-201.690066 147.117691 -22.657712 0
-197.958829 146.031740 -24.348359 0
-194.993890 146.007268 -25.389323 0
-191.947403 145.946603 -26.477314 0
-188.888232 145.936563 -27.556756 0
-185.729837 145.875335 -28.695168 0
-182.559353 145.868239 -29.823853 0
-179.258682 145.782262 -31.032774 0
-175.889696 145.692761 -32.273014 0
-173.399386 146.618859 -32.841504 0
-241.778770 137.551975 -10.342755 0
-240.563740 139.766253 -9.876820 0
-239.529308 142.260410 -9.254766 0
-238.576502 144.832275 -8.582925 0
-237.208622 146.587589 -8.350098 0
-234.351760 145.710339 -9.569375 0
-231.994605 145.776520 -10.284989 0
-229.556955 145.756858 -11.062408 0
-227.160086 145.856155 -11.787391 0
-224.686058 145.880742 -12.569172 0
-222.196230 145.932678 -13.350577 0
-219.643896 145.941100 -14.172775 0
-217.059551 145.955982 -15.007686 0
-214.452627 145.992486 -15.846806 0
-211.803293 146.023000 -16.706774 0
-209.118114 146.058978 -17.581383 0
-207.141767 147.112434 -17.858596 0
-203.529557 146.006922 -19.462322 0
-201.485088 147.043968 -19.777954 0
-198.538430 146.949737 -20.806228 0
-195.773577 147.146182 -21.674547 0
-191.903545 146.049915 -23.381884 0
-188.834233 146.016852 -24.445297 0
-185.721088 145.997889 -25.523945 0
-182.516717 145.940459 -26.652733 0
-179.276203 145.911115 -27.789494 0
-175.963554 145.871305 -28.960308 0
-172.601235 145.848447 -30.147984 0
-169.079226 145.728702 -31.430573 0
-166.381777 146.533072 -32.110462 0
-238.822799 136.885568 -8.726753 0
-237.801782 139.462185 -8.092986 0
-236.759973 141.925902 -7.510901 0
-235.645888 144.192604 -7.026514 0
-234.384369 146.145146 -6.705025 0
-232.323865 146.697711 -7.137936 0
-229.313048 145.697152 -8.426966 0
-226.891856 145.750546 -9.159279 0
-224.438111 145.802001 -9.906743 0
-221.909342 145.787620 -10.705545 0
-219.389692 145.841055 -11.481726 0
-216.811626 145.859669 -12.293161 0
-214.216561 145.907589 -13.104088 0
-211.562275 145.925023 -13.949180 0
-208.876510 145.954320 -14.804741 0
-206.149593 145.983597 -15.678156 0
-203.392829 146.029872 -16.559920 0
-200.591974 146.075642 -17.460875 0
-198.508811 147.090390 -17.795313 0
-195.159860 146.549288 -19.088833 0
-192.528375 146.965046 -19.820292 0
-189.529511 146.988001 -20.813393 0
-185.621150 146.012569 -22.456272 0
-182.505077 146.046735 -23.494521 0
-179.267596 146.009475 -24.602861 0
-175.965062 145.969440 -25.739161 0
-172.584152 145.915177 -26.911953 0
-169.158679 145.885799 -28.096730 0
-165.649222 145.842067 -29.320267 0
-161.988793 145.720322 -30.626957 0
-159.193434 146.530038 -31.331412 0
-234.665140 138.521922 -6.631405 0
-233.403522 140.595140 -6.277143 0
-232.094705 142.539263 -5.986249 0
-230.685800 144.273627 -5.802683 0
-229.227632 145.897170 -5.676608 0
-227.222726 146.612309 -6.035739 0
-224.653021 146.452956 -6.873798 0
-221.708108 145.772733 -8.010651 0
-219.145963 145.754512 -8.805829 0
-216.570170 145.770677 -9.597539 0
-213.955885 145.784946 -10.406007 0
-211.322788 145.827185 -11.214988 0
-208.678548 145.908122 -12.018515 0
-205.942099 145.917499 -12.879633 0
-203.168007 145.934145 -13.754503 0
-200.323168 145.916767 -14.667676 0
-197.502539 145.990097 -15.547007 0
-194.575654 145.988574 -16.489918 0
-186.013254 139.197711 -21.519996 0
-189.506499 147.101304 -17.763830 0
-185.524029 146.029215 -19.418105 0
-183.345056 147.123346 -19.772528 0
-179.148567 145.983269 -21.528482 0
-175.922573 146.018364 -22.584196 0
-172.612773 146.029953 -23.680038 0
-169.191975 145.993585 -24.833132 0
-165.697024 145.952819 -26.017219 0
-162.133516 145.916426 -27.227742 0
-158.454243 145.840566 -28.494821 0
-154.683019 145.753717 -29.801465 0
-151.724543 146.514953 -30.567352 0
-229.250924 137.984757 -5.663050 0
-227.798553 139.741096 -5.494427 0
-226.306767 141.403397 -5.372969 0
-224.865705 143.124057 -5.220753 0
-223.436524 144.838084 -5.071076 0
-221.828612 146.251920 -5.078970 0
-219.587360 146.699781 -5.602790 0
-216.362820 145.729860 -6.898251 0
-213.770925 145.769637 -7.671218 0
-211.119085 145.777935 -8.476738 0
-208.465187 145.838675 -9.269542 0
-205.725059 145.836673 -10.113412 0
-202.963992 145.864287 -10.958044 0
-200.157545 145.890055 -11.821381 0
-197.287291 145.892826 -12.716135 0
-194.382787 145.912852 -13.620110 0
-191.461352 145.972291 -14.520806 0
-188.459001 145.994823 -15.463094 0
-186.312564 147.075825 -15.798676 0
-183.228206 147.106388 -16.772873 0
-180.036128 147.079982 -17.803912 0
-176.501226 146.745510 -19.047069 0
-173.536898 147.102799 -19.891960 0
-169.149576 146.021171 -21.654961 0
-165.695677 146.012394 -22.782541 0
-162.203707 146.036928 -23.916638 0
-158.544557 145.968388 -25.139009 0
-154.838238 145.931285 -26.371748 0
-150.979011 145.826886 -27.680380 0
-147.045002 145.734892 -29.014682 0
-143.966710 146.501506 -29.806435 0
-223.243484 136.689049 -5.066626 0
-221.760934 138.439772 -4.925264 0
-220.316345 140.224977 -4.765388 0
-218.853604 141.956150 -4.631929 0
-217.441215 143.740367 -4.470278 0
-215.990540 145.443777 -4.349502 0
-214.095148 146.486086 -4.575680 0
-211.555141 146.628818 -5.284345 0
-208.237426 145.747531 -6.554858 0
-205.526179 145.778657 -7.357508 0
-202.766109 145.800889 -8.181364 0
-199.956893 145.816400 -9.025926 0
-197.108826 145.840721 -9.883269 0
-194.247903 145.907641 -10.734961 0
-191.287567 145.911622 -11.640586 0
-188.271037 145.910126 -12.569048 0
-185.233913 145.947207 -13.495780 0
-182.134216 145.974998 -14.448708 0
-179.028470 146.059524 -15.389987 0
-175.734286 146.000397 -16.438271 0
-173.432403 147.072794 -16.832993 0
-169.076630 146.016021 -18.527822 0
-166.682428 147.085993 -18.960592 0
-162.092729 145.974660 -20.754289 0
-158.538520 146.000854 -21.879459 0
-154.892646 146.011248 -23.042923 0
-151.134402 145.990253 -24.256118 0
-147.276748 145.954924 -25.509931 0
-143.255118 145.850885 -26.841498 0
-139.158904 145.765159 -28.196279 0
-135.937013 146.525303 -29.022263 0
-215.571294 137.199446 -4.304992 0
-214.106388 138.999624 -4.162042 0
-212.661349 140.805387 -4.015118 0
-211.221600 142.595652 -3.874920 0
-209.808800 144.402168 -3.725344 0
-208.304035 146.060297 -3.651620 0
-206.026288 146.661486 -4.131452 0
-202.534636 145.691577 -5.451447 0
-199.800922 145.798995 -6.222980 0
-196.964868 145.830828 -7.051224 0
-194.057977 145.832850 -7.913025 0
-191.123488 145.861490 -8.778526 0
-188.138512 145.890141 -9.662682 0
-185.104931 145.923244 -10.563682 0
-182.020461 145.960228 -11.482479 0
-178.844189 145.957588 -12.444531 0
-175.631570 145.980764 -13.413633 0
-172.382703 146.030801 -14.389547 0
-169.647590 146.685008 -15.033622 0
-166.567737 147.027635 -15.879029 0
-155.297015 139.190382 -21.650591 0
-159.596062 147.080503 -18.017039 0
-154.786373 145.935904 -19.843447 0
-151.082852 145.957868 -20.991142 0
-147.343916 146.022550 -22.141572 0
-143.444037 146.016696 -23.366801 0
-140.664624 147.085734 -23.935703 0
-135.181341 145.840784 -26.022362 0
-130.895187 145.749752 -27.406247 0
-127.581429 146.558875 -28.230774 0
-207.706893 137.792682 -3.526698 0
-206.245696 139.624697 -3.391187 0
-204.807481 141.467055 -3.249339 0
-203.377963 143.300112 -3.111013 0
-201.973588 145.146382 -2.964831 0
-200.135676 146.413347 -3.116864 0
-197.493690 146.669512 -3.800483 0
-193.850797 145.735476 -5.125085 0
-190.970759 145.823908 -5.933065 0
-187.987600 145.847186 -6.793280 0
-184.955350 145.874284 -7.670007 0
-181.876718 145.910347 -8.561047 0
-178.727494 145.930190 -9.480873 0
-175.517507 145.947942 -10.422612 0
-172.237749 145.956586 -11.391036 0
-168.964335 146.038972 -12.339952 0
-165.458613 145.948331 -13.410883 0
-163.149030 147.133797 -13.765374 0
-159.523670 147.046659 -14.878221 0
-154.830856 146.005757 -16.584841 0
-151.045636 145.938883 -17.747398 0
-147.286242 145.974566 -18.877109 0
-143.369498 145.943706 -20.076922 0
-140.649939 147.056529 -20.597796 0
-135.320488 145.934604 -22.539073 0
-131.036373 145.831794 -23.882592 0
-126.617798 145.705928 -25.277719 0
-201.085714 136.574086 -2.871232 0
-199.609389 138.438093 -2.744548 0
-198.187427 140.353977 -2.591002 0
-196.764238 142.247074 -2.447308 0
-195.347763 144.129044 -2.307912 0
-193.895030 145.947697 -2.199621 0
-191.530389 146.647363 -2.666943 0
-187.759484 145.711640 -3.994863 0
-184.770210 145.783059 -4.821524 0
-181.763186 145.893922 -5.645229 0
-178.604339 145.894751 -6.546024 0
-175.397324 145.907690 -7.460332 0
-172.139430 145.931590 -8.389337 0
-168.814772 145.951691 -9.341784 0
-165.432079 145.979782 -10.311991 0
-162.023353 146.050221 -11.281335 0
-158.369694 145.947669 -12.372544 0
-155.935251 147.097606 -12.769505 0
-151.098241 146.004622 -14.482955 0
-147.355809 146.044308 -15.571438 0
-144.692488 147.137867 -16.060952 0
-139.481289 146.002600 -17.906154 0
-135.330640 145.916492 -19.159371 0
-131.087772 145.837731 -20.441540 0
-126.676420 145.705972 -21.791570 0
-120.476343 144.204379 -24.042808 3
-115.954228 144.196450 -25.400491 3
-192.754565 137.266119 -2.061735 0
-191.309713 139.206247 -1.921398 0
-189.896935 141.166672 -1.769583 0
-188.489710 143.114296 -1.622536 0
-187.099791 145.064033 -1.472960 0
-185.219425 146.426900 -1.620134 0
-182.332382 146.652458 -2.355252 0
-178.397175 145.764992 -3.683251 0
-175.241928 145.828323 -4.541950 0
-172.030736 145.894862 -5.418202 0
-168.698236 145.898465 -6.348015 0
-165.355493 145.959389 -7.268317 0
-161.904879 145.978744 -8.232889 0
-158.393761 146.008376 -9.214740 0
-154.700289 145.932981 -10.278832 0
-151.029003 145.955098 -11.313993 0
-147.208157 145.912952 -12.411567 0
-144.663349 147.106168 -12.825572 0
-139.529495 146.029441 -14.574122 0
-135.361554 145.916678 -15.798666 0
-131.117044 145.825155 -17.042912 0
-126.730178 145.702402 -18.339464 0
-120.535708 144.192963 -20.517877 3
-116.060300 144.210222 -21.810744 3
-111.395257 144.169103 -23.176966 3
-106.708154 144.206051 -24.533200 3
-184.206240 138.084315 -1.207014 0
-182.787588 140.093520 -1.056784 0
-181.349930 142.062062 -0.924830 0
-179.941793 144.047740 -0.783075 0
-178.491599 145.970121 -0.671628 0
-175.944014 146.682967 -1.171785 0
-171.793577 145.720337 -2.540462 0
-168.532630 145.793380 -3.403795 0
-165.233826 145.892318 -4.273334 0
-161.829795 145.950495 -5.184585 0
-158.311945 145.964551 -6.140826 0
-154.748110 146.005327 -7.105507 0
-151.009345 145.952285 -8.144737 0
-147.281277 145.985887 -9.161791 0
-144.322010 146.791431 -9.774494 0
-139.515561 146.001226 -11.302768 0
-135.399841 145.923515 -12.463443 0
-131.140349 145.807818 -13.676442 0
-126.801201 145.713675 -14.909151 0
-120.611768 144.195727 -17.015669 3
-116.137182 144.201271 -18.267417 3
-111.544002 144.203995 -19.556178 3
-106.814423 144.194560 -20.889374 3
-101.952294 144.180955 -22.264080 3
-97.015058 144.210242 -23.652680 3
-176.822631 136.940344 -0.467210 0
-175.372852 138.973159 -0.331277 0
-173.949540 141.018736 -0.187609 0
-172.546025 143.069269 -0.039878 0
-171.101897 145.060191 0.080036 0
-169.136808 146.492940 -0.077751 0
-165.793467 146.523027 -0.947988 0
-161.625420 145.792061 -2.226092 0
-158.175936 145.867132 -3.117852 0
-154.666022 145.952201 -4.025517 0
-151.031156 145.988515 -4.980700 0
-147.336228 146.041959 -5.950085 0
-143.425473 145.973286 -7.009271 0
-139.543023 146.009914 -8.037734 0
-135.392536 145.890897 -9.178277 0
-131.185567 145.809473 -10.327421 0
-126.845470 145.703023 -11.520993 0
-120.672043 144.186095 -13.550925 3
-116.215151 144.193801 -14.753857 3
-111.640865 144.198935 -15.991894 3
-106.936453 144.195994 -17.269908 3
-102.113474 144.198465 -18.581653 3
-97.146423 144.191698 -19.937663 3
-92.032454 144.178875 -21.338076 3
-86.804301 144.188338 -22.767380 3
-167.669949 137.849146 0.432777 0
-166.199409 139.907377 0.556458 0
-164.815137 142.041630 0.718127 0
-163.412903 144.140812 0.864747 0
-161.869032 146.083063 0.935769 0
-158.992852 146.706835 0.350888 0
-154.439052 145.759237 -1.038239 0
-150.837053 145.820685 -1.946485 0
-147.185052 145.907224 -2.863769 0
-143.456995 145.996685 -3.802089 0
-140.783115 147.096095 -4.233229 0
-135.415216 145.884583 -5.904808 0
-131.210384 145.794033 -7.015178 0
-125.102403 144.199671 -8.972530 3
-120.757184 144.197297 -10.103383 3
-116.314435 144.203998 -11.259880 3
-111.724698 144.184334 -12.463221 3
-107.077743 144.213030 -13.672769 3
-102.260634 144.206348 -14.937486 3
-97.334368 144.215836 -16.229621 3
-92.221774 144.189427 -17.581489 3
-87.025547 144.206695 -18.947973 3
-81.630537 144.190336 -20.377167 3
-76.121604 144.205091 -21.832054 3
-159.629262 136.690133 1.225490 0
-158.186605 138.845405 1.368657 0
-156.747423 140.989132 1.508168 0
-155.342947 143.152951 1.658985 0
-153.904489 145.269694 1.788792 0
-151.614017 146.569852 1.519570 0
-146.992570 145.734231 0.184283 0
-143.258119 145.811199 -0.725170 0
-139.475436 145.918814 -1.641541 0
-135.438606 145.879091 -2.656480 0
-131.252738 145.793837 -3.720824 0
-125.151038 144.193022 -5.607637 3
-120.838828 144.206117 -6.685401 3
-116.403029 144.206199 -7.799114 3
-111.828124 144.185770 -8.954428 3
-107.186764 144.206030 -10.119470 3
-102.390575 144.202138 -11.331046 3
-97.451059 144.188440 -12.583144 3
-92.399476 144.192691 -13.861794 3
-87.199685 144.192995 -15.181083 3
-81.875122 144.210765 -16.530434 3
-76.352801 144.200665 -17.938466 3
-70.686360 144.205393 -19.382257 3
-64.832688 144.201736 -20.877983 3
-150.000000 -0.293866 -29.023799 7
-150.021436 7.001115 -27.336482 7
-150.027535 14.028436 -25.716543 7
-145.151520 12.901574 -27.077044 7
-149.777177 137.716482 2.199127 0
-148.313795 139.908000 2.334082 0
-146.897903 142.131526 2.485799 0
-145.459722 144.320825 2.623085 0
-143.721488 146.226291 2.624838 0
-140.357614 146.687374 1.919769 0
-135.337939 145.765776 0.514103 0
-131.286402 145.786505 -0.455297 0
-125.184300 144.173887 -2.274881 3
-120.910945 144.207597 -3.298204 3
-116.470248 144.191801 -4.374342 3
-111.970757 144.218648 -5.457207 3
-107.290338 144.195565 -6.596394 3
-102.507359 144.188842 -7.758705 3
-97.616084 144.197606 -8.945792 3
-92.578626 144.198048 -10.172039 3
-87.396240 144.196278 -11.435910 3
-82.075889 144.202169 -12.733679 3
-76.553054 144.176662 -14.089494 3
-70.963144 144.216868 -15.449709 3
-65.100988 144.191141 -16.892534 3
-149.999991 -7.118973 -26.068226 7
-146.643440 -5.473868 -26.437243 7
-143.374637 -3.667168 -26.753375 7
-140.294866 -1.540298 -26.959568 7
-149.890748 21.123208 -19.874643 7
-144.938142 19.818161 -21.249414 7
-139.773642 18.325378 -22.713752 7
-135.141963 17.790512 -23.852595 7
-129.327588 15.610024 -25.614478 7
-112.854138 -1.871230 -33.079972 8
-102.940462 -9.196690 -36.877014 8
-114.418603 13.655133 -29.348438 8
-113.128684 18.252545 -28.635631 8
-111.554866 22.374217 -28.091387 8
-109.438508 25.710585 -27.840612 8
-105.975458 27.280106 -28.275921 8
-95.700094 20.338238 -32.081964 8
-69.567911 7.265259 -40.782783 9
-69.788467 13.777240 -39.332708 9
-67.935367 17.788595 -38.890647 9
-65.347561 20.932252 -38.803094 9
-62.518525 23.796511 -38.832112 9
-59.602075 26.562645 -38.903991 9
-56.464633 29.097994 -39.077444 9
-52.950074 31.257660 -39.418940 9
-44.955466 28.950037 -41.735719 9
-140.958029 136.538349 3.062979 0
-139.513064 138.823010 3.213447 0
-138.083339 141.108170 3.366194 0
-136.631857 143.361150 3.505820 0
-135.171258 145.595129 3.638019 0
-132.351919 146.659910 3.209612 0
-125.268954 144.198059 1.054691 3
-120.964761 144.194521 0.056223 3
-116.560501 144.196395 -0.965713 3
-112.040078 144.194541 -2.016812 3
-107.421543 144.207063 -3.089161 3
-102.646358 144.193078 -4.204936 3
-97.763787 144.194891 -5.343939 3
-92.767676 144.211568 -6.507858 3
-87.590634 144.199143 -7.721584 3
-82.294767 144.207322 -8.960401 3
-76.800099 144.185668 -10.253487 3
-71.150233 144.170319 -11.583263 3
-65.398020 144.200750 -12.929301 3
-150.016312 -14.097843 -23.031208 7
-146.536802 -12.575198 -23.446736 7
-142.498825 -12.001295 -24.181418 7
-138.767151 -10.846393 -24.730605 7
-135.097849 -9.550640 -25.238476 7
-150.030135 21.871229 -15.475610 7
-147.275935 24.018553 -15.613110 7
-142.736754 23.392661 -16.713053 7
-138.000148 22.578306 -17.895940 7
-133.171186 21.746677 -19.103576 7
-128.036615 20.593167 -20.445248 7
-122.675657 19.254317 -21.875540 7
-117.417915 18.203991 -23.225007 8
-112.746501 18.086028 -24.255819 8
-113.789879 25.682563 -22.453664 8
-111.697055 28.965541 -22.225011 8
-109.198295 31.687438 -22.201826 8
-105.578018 32.986280 -22.717467 8
-99.958736 31.872465 -24.166809 8
-93.858189 30.319407 -25.812797 8
-87.255284 28.333348 -27.658785 8
-75.922962 21.065126 -31.624198 8
-67.813177 17.834909 -34.057677 9
-69.609023 25.822356 -32.024846 9
-67.022285 28.836671 -31.972340 9
-63.718557 31.074341 -32.237515 9
-60.410012 33.325834 -32.502452 9
-57.074295 35.569055 -32.776585 9
-53.241882 37.335284 -33.258796 9
-48.319358 38.071382 -34.192452 9
-40.848164 36.436010 -36.172025 9
-32.286481 33.951073 -38.566465 9
-20.064207 28.295800 -42.414696 9
-130.258865 137.681664 4.128727 0
-128.804294 140.024384 4.279596 0
-121.786229 141.239284 2.965694 3
-120.301250 143.594103 3.109047 3
-116.634625 144.188545 2.411744 3
-112.128830 144.186277 1.406554 3
-107.528680 144.200707 0.382561 3
-102.794996 144.205354 -0.674327 3
-97.925615 144.203467 -1.763986 3
-92.895872 144.182044 -2.894576 3
-87.774059 144.195304 -4.040044 3
-82.506447 144.208659 -5.219365 3
-77.063256 144.206903 -6.442295 3
-71.447453 144.198202 -7.706598 3
-65.672236 144.197074 -9.006485 3
-147.789912 -17.407824 -19.605440 7
-143.836940 -16.662358 -20.268295 7
-139.805771 -15.997573 -20.964415 7
-135.785553 -15.255066 -21.643820 7
-131.794857 -14.406929 -22.297124 7
-127.850543 -13.430538 -22.916347 7
-148.341940 26.193269 -10.785832 7
-144.041100 25.877841 -11.738209 7
-139.626005 25.485663 -12.730474 7
-135.053860 24.961387 -13.782525 7
-130.364817 24.374753 -14.872197 7
-125.591585 23.779431 -15.982063 7
-120.685350 23.111675 -17.134948 7
-117.362614 24.713164 -17.509341 8
-115.347613 28.079934 -17.262556 8
-113.079580 31.069501 -17.144217 8
-110.747111 33.945919 -17.062713 8
-107.773796 35.995049 -17.279630 8
-103.396102 36.331324 -18.129559 8
-93.491449 30.106354 -21.432351 8
-92.387070 34.586866 -20.781259 8
-86.541456 33.515547 -22.219421 8
-80.375623 32.222998 -23.769417 8
-73.849432 30.682727 -25.444933 8
-69.749627 31.941489 -26.061171 9
-66.533201 34.195401 -26.297141 9
-63.072933 36.211598 -26.632204 9
-59.581871 38.223636 -26.975665 9
-56.104644 40.278334 -27.308942 9
-52.146090 41.888459 -27.831977 9
-46.799650 42.209143 -28.901615 9
-39.740441 41.012880 -30.631080 9
-32.273524 39.601819 -32.489970 9
-24.417417 38.011799 -34.467432 9
-15.726289 35.863960 -36.731887 9
-6.248905 33.241396 -39.256892 9
9.090965 25.847534 -43.956309 9
-111.774857 140.219070 3.947034 3
-110.304307 142.673367 4.106713 3
-107.640239 144.198397 3.831277 3
-102.922060 144.202091 2.822576 3
-98.076103 144.204494 1.785478 3
-93.067339 144.184719 0.708434 3
-87.943774 144.182758 -0.390619 3
-82.670778 144.178266 -1.523046 3
-77.275659 144.194933 -2.678480 3
-71.709953 144.204401 -3.872798 3
-65.954484 144.200069 -5.111419 3
-149.854242 -20.835646 -15.279964 7
-145.749039 -20.372025 -16.009828 7
-141.634292 -19.858577 -16.732776 7
-137.489938 -19.330746 -17.459540 7
-133.340843 -18.745031 -18.176920 7
-129.173806 -18.124495 -18.891929 7
-123.101940 -20.510857 -20.557915 7
-148.811025 27.416894 -6.341154 7
-144.667630 27.306919 -7.191580 7
-140.371703 27.053040 -8.100351 7
-135.964011 26.727539 -9.045642 7
-131.568228 26.516867 -9.967424 7
-126.938877 26.069323 -10.981414 7
-122.340879 25.770159 -11.961683 7
-117.479280 25.213004 -13.044209 7
-116.575921 30.032133 -12.317303 8
-114.001145 32.566918 -12.357964 8
-111.596884 35.306299 -12.326336 8
-108.908983 37.670727 -12.423061 8
-105.188470 38.765845 -12.967477 8
-100.253083 38.450316 -14.022948 8
-94.921963 37.774844 -15.226583 8
-89.627495 37.263237 -16.392634 8
-84.123932 36.632163 -17.624001 8
-78.325663 35.798020 -18.953711 8
-72.324820 34.877250 -20.341298 8
-68.523967 36.436312 -20.819152 9
-64.985167 38.311533 -21.185317 9
-61.487528 40.260554 -21.529961 9
-57.978792 42.228561 -21.873947 9
-54.286919 44.047310 -22.283662 9
-49.807340 45.145354 -22.988696 9
-43.912185 44.974917 -24.218956 9
-37.145160 44.117574 -25.755362 9
-30.088208 43.146819 -27.372576 9
-22.946397 42.257582 -28.992549 9
-15.053043 40.870392 -30.859035 9
-6.832134 39.383428 -32.811544 9
1.993494 37.578025 -34.947299 9
11.839366 35.140354 -37.409444 9
22.561071 32.233104 -40.138325 9
-99.692736 141.664604 5.139231 3
-98.195626 144.183405 5.299346 3
-93.238324 144.187929 4.285544 3
-88.171371 144.212223 3.252460 3
-82.900586 144.194363 2.169339 3
-77.509333 144.198576 1.065105 3
-71.929834 144.183542 -0.081785 3
-66.253195 144.215185 -1.240508 3
-148.323370 -22.905077 -11.386098 7
-144.137669 -22.552786 -12.132055 7
-139.912815 -22.197527 -12.885262 7
-135.653384 -21.828976 -13.642984 7
-131.374533 -21.419852 -14.397396 7
-127.086945 -20.952581 -15.143282 7
-122.787969 -20.432570 -15.882126 7
-148.913905 28.057553 -2.126669 7
-144.771642 27.924300 -2.952748 7
-140.605790 27.842253 -3.774403 7
-136.378428 27.755050 -4.609088 7
-132.002034 27.539448 -5.495860 7
-127.625712 27.417281 -6.366066 7
-123.141037 27.235643 -7.268129 7
-118.482732 26.912726 -8.229368 7
-117.311035 31.323179 -7.666692 8
-114.527684 33.545595 -7.808733 8
-112.103688 36.225299 -7.799359 8
-109.523226 38.691212 -7.858823 8
-106.064898 40.073746 -8.282819 8
-101.453700 40.108953 -9.171980 8
-96.519744 39.855383 -10.175693 8
-91.396181 39.487009 -11.236974 8
-86.157648 39.098645 -12.324372 8
-80.748550 38.633830 -13.458792 8
-75.211535 38.147395 -14.622148 8
-69.692477 37.799993 -15.757370 9
-66.447212 39.939895 -16.006148 9
-62.864570 41.755358 -16.378724 9
-59.341001 43.664400 -16.723304 9
-55.810729 45.598895 -17.064855 9
-51.778980 47.082870 -17.584656 9
-46.544085 47.482649 -18.532412 9
-40.288801 47.034153 -19.830441 9
-33.705024 46.419283 -21.222344 9
-26.956234 45.798525 -22.647658 9
-19.863472 45.021954 -24.167995 9
-12.488889 44.157817 -25.759083 9
-4.742481 43.142315 -27.449847 9
3.187083 42.145920 -29.173141 9
11.949859 40.652152 -31.147731 9
21.091347 39.056372 -33.214578 9
30.967567 37.098515 -35.489444 9
-33.546662 91.580084 -13.205353 3
-39.101645 100.334810 -10.563350 3
-88.519482 140.647367 6.253097 3
-86.961654 143.222402 6.407145 3
-83.114065 144.200164 5.829988 3
-77.719329 144.187241 4.774463 3
-72.193961 144.193336 3.696645 3
-66.493383 144.193531 2.583392 3
-150.007893 -27.111147 -7.216078 7
-147.123973 -24.358414 -7.290846 7
-142.859845 -24.127593 -8.051112 7
-138.567105 -23.869611 -8.811928 7
-132.622442 -26.372451 -10.349618 7
-129.912450 -23.240640 -10.326743 7
-125.421364 -23.081357 -11.140790 7
-121.016415 -22.699049 -11.900703 7
-148.617812 28.066770 1.869104 7
-144.610196 28.129316 1.129773 7
-140.442156 28.028371 0.332900 7
-136.336094 28.104663 -0.422139 7
-132.100727 28.073955 -1.219314 7
-127.757515 27.975988 -2.047869 7
-123.420733 27.975895 -2.858425 7
-118.956678 27.889501 -3.707213 7
-117.293908 31.611566 -3.386109 8
-114.747410 34.121916 -3.435557 8
-112.343844 36.801507 -3.429386 8
-109.823887 39.317185 -3.472583 8
-103.964404 37.737130 -4.834563 8
-101.985822 40.962579 -4.655768 8
-97.228348 40.887273 -5.556078 8
-92.332054 40.747907 -6.492971 8
-87.225808 40.471461 -7.492119 8
-82.041248 40.215318 -8.502215 8
-76.837788 40.046571 -9.500767 8
-71.408007 39.743459 -10.564146 8
-67.357826 40.991722 -11.106326 9
-63.876018 42.875172 -11.434328 9
-60.283237 44.678400 -11.796443 9
-56.683356 46.510044 -12.154831 9
-52.923898 48.223671 -12.562813 9
-48.127173 48.999915 -13.323309 9
-42.193953 48.804612 -14.460599 9
-36.031705 48.521828 -15.655193 9
-29.560905 48.090916 -16.932211 9
-22.874817 47.607102 -18.258066 9
-15.977352 47.082398 -19.629974 9
-8.853535 46.512499 -21.051445 9
4.749091 40.776552 -24.558300 9
6.344129 45.054075 -24.124629 9
14.447247 44.168112 -25.781325 9
23.035296 43.080599 -27.562277 9
-34.494493 92.169914 -8.493302 3
-39.768808 100.693443 -6.057717 3
-44.630382 108.688911 -3.788795 3
-49.281304 116.324260 -1.620332 3
-76.613177 139.536687 7.421031 3
-75.037941 142.208046 7.585606 3
-72.411143 144.173034 7.434420 3
-66.758843 144.189601 6.388778 3
-150.017070 -26.302709 -2.510424 7
-146.326280 -25.070552 -2.985297 7
-141.924571 -25.083981 -3.786881 7
-137.610927 -24.854611 -4.533191 7
-133.196347 -24.719984 -5.312260 7
-128.696670 -24.644472 -6.115530 7
-124.207276 -24.464922 -6.899703 7
-119.711443 -24.212014 -7.672689 7
-147.997761 27.565489 5.706616 7
-144.028488 27.686305 5.008942 7
-139.977688 27.759835 4.289554 7
-135.921453 27.903630 3.580985 7
-131.743895 27.949016 2.835371 7
-127.550712 28.053897 2.097038 7
-123.238806 28.074957 1.324486 7
-118.842276 28.066298 0.532532 7
-117.264686 31.881836 0.861041 8
-114.748948 34.412310 0.815449 8
-112.306740 37.022487 0.796433 8
-109.725648 39.443392 0.722682 8
-106.439955 40.995664 0.383601 8
-102.080624 41.290030 -0.349515 8
-97.461384 41.358405 -1.164936 8
-92.598633 41.236063 -2.054033 8
-87.697654 41.169149 -2.940434 8
-82.694674 41.087433 -3.846838 8
-77.610518 41.017963 -4.765146 8
-72.295289 40.804421 -5.747322 8
-67.859028 41.615666 -6.406604 9
-64.413081 43.509249 -6.713839 9
-60.884290 45.349819 -7.043775 9
-57.277860 47.147460 -7.393847 9
-53.532842 48.847992 -7.783664 9
-49.150778 49.988783 -8.376803 9
-43.593689 50.107306 -9.343832 9
-33.106790 45.861206 -11.893802 9
-31.295577 49.610269 -11.605235 9
-24.829212 49.271981 -12.805792 9
-18.295669 49.008774 -14.005360 9
-11.322737 48.510014 -15.320395 9
-4.886824 48.596700 -16.444307 9
-7.799865 56.326887 -14.667696 4
-10.446449 63.667495 -13.001098 4
-24.315781 79.508241 -7.963117 1
-35.286018 92.642945 -3.878681 3
-40.442923 101.058532 -1.591368 3
-45.248957 108.995223 0.556239 3
-49.850550 116.578558 2.610475 3
-54.238421 123.816343 4.570947 3
-58.427824 130.733179 6.444339 3
-62.695463 137.526768 8.311776 3
-62.330372 141.121740 8.839189 3
-4.934904 108.234404 -6.659355 2
0.151060 109.588255 -7.329151 2
-150.069046 -25.420772 2.174206 7
-145.837480 -25.216331 1.459654 7
-141.447570 -25.218417 0.687531 7
-137.012871 -25.211516 -0.090065 7
-132.512559 -25.228990 -0.881747 7
-128.000251 -25.176586 -1.664025 7
-123.424722 -25.139782 -2.458621 7
-150.022185 24.899846 9.678005 7
-147.138546 26.689163 9.443256 7
-143.173591 26.823900 8.772899 7
-139.194027 27.011225 8.108828 7
-135.145420 27.170426 7.429471 7
-131.047773 27.334612 6.743298 7
-126.885338 27.483933 6.044608 7
-122.644111 27.602668 5.328626 7
-118.339545 27.716325 4.601890 7
-117.249324 32.168509 5.086471 8
-114.462569 34.327261 4.932656 8
-112.077280 36.997280 4.926346 8
-109.443226 39.338765 4.828420 8
-106.074118 40.778146 4.468305 8
-101.838500 41.212743 3.807852 8
-97.164393 41.206149 3.006131 8
-92.428456 41.220465 2.197986 8
-87.624694 41.251038 1.381710 8
-82.733310 41.278428 0.550980 8
-77.802077 41.358058 -0.277563 8
-72.676871 41.326695 -1.155116 8
-68.107705 41.975631 -1.832844 9
-64.608231 43.793346 -2.148514 9
-61.095675 45.630394 -2.462404 9
-57.578405 47.495776 -2.771701 9
-53.868777 49.209172 -3.135932 9
-49.503086 50.343879 -3.699303 9
-44.182736 50.659841 -4.549305 9
-38.270636 50.537392 -5.565884 9
-32.188164 50.381197 -6.615344 9
-26.098676 50.340477 -7.647015 9
-19.833865 50.269602 -8.711770 9
-13.912504 50.609931 -9.653815 4
-14.645339 56.522923 -8.610650 4
-25.249837 70.268570 -4.690581 1
-25.363676 75.318648 -3.883494 1
-24.765735 79.738250 -3.292963 1
-35.985623 93.047677 0.665192 3
-41.058593 101.381549 2.818226 3
-45.829982 109.275555 4.852929 3
-50.418300 116.833109 6.805231 3
-54.761378 124.024145 8.659979 3
-55.549044 128.606142 9.513041 3
-53.802828 131.418725 9.666639 3
-5.311469 103.672578 -2.770515 2
-5.401630 108.307002 -2.022109 2
-0.593816 109.815085 -2.580039 2
-149.984892 -24.800633 6.759236 7
-145.732666 -24.661906 6.054027 7
-141.267259 -24.824692 5.272126 7
-136.832871 -24.839228 4.517580 7
-132.253100 -25.013772 3.717586 7
-127.694337 -25.056885 2.940963 7
-123.009241 -25.214864 2.128464 7
-149.803958 25.044325 13.672932 7
-145.905268 25.228716 13.043559 7
-142.010267 25.490202 12.426919 7
-138.085417 25.776136 11.810020 7
-134.100371 26.042924 11.181677 7
-130.052964 26.291136 10.541631 7
-125.912118 26.480735 9.879080 7
