ply
format ascii 1.0
element vertex 1355
property float x
property float y
property float z
property int scalar_Label
end_header
22.891503 -31.043718 -40.365435 9
20.204600 -31.144394 -40.282353 9
17.526449 -31.221888 -40.199951 9
14.851281 -31.333197 -40.125171 9
12.180935 -31.459518 -40.055705 9
9.520927 -31.510458 -39.980394 9
6.863828 -31.577933 -39.910508 9
4.210012 -31.653240 -39.844963 9
1.558061 -31.772261 -39.788200 9
-1.089053 -31.840391 -39.728465 9
-3.733904 -31.905168 -39.671628 9
-6.376904 -31.926419 -39.612655 9
-9.018838 -32.065107 -39.571635 9
-11.659888 -32.120055 -39.523430 9
-14.300822 -32.175602 -39.478557 9
-16.942687 -32.214494 -39.434841 9
-19.585195 -32.264638 -39.395776 9
-22.228693 -32.322232 -39.360884 9
-24.874721 -32.367010 -39.327608 9
-27.525029 -32.386609 -39.294378 9
-30.180233 -32.388085 -39.262076 9
-32.833514 -32.455916 -39.241379 9
-35.496104 -32.466121 -39.216620 9
-38.161310 -32.497723 -39.197793 9
-40.826882 -32.568053 -39.187103 9
-43.514941 -32.504064 -39.162630 9
-46.234366 -32.274336 -39.120378 9
-49.031905 -31.605289 -39.025643 9
-51.949235 -30.321993 -38.856221 9
-55.034751 -28.251141 -38.590141 9
-58.340767 -25.236484 -38.207642 9
-61.783589 -21.868203 -37.783716 9
-65.201380 -19.009509 -37.427998 9
-69.802728 -10.857891 -36.404846 8
-72.790426 -10.807824 -36.412867 8
-75.796969 -10.733839 -36.421522 8
-78.799965 -10.734386 -36.443311 8
-81.826503 -10.695080 -36.463773 8
-84.892947 -10.560418 -36.475933 8
-87.951450 -10.519652 -36.503762 8
-91.039899 -10.430544 -36.529317 8
-94.149723 -10.329829 -36.557284 8
-97.273523 -10.245411 -36.591226 8
-100.426793 -10.128481 -36.625041 8
-103.618909 -9.955502 -36.655837 8
-107.427398 -8.008382 -36.468292 8
107.372627 -1.394097 -37.331624 5
102.586432 -5.410325 -37.606101 5
99.077292 -6.127930 -37.491112 5
95.616911 -6.809158 -37.377389 5
92.215029 -7.418497 -37.260399 5
88.854398 -7.999650 -37.145279 5
85.554370 -8.484955 -37.023504 5
82.265313 -9.026469 -36.913710 5
79.045366 -9.427595 -36.791351 5
75.834266 -9.884915 -36.680761 5
72.655111 -10.316625 -36.571647 5
69.515374 -10.688130 -36.459510 5
64.102310 -20.254666 -37.520161 9
60.337167 -23.808230 -37.827487 9
56.688343 -27.223133 -38.124407 9
53.220973 -30.178409 -38.369269 9
50.057740 -32.016653 -38.476426 9
47.138703 -32.865962 -38.460774 9
44.320656 -33.322931 -38.398393 9
41.573610 -33.486127 -38.301551 9
38.846769 -33.600558 -38.201862 9
36.132684 -33.700520 -38.103725 9
33.429222 -33.793917 -38.008122 9
30.726197 -33.948534 -37.923954 9
28.044294 -34.015212 -37.831518 9
25.361989 -34.147272 -37.751025 9
22.691803 -34.244235 -37.669148 9
20.030770 -34.320435 -37.587730 9
17.367886 -34.484730 -37.521276 9
14.714156 -34.627396 -37.455140 9
12.074612 -34.662670 -37.377755 9
9.434202 -34.775389 -37.313880 9
6.801159 -34.842091 -37.246908 9
4.170446 -34.938502 -37.187014 9
1.546338 -34.946948 -37.118267 9
-1.078037 -35.032672 -37.063001 9
-3.700128 -35.138690 -37.013513 9
-6.319532 -35.196128 -36.960425 9
-8.938033 -35.220124 -36.905756 9
-11.556213 -35.266471 -36.857090 9
-14.174266 -35.320018 -36.812361 9
-16.792401 -35.382096 -36.771745 9
-19.413571 -35.390781 -36.726751 9
-22.034332 -35.447413 -36.691253 9
-24.659120 -35.467632 -36.653680 9
-27.284394 -35.520640 -36.623530 9
-29.914706 -35.545714 -36.592455 9
-32.549805 -35.559455 -36.562731 9
-35.188377 -35.582598 -36.537214 9
-37.832172 -35.601361 -36.514009 9
-40.483797 -35.599380 -36.490858 9
-43.136066 -35.639543 -36.476449 9
-45.807670 -35.584500 -36.451817 9
-48.574343 -34.955746 -36.350809 9
-51.412429 -34.008594 -36.208669 9
-54.404144 -32.321264 -35.967066 9
-57.568141 -29.915985 -35.629076 9
-60.811864 -27.393269 -35.277821 9
-64.162674 -24.638531 -34.897546 9
-68.570372 -17.189950 -33.871224 8
-71.493946 -17.180755 -33.877230 8
-74.425325 -17.191055 -33.889194 8
-77.379098 -17.160456 -33.898789 8
-80.343467 -17.143219 -33.913542 8
-83.320613 -17.131831 -33.932441 8
-86.329517 -17.058232 -33.946121 8
-89.345490 -17.018894 -33.967933 8
-92.379330 -16.975578 -33.992631 8
-95.433963 -16.921282 -34.019288 8
-98.503793 -16.877105 -34.050846 8
-101.604849 -16.794862 -34.080721 8
-104.743926 -16.660061 -34.106980 8
-108.654144 -14.361734 -33.840317 8
106.775530 -12.663791 -35.349526 5
103.051401 -13.971493 -35.327161 5
99.723334 -14.336276 -35.186005 5
96.446867 -14.637800 -35.041219 5
93.179346 -14.991413 -34.908018 5
89.951726 -15.307012 -34.774307 5
86.758601 -15.595082 -34.641348 5
83.567562 -15.953934 -34.522335 5
80.445598 -16.166884 -34.387828 5
77.335212 -16.412671 -34.261928 5
74.243862 -16.665922 -34.141138 5
71.178555 -16.899063 -34.021608 5
66.771157 -22.352346 -34.627277 9
62.980457 -25.846659 -34.970376 9
59.420154 -28.733869 -35.235914 9
55.985227 -31.385155 -35.474679 9
52.649303 -33.883501 -35.697819 9
49.593969 -35.338107 -35.779805 9
46.692583 -36.220845 -35.785659 9
43.934463 -36.493926 -35.709218 9
41.219746 -36.607347 -35.613470 9
38.518777 -36.704233 -35.518532 9
35.833101 -36.768573 -35.422063 9
33.149127 -36.880913 -35.335508 9
30.478250 -36.966601 -35.248184 9
27.822097 -37.003268 -35.156816 9
25.155709 -37.181391 -35.088760 9
22.511187 -37.244871 -35.007154 9
19.876937 -37.270109 -34.922911 9
17.242481 -37.354047 -34.850029 9
14.615072 -37.423123 -34.777846 9
11.993636 -37.479585 -34.706654 9
9.372511 -37.600665 -34.647689 9
6.761593 -37.625305 -34.577439 9
4.152337 -37.676070 -34.513757 9
1.544168 -37.778916 -34.460453 9
-1.058351 -37.785314 -34.395723 9
-3.660893 -37.867407 -34.344820 9
-6.261336 -37.935456 -34.294553 9
-8.860646 -37.971659 -34.242272 9
-11.459640 -38.013897 -34.193545 9
-14.058511 -38.065922 -34.148921 9
-16.658806 -38.087914 -34.102496 9
-19.259886 -38.124711 -34.060898 9
-21.856008 -38.283818 -34.040100 9
-24.460955 -38.299192 -34.000591 9
-27.069263 -38.309117 -33.962883 9
-29.680523 -38.326115 -33.928840 9
-32.293545 -38.365902 -33.900804 9
-34.908427 -38.425649 -33.878364 9
-37.531170 -38.450904 -33.853394 9
-40.161451 -38.456552 -33.828109 9
-42.795528 -38.479055 -33.807959 9
-45.453990 -38.373034 -33.771206 9
-48.871491 -33.319052 -32.996497 9
-50.971021 -37.095868 -33.546064 9
-53.907396 -35.600250 -33.308997 9
-56.978479 -33.574142 -32.995005 9
-60.169433 -31.181815 -32.628715 9
-63.394782 -28.906170 -32.282548 9
-67.051297 -24.858179 -31.673482 9
-70.608432 -21.678603 -31.197381 8
-73.495772 -21.719258 -31.206797 8
-76.414727 -21.677945 -31.206842 8
-79.343892 -21.651906 -31.212112 8
-82.283742 -21.639895 -31.222442 8
-85.241516 -21.616082 -31.233986 8
-88.214488 -21.593644 -31.248746 8
-91.198225 -21.589745 -31.269314 8
-94.206752 -21.558551 -31.288865 8
-97.235140 -21.520606 -31.310506 8
-100.285149 -21.473293 -31.333882 8
-103.349520 -21.441220 -31.362700 8
-106.633188 -20.834306 -31.309050 8
-116.892055 -0.822154 -28.369415 7
-118.124244 -6.536207 -29.265791 7
-121.454555 -6.453535 -29.302564 7
-124.851669 -6.264436 -29.327104 7
-128.266993 -6.100846 -29.359077 7
-131.712836 -5.933106 -29.394136 7
-135.191625 -5.758029 -29.431869 7
-138.706936 -5.570191 -29.471543 7
-142.277732 -5.330390 -29.507455 7
-145.881200 -5.094501 -29.547931 7
-149.511157 -4.877635 -29.595258 7
108.765337 -16.895495 -32.587680 5
104.644606 -19.211957 -32.735306 5
101.354457 -19.529843 -32.602351 5
98.132462 -19.740534 -32.458245 5
94.933985 -19.956932 -32.319088 5
91.756094 -20.185712 -32.185787 5
88.608171 -20.397727 -32.054025 5
85.495620 -20.572297 -31.920668 5
82.392341 -20.786350 -31.796916 5
79.316785 -20.980798 -31.674031 5
76.258432 -21.186988 -31.556569 5
73.228680 -21.363402 -31.438305 5
70.233823 -21.480976 -31.314794 5
65.791958 -27.189710 -32.032477 9
62.244045 -29.866786 -32.303118 9
58.792889 -32.424016 -32.561305 9
55.407715 -34.974566 -32.823856 9
53.473450 -31.246635 -32.139482 9
49.205244 -38.280570 -33.091557 9
46.373066 -38.921562 -33.077515 9
43.637795 -39.173133 -33.007280 9
40.943396 -39.277326 -32.917442 9
38.269253 -39.325816 -32.821877 9
35.593545 -39.440647 -32.739292 9
32.938404 -39.484882 -32.648579 9
30.280277 -39.606979 -32.572611 9
27.640671 -39.656786 -32.488146 9
25.005439 -39.729123 -32.409824 9
22.379140 -39.784674 -32.331514 9
19.762222 -39.809380 -32.250980 9
17.143372 -39.911083 -32.185038 9
14.535693 -39.952124 -32.112163 9
11.932814 -39.989279 -32.041192 9
9.333368 -40.034972 -31.974056 9
6.737833 -40.076035 -31.908669 9
4.146093 -40.101258 -31.843240 9
1.555841 -40.151612 -31.784218 9
-1.032918 -40.237995 -31.733329 9
-3.618136 -40.258042 -31.674357 9
-6.202762 -40.333077 -31.626504 9
-8.786376 -40.322461 -31.567436 9
-11.369383 -40.398290 -31.524481 9
-13.953444 -40.408957 -31.473521 9
-16.536681 -40.478303 -31.434268 9
-19.123506 -40.477499 -31.386167 9
-21.710865 -40.510218 -31.345755 9
-24.299008 -40.564431 -31.311116 9
-26.893231 -40.565489 -31.270296 9
-29.491440 -40.563096 -31.231237 9
-32.088463 -40.619263 -31.203892 9
-34.693834 -40.628775 -31.171379 9
-37.302200 -40.655786 -31.143995 9
-39.915913 -40.680761 -31.118604 9
-42.537940 -40.685344 -31.092253 9
-45.158492 -40.746268 -31.077297 9
-47.842680 -40.426629 -31.003350 9
-50.619944 -39.617537 -30.852775 9
-53.472025 -38.513777 -30.656904 9
-56.524066 -36.478229 -30.312920 9
-59.636404 -34.389261 -29.962487 9
-62.780261 -32.401259 -29.630589 9
-66.027088 -30.166162 -29.261100 9
-70.520213 -22.570733 -28.028335 8
-73.413355 -22.584167 -28.026722 8
-76.319027 -22.596998 -28.027594 8
-79.244606 -22.582495 -28.026649 8
-82.176170 -22.599149 -28.033355 8
-85.122328 -22.614221 -28.042442 8
-88.085359 -22.622100 -28.053025 8
-91.063653 -22.631226 -28.066490 8
-94.066599 -22.612842 -28.078221 8
-97.089462 -22.586873 -28.091463 8
-100.127754 -22.569951 -28.108924 8
-103.218390 -22.453743 -28.113178 8
-106.478384 -21.913018 -28.051910 8
-116.888233 -1.519816 -24.798670 7
-116.888792 -10.562795 -26.286850 7
-119.044111 -13.479922 -26.791541 7
-122.326354 -13.413437 -26.819466 7
-125.627521 -13.362879 -26.853056 7
-128.963765 -13.290050 -26.886226 7
-132.320245 -13.233714 -26.925239 7
-135.717182 -13.148392 -26.962863 7
-139.154627 -13.038308 -26.999837 7
-142.608303 -12.960237 -27.045290 7
-146.101784 -12.863955 -27.091255 7
-149.640808 -12.741071 -27.136468 7
148.580212 -6.026400 -29.387819 6
144.649016 -6.601207 -29.252539 6
140.777679 -7.150748 -29.118983 6
136.963555 -7.675964 -28.987108 6
133.206223 -8.173291 -28.856204 6
129.518173 -8.610796 -28.721254 6
125.866692 -9.054336 -28.592056 6
122.272348 -9.454711 -28.460991 6
118.720828 -9.839613 -28.332126 6
116.902215 -6.117692 -27.574601 6
106.930982 -22.518612 -29.930845 5
103.293800 -23.721615 -29.949239 5
100.063781 -23.982494 -29.825701 5
96.871251 -24.215882 -29.701666 5
93.719696 -24.407202 -29.574721 5
90.573891 -24.651614 -29.459727 5
87.463407 -24.864030 -29.343245 5
84.374811 -25.080159 -29.230825 5
81.319573 -25.261614 -29.116298 5
78.273837 -25.480693 -29.011097 5
75.248110 -25.703301 -28.909757 5
72.258341 -25.871123 -28.802860 5
69.277411 -26.074647 -28.704852 5
65.127912 -30.794844 -29.339634 9
61.692239 -33.128683 -29.594922 9
58.307188 -35.504915 -29.861921 9
55.015020 -37.743118 -30.111192 9
51.849312 -39.668975 -30.313993 9
48.890583 -40.853421 -30.399617 9
46.115283 -41.298008 -30.367346 9
43.409844 -41.475450 -30.293999 9
40.735494 -41.551861 -30.206610 9
38.059687 -41.696144 -30.132935 9
35.410832 -41.741810 -30.045453 9
32.768582 -41.800199 -29.962500 9
30.131843 -41.878117 -29.885192 9
27.511810 -41.891260 -29.799479 9
24.890213 -41.969567 -29.726959 9
22.284694 -41.968562 -29.643511 9
19.671928 -42.088499 -29.582585 9
17.073341 -42.131150 -29.511000 9
14.479484 -42.177409 -29.442267 9
11.892329 -42.195193 -29.370966 9
9.306427 -42.250044 -29.308109 9
6.725590 -42.282174 -29.243608 9
4.146834 -42.333892 -29.184587 9
1.570805 -42.389430 -29.128373 9
-1.002767 -42.445288 -29.074360 9
-3.573580 -42.449643 -29.013728 9
-6.144011 -42.488144 -28.961002 9
-8.713829 -42.498898 -28.905650 9
-11.283345 -42.547487 -28.858827 9
-13.854549 -42.525665 -28.802065 9
-16.425253 -42.571600 -28.758933 9
-18.996647 -42.623482 -28.718883 9
-21.572661 -42.613315 -28.670263 9
-24.148155 -42.658306 -28.633135 9
-26.727446 -42.683664 -28.594682 9
-29.307918 -42.733566 -28.562480 9
-31.889304 -42.808177 -28.536567 9
-34.487521 -42.749703 -28.489794 9
-37.078376 -42.812724 -28.465950 9
-39.684817 -42.783994 -28.428331 9
-42.290677 -42.810164 -28.402195 9
-44.892312 -42.908897 -28.390610 9
-47.566415 -42.564322 -28.304529 9
-50.306519 -41.901301 -28.165399 9
-53.163933 -40.679965 -27.931693 9
-56.141585 -38.979733 -27.617035 9
-59.195099 -37.110459 -27.274961 9
-62.298133 -35.231413 -26.933048 9
-65.472998 -33.242414 -26.574007 9
-70.044061 -25.206167 -25.169820 8
-72.922589 -25.203573 -25.158527 8
-75.801436 -25.251875 -25.158285 8
-78.706410 -25.245297 -25.150787 8
-81.626173 -25.235656 -25.145022 8
-84.553032 -25.253665 -25.146326 8
-87.497001 -25.263315 -25.148479 8
-90.454836 -25.278685 -25.153937 8
-93.440479 -25.255715 -25.155087 8
-96.434954 -25.260426 -25.163388 8
-99.466696 -25.205219 -25.163689 8
-102.516335 -25.155291 -25.167310 8
-105.916664 -24.157173 -25.009252 8
-111.244148 -17.912397 -23.946009 8
-116.894565 -11.222104 -22.809075 7
-117.396061 -18.477651 -24.086561 7
-120.655019 -18.356255 -24.090849 7
-123.898438 -18.338597 -24.115707 7
-127.185449 -18.275853 -24.135459 7
-130.497269 -18.217735 -24.158728 7
-133.833186 -18.167588 -24.186132 7
-137.195882 -18.120904 -24.216931 7
-140.575292 -18.101321 -24.255235 7
-144.026067 -17.993345 -24.281223 7
-147.520667 -17.862344 -24.306212 7
149.009925 -13.223194 -26.919452 6
145.246986 -13.534423 -26.766847 6
141.525547 -13.846118 -26.618916 6
137.856747 -14.133409 -26.471518 6
134.242865 -14.387335 -26.323043 6
130.678348 -14.614720 -26.174445 6
127.124538 -14.895021 -26.038614 6
123.615817 -15.153460 -25.903244 6
120.163616 -15.359810 -25.763210 6
116.904061 -15.188208 -25.564294 6
111.639601 -19.900790 -26.181509 5
105.469248 -27.181968 -27.236347 5
102.060663 -27.902778 -27.203392 5
98.898170 -28.078882 -27.082809 5
95.781214 -28.200487 -26.956303 5
92.678962 -28.346125 -26.837005 5
89.593274 -28.510475 -26.723990 5
86.534046 -28.663774 -26.612163 5
83.494192 -28.824295 -26.504569 5
80.488975 -28.942211 -26.392639 5
77.507045 -29.047859 -26.281464 5
74.534494 -29.184678 -26.178449 5
71.590474 -29.286470 -26.072172 5
68.668000 -29.372256 -25.965829 5
64.637921 -33.716797 -26.600214 9
61.259740 -35.898862 -26.865077 9
57.949057 -38.041388 -27.127292 9
54.688725 -40.208942 -27.397985 9
51.584824 -41.924949 -27.593728 9
48.719246 -42.735538 -27.634342 9
45.908302 -43.408322 -27.653595 9
43.240967 -43.455864 -27.565469 9
40.583716 -43.503733 -27.479604 9
37.932282 -43.573692 -27.399820 9
35.290749 -43.641457 -27.321808 9
32.659083 -43.703431 -27.244903 9
30.039751 -43.737509 -27.165141 9
27.425931 -43.785115 -27.089848 9
24.818491 -43.838404 -27.017615 9
22.217003 -43.898309 -26.948589 9
19.633332 -43.846677 -26.861607 9
17.039377 -43.944904 -26.803415 9
14.456601 -43.982505 -26.736325 9
11.875994 -44.051346 -26.676790 9
9.302297 -44.083965 -26.612666 9
6.732785 -44.102456 -26.547892 9
4.164231 -44.160021 -26.492052 9
1.600085 -44.175994 -26.430569 9
-0.963568 -44.241156 -26.379840 9
-3.525214 -44.319338 -26.333328 9
-6.084271 -44.280823 -26.267477 9
-8.643641 -44.335355 -26.220325 9
-11.203149 -44.337843 -26.165516 9
-13.762795 -44.370554 -26.117998 9
-16.317719 -44.564256 -26.101628 9
-18.878387 -44.581909 -26.054956 9
-21.438146 -44.653184 -26.019848 9
-24.002809 -44.668582 -25.976295 9
-26.568854 -44.705196 -25.938379 9
-29.135279 -44.773227 -25.907973 9
-31.715911 -44.718576 -25.856823 9
-34.291406 -44.769849 -25.826836 9
-36.876409 -44.773151 -25.789782 9
-39.463452 -44.805091 -25.759725 9
-42.059937 -44.806918 -25.725866 9
-44.676187 -44.715749 -25.676616 9
-47.319188 -44.507181 -25.607447 9
-50.037743 -43.904968 -25.467403 9
-52.853373 -42.855888 -25.246551 9
-56.715515 -36.224957 -23.997182 9
-58.853393 -39.306766 -24.541604 9
-61.897858 -37.649655 -24.213016 9
-65.057948 -35.655949 -23.823763 9
-69.509030 -28.098685 -22.407559 8
-72.358223 -28.131448 -22.395793 8
-75.236263 -28.094579 -22.373041 8
-78.113545 -28.115679 -22.362911 8
-81.005016 -28.133640 -22.354112 8
-83.919147 -28.120216 -22.341427 8
-86.840121 -28.136603 -22.336196 8
-89.770073 -28.174585 -22.336914 8
-92.742539 -28.124518 -22.323292 8
-95.716724 -28.126178 -22.321228 8
-98.700366 -28.152982 -22.325819 8
-101.715883 -28.138343 -22.324749 8
-104.929829 -27.611247 -22.230824 8
-109.172252 -24.315851 -21.626426 8
-116.890380 -11.908021 -19.337388 7
-117.114061 -19.881677 -20.823686 7
-119.565576 -21.799887 -21.191027 7
-122.780353 -21.783967 -21.202589 7
-126.031381 -21.740353 -21.211257 7
-129.293401 -21.732393 -21.228778 7
-132.605068 -21.671288 -21.238766 7
-135.918101 -21.670326 -21.262191 7
-139.302292 -21.576053 -21.270742 7
-142.671580 -21.578987 -21.299636 7
-146.092776 -21.536634 -21.322603 7
-149.543495 -21.499265 -21.348962 7
146.120504 -19.707286 -24.268884 6
142.503527 -19.863657 -24.115211 6
138.925818 -20.016609 -23.964733 6
135.373469 -20.191485 -23.821787 6
131.874023 -20.330947 -23.676267 6
128.391359 -20.506166 -23.540556 6
124.971717 -20.617639 -23.397066 6
121.580322 -20.735236 -23.257988 6
118.193995 -20.909947 -23.132321 6
116.968329 -16.106523 -22.122734 6
108.849155 -27.652348 -24.033358 5
104.484726 -30.638032 -24.424429 5
101.239632 -31.011828 -24.351813 5
98.125147 -31.124265 -24.235180 5
95.041254 -31.218670 -24.118064 5
91.961447 -31.364655 -24.013000 5
88.928010 -31.443991 -23.898527 5
85.912714 -31.531289 -23.788090 5
82.910644 -31.640067 -23.684121 5
79.930804 -31.741881 -23.581394 5
76.978017 -31.817992 -23.476415 5
74.020953 -31.969039 -23.387616 5
71.113690 -32.011734 -23.281265 5
68.219552 -32.064484 -23.179059 5
64.244961 -36.254366 -23.844973 9
60.940335 -38.207600 -24.101424 9
57.650237 -40.319510 -24.390981 9
54.437279 -42.339677 -24.667099 9
51.409474 -43.768777 -24.836406 9
48.539249 -44.647435 -24.905781 9
45.787797 -45.080485 -24.894222 9
43.109458 -45.230921 -24.831814 9
40.460894 -45.285578 -24.753363 9
37.820764 -45.347975 -24.678247 9
35.194373 -45.383801 -24.599973 9
32.574021 -45.434800 -24.526381 9
29.962686 -45.479778 -24.453448 9
27.360733 -45.510877 -24.379657 9
24.761339 -45.576087 -24.314089 9
22.174076 -45.595542 -24.241559 9
19.592235 -45.616263 -24.170966 9
17.011059 -45.684351 -24.111088 9
14.439670 -45.701841 -24.043229 9
11.872191 -45.721634 -23.977452 9
9.297402 -45.912448 -23.946066 9
6.739953 -45.904289 -23.878205 9
4.182436 -45.946348 -23.821572 9
1.628380 -45.966065 -23.762233 9
-0.924011 -45.990545 -23.705379 9
-3.475256 -46.032811 -23.653510 9
-6.025096 -46.055748 -23.599463 9
-8.574430 -46.088924 -23.548928 9
-11.123619 -46.118024 -23.499130 9
-13.673653 -46.126102 -23.446776 9
-16.223333 -46.180547 -23.404908 9
-18.776516 -46.172182 -23.352358 9
-21.330865 -46.188085 -23.305997 9
-23.886821 -46.217332 -23.263708 9
-26.447226 -46.222028 -23.218116 9
-29.010530 -46.235270 -23.175650 9
-31.578149 -46.244155 -23.133794 9
-34.143840 -46.315451 -23.105568 9
-36.720120 -46.325631 -23.066877 9
-39.304099 -46.317081 -23.025973 9
-41.889116 -46.348034 -22.994233 9
-44.501561 -46.228165 -22.934426 9
-47.129617 -46.068024 -22.868139 9
-49.822250 -45.576503 -22.738313 9
-52.624721 -44.551993 -22.505295 9
-55.546105 -43.036231 -22.177097 9
-58.579160 -41.147551 -21.776803 9
-61.599540 -39.558878 -21.436497 9
-64.693509 -37.825524 -21.068914 9
-69.083672 -30.491638 -19.601336 8
-71.911241 -30.548009 -19.587653 8
-74.766536 -30.537367 -19.562342 8
-77.628242 -30.554139 -19.543983 8
-80.515528 -30.524949 -19.518138 8
-83.403309 -30.548518 -19.504255 8
-86.313501 -30.544507 -19.486520 8
-89.236857 -30.549266 -19.472102 8
-92.176772 -30.552976 -19.459079 8
-95.135913 -30.549460 -19.446242 8
-98.097392 -30.592969 -19.444304 8
-101.095234 -30.580729 -19.433006 8
-104.204844 -30.304538 -19.371277 8
-110.709435 -20.695342 -17.469469 8
-113.280107 -22.286564 -17.779470 8
-117.162135 -20.420708 -17.408975 7
-118.841777 -24.303233 -18.174735 7
-122.029222 -24.311484 -18.177653 7
-125.240587 -24.320280 -18.182472 7
-128.521173 -24.225879 -18.168743 7
-131.752942 -24.306650 -18.191418 7
-135.065526 -24.264158 -18.191636 7
-138.410236 -24.214808 -18.192391 7
-141.732919 -24.275092 -18.216683 7
-145.109428 -24.283354 -18.232656 7
-148.515160 -24.294642 -18.251196 7
148.609565 -22.736210 -21.289310 6
146.961160 -19.200023 -20.467297 6
141.461827 -22.906613 -20.994861 6
137.913239 -23.048203 -20.862971 6
134.404840 -23.181321 -20.732645 6
130.952235 -23.271070 -20.597232 6
127.515498 -23.395775 -20.471365 6
124.109630 -23.523560 -20.349002 6
120.750978 -23.616292 -20.222851 6
117.416382 -23.721468 -20.101826 6
114.024715 -24.026764 -20.021661 5
107.633381 -31.585239 -21.330531 5
103.756530 -33.443270 -21.556890 5
100.642855 -33.535702 -21.448266 5
97.534047 -33.678554 -21.351742 5
94.489990 -33.713674 -21.236824 5
91.453468 -33.787003 -21.131543 5
88.430789 -33.881991 -21.032696 5
85.423895 -33.992807 -20.939134 5
82.460793 -34.033779 -20.834157 5
79.506284 -34.105993 -20.737355 5
76.570788 -34.176628 -20.642312 5
73.629947 -34.325089 -20.564538 5
70.738291 -34.367578 -20.468019 5
67.362164 -36.220420 -20.729366 9
64.025702 -38.123833 -21.003916 9
60.722667 -40.104877 -21.296995 9
57.492158 -42.010320 -21.578324 9
54.310292 -43.928212 -21.865192 9
51.287221 -45.366060 -22.059838 9
48.416841 -46.279862 -22.152966 9
45.688549 -46.639540 -22.138014 9
43.029728 -46.729097 -22.071027 9
40.393230 -46.757255 -21.993399 9
37.766121 -46.784682 -21.917184 9
35.145232 -46.827425 -21.845573 9
32.535394 -46.853708 -21.772182 9
29.921852 -46.959224 -21.716204 9
27.325762 -46.999768 -21.648670 9
24.739323 -47.018630 -21.578225 9
22.158888 -47.037854 -21.509282 9
19.580415 -47.091724 -21.448751 9
17.011054 -47.110055 -21.382440 9
14.443568 -47.160550 -21.324021 9
11.884401 -47.162973 -21.257227 9
9.327465 -47.182329 -21.195209 9
6.771863 -47.235536 -21.141405 9
4.221856 -47.239465 -21.078900 9
1.673874 -47.241247 -21.017253 9
-0.873577 -47.279126 -20.964254 9
-3.419050 -47.298190 -20.908698 9
-5.963634 -47.311193 -20.853168 9
-8.507831 -47.350940 -20.804366 9
-11.052118 -47.360093 -20.750546 9
-13.596426 -47.398852 -20.704031 9
-16.141159 -47.443011 -20.659858 9
-18.690430 -47.404864 -20.599991 9
-21.236200 -47.489643 -20.566605 9
-23.789104 -47.478709 -20.514730 9
-26.341813 -47.517679 -20.474325 9
-28.899757 -47.528850 -20.429378 9
-31.460581 -47.551614 -20.388002 9
-34.023324 -47.596615 -20.352398 9
-36.592498 -47.622133 -20.313942 9
-39.168206 -47.636001 -20.274242 9
-41.751443 -47.636994 -20.233032 9
-44.336268 -47.673000 -20.200234 9
-46.970391 -47.427429 -20.110171 9
-49.660266 -46.915874 -19.965953 9
-52.419965 -46.106494 -19.760853 9
-55.338541 -44.564416 -19.404336 9
-58.322024 -42.895752 -19.022221 9
-61.357378 -41.187225 -18.632534 9
-64.449734 -39.423972 -18.232185 9
-68.762044 -32.414314 -16.739105 8
-71.596615 -32.392062 -16.702743 8
-74.438956 -32.391283 -16.672071 8
-77.286229 -32.422881 -16.649375 8
-80.154389 -32.425139 -16.621780 8
-83.035676 -32.431830 -16.596336 8
-85.930195 -32.444310 -16.573333 8
-88.846022 -32.436928 -16.547413 8
-91.771874 -32.450598 -16.527137 8
-94.726768 -32.425545 -16.500005 8
-97.679546 -32.462376 -16.487081 8
-100.662054 -32.463537 -16.467952 8
-103.685680 -32.401925 -16.436942 8
-107.295872 -30.777723 -16.079720 8
-113.837270 -21.444688 -14.107567 8
-117.070305 -21.324614 -14.067585 7
-118.277342 -26.394811 -15.117529 7
-121.466276 -26.367394 -15.099924 7
-124.661257 -26.385219 -15.093175 7
-127.873650 -26.420230 -15.091414 7
-131.123661 -26.427283 -15.085182 7
-134.425171 -26.379895 -15.068935 7
-137.742910 -26.360139 -15.059914 7
-141.072154 -26.377918 -15.060218 7
-144.434779 -26.387740 -15.060315 7
-147.831546 -26.390697 -15.060456 7
147.841432 -25.180703 -18.068602 6
144.251875 -25.290967 -17.945192 6
140.709864 -25.382183 -17.820717 6
137.217323 -25.446943 -17.693599 6
133.746816 -25.535722 -17.573849 6
130.308328 -25.627670 -17.457252 6
126.898675 -25.727450 -17.344692 6
123.510752 -25.848668 -17.238867 6
120.196355 -25.876737 -17.116577 6
117.151602 -25.358973 -16.885894 6
112.883470 -27.712901 -17.240208 5
106.864540 -34.429151 -18.486628 5
103.286561 -35.600301 -18.609741 5
100.198864 -35.661046 -18.508831 5
97.127557 -35.740336 -18.413677 5
94.079871 -35.818372 -18.320195 5
91.063540 -35.871598 -18.223501 5
88.067775 -35.926111 -18.128902 5
85.087318 -35.995246 -18.039114 5
82.124305 -36.071779 -17.952622 5
79.191007 -36.115870 -17.861147 5
76.271942 -36.171936 -17.773836 5
73.386377 -36.174457 -17.677050 5
70.508095 -36.206224 -17.587938 5
67.142644 -38.050378 -17.878385 9
63.824646 -39.915574 -18.176014 9
60.553945 -41.801471 -18.480716 9
57.333791 -43.693915 -18.789487 9
54.212638 -45.384628 -19.058562 9
51.210826 -46.752065 -19.262142 9
48.369704 -47.554234 -19.348923 9
45.621524 -48.033581 -19.369453 9
42.986842 -48.030703 -19.289744 9
40.353346 -48.071157 -19.220459 9
37.734060 -48.084840 -19.146774 9
35.122633 -48.102282 -19.075117 9
32.514922 -48.147719 -19.010617 9
29.915244 -48.193558 -18.947415 9
27.328377 -48.200593 -18.877143 9
24.742624 -48.249492 -18.816948 9
22.168069 -48.258775 -18.749457 9
19.598748 -48.269533 -18.683402 9
17.030430 -48.321827 -18.627339 9
14.473099 -48.306702 -18.557946 9
11.912744 -48.378301 -18.508215 9
9.360380 -48.399286 -18.448707 9
6.813837 -48.373302 -18.380157 9
4.265777 -48.421472 -18.328580 9
1.721259 -48.449578 -18.273719 9
-0.821702 -48.493856 -18.223364 9
-3.361943 -48.481187 -18.161728 9
-5.902297 -48.528391 -18.114006 9
-8.441928 -48.516694 -18.054533 9
-10.981048 -48.590560 -18.014544 9
-13.521722 -48.575226 -17.956201 9
-16.062584 -48.604037 -17.908371 9
-18.604787 -48.631057 -17.861095 9
-21.150877 -48.618092 -17.806061 9
-23.696849 -48.654904 -17.762766 9
-26.245282 -48.692331 -17.720528 9
-28.798675 -48.705649 -17.673948 9
-31.355673 -48.722320 -17.628997 9
-33.916940 -48.739556 -17.585061 9
-36.481489 -48.770219 -17.544945 9
-39.050186 -48.807933 -17.507256 9
-41.629549 -48.805603 -17.461684 9
-44.208826 -48.850526 -17.427324 9
-46.821499 -48.717285 -17.354783 9
-49.509966 -48.181496 -17.194746 9
-52.269282 -47.345446 -16.969470 9
-55.163909 -45.909880 -16.613072 9
-58.142129 -44.240508 -16.205677 9
-61.166752 -42.558861 -15.795926 9
-64.248827 -40.818447 -15.373592 9
-67.368545 -39.119260 -14.960692 9
-71.343190 -33.970531 -13.787787 8
-74.182102 -33.951628 -13.745801 8
-77.011492 -34.023239 -13.724668 8
-79.906437 -33.894267 -13.660137 8
-82.759224 -33.980008 -13.643898 8
-85.647556 -33.987945 -13.611360 8
-88.556465 -33.978910 -13.575951 8
-91.472669 -33.999930 -13.548075 8
-94.398212 -34.043681 -13.526122 8
-97.351478 -34.054236 -13.497710 8
-100.316085 -34.084927 -13.474653 8
-103.333860 -34.016943 -13.430611 8
-108.939315 -26.871980 -11.817208 8
-111.506426 -28.336956 -12.114514 8
-117.158472 -21.760012 -10.627111 7
-117.942469 -27.900473 -11.964828 7
-121.113848 -27.900379 -11.939809 7
-124.312824 -27.892622 -11.914028 7
-127.530405 -27.900726 -11.892720 7
-130.774393 -27.907830 -11.872146 7
-134.043418 -27.919048 -11.853452 7
-137.350595 -27.907934 -11.830757 7
-140.674926 -27.922142 -11.814681 7
-144.028344 -27.937488 -11.799851 7
-147.424547 -27.928641 -11.780630 7
147.272330 -27.253215 -14.812765 6
143.726359 -27.304473 -14.697374 6
140.224172 -27.341194 -14.581038 6
136.747421 -27.395643 -14.470550 6
133.309331 -27.440628 -14.360081 6
129.897122 -27.499218 -14.254497 6
126.526627 -27.537214 -14.146446 6
123.173363 -27.603174 -14.046270 6
119.871073 -27.623074 -13.938051 6
117.175239 -26.340700 -13.551254 6
111.869246 -31.083786 -14.464668 5
106.473736 -36.359768 -15.498546 5
102.969128 -37.374380 -15.615741 5
99.879827 -37.462274 -15.534325 5
96.839563 -37.485995 -15.440543 5
93.822773 -37.505657 -15.347366 5
90.809738 -37.572806 -15.265989 5
87.823709 -37.624023 -15.182588 5
84.876514 -37.621096 -15.088762 5
81.937513 -37.648788 -15.002982 5
79.017342 -37.674889 -14.918187 5
76.093683 -37.768888 -14.849605 5
73.211430 -37.786008 -14.765437 5
70.351033 -37.783045 -14.678090 5
67.082530 -39.299111 -14.926988 9
63.746939 -41.238344 -15.271485 9
60.525508 -42.945225 -15.566939 9
57.317328 -44.795110 -15.896227 9
54.156223 -46.660403 -16.231134 9
51.169528 -47.977063 -16.446365 9
48.342883 -48.729429 -16.537910 9
45.617008 -49.117709 -16.549827 9
42.959286 -49.248387 -16.505516 9
40.331749 -49.280687 -16.440282 9
37.712041 -49.321969 -16.378019 9
35.115223 -49.279546 -16.297976 9
32.510552 -49.331962 -16.240068 9
29.921486 -49.333750 -16.171726 9
27.339410 -49.333677 -16.103845 9
24.756842 -49.387160 -16.048868 9
22.184006 -49.414996 -15.988992 9
19.616310 -49.448903 -15.931330 9
17.056073 -49.461308 -15.869651 9
14.503268 -49.439348 -15.801020 9
11.947518 -49.500931 -15.752058 9
9.400550 -49.497413 -15.689166 9
6.856286 -49.494960 -15.627278 9
4.312295 -49.537282 -15.576296 9
1.770843 -49.584937 -15.527283 9
-0.766243 -49.555398 -15.461476 9
-3.303471 -49.558461 -15.403788 9
-5.840438 -49.609500 -15.357732 9
-8.376522 -49.618373 -15.302781 9
-10.912901 -49.624387 -15.247866 9
-13.449549 -49.652167 -15.198598 9
-15.987313 -49.670860 -15.147928 9
-18.526682 -49.686158 -15.097145 9
-21.066817 -49.724609 -15.052315 9
-23.612016 -49.714453 -14.996996 9
-26.158653 -49.731728 -14.948594 9
-28.708534 -49.750495 -14.901160 9
-31.262811 -49.762962 -14.852898 9
-33.820478 -49.785441 -14.807547 9
-36.385437 -49.784903 -14.757502 9
-38.953541 -49.804744 -14.712741 9
-41.527301 -49.825120 -14.668692 9
-44.619042 -46.260380 -13.797819 9
-46.719558 -49.698318 -14.543635 9
-49.397564 -49.212848 -14.384353 9
-52.156095 -48.366042 -14.141860 9
-55.056365 -46.887120 -13.753270 9
-58.001591 -45.379627 -13.358086 9
-62.401857 -36.929089 -11.353048 9
-64.082259 -42.049938 -12.494755 9
-67.186294 -40.403296 -12.067275 9
-71.173845 -35.187470 -10.810375 8
-73.988953 -35.248780 -10.779455 8
-76.828020 -35.262981 -10.738137 8
-79.693614 -35.228295 -10.685980 8
-82.554362 -35.265976 -10.651211 8
-85.424028 -35.322332 -10.621342 8
-88.325656 -35.320191 -10.578369 8
-91.242496 -35.322035 -10.536852 8
-94.179664 -35.313571 -10.493449 8
-97.114461 -35.366616 -10.464943 8
-100.092708 -35.343094 -10.419057 8
-103.108234 -35.269722 -10.362007 8
-106.479975 -34.275591 -10.089765 8
-111.131664 -29.979261 -9.043747 8
-117.100934 -22.574439 -7.267989 7
-117.742452 -29.062929 -8.751026 7
-120.911314 -29.062672 -8.712770 7
-124.105153 -29.061210 -8.674746 7
-127.301834 -29.111944 -8.649507 7
-130.543884 -29.116861 -8.614019 7
-133.818577 -29.109477 -8.576151 7
-137.104507 -29.138592 -8.547389 7
-140.443881 -29.115398 -8.506825 7
-143.788507 -29.143917 -8.478959 7
-147.178840 -29.142077 -8.444455 7
147.065582 -28.663993 -11.441446 6
143.515860 -28.728686 -11.348534 6
140.004928 -28.789197 -11.256306 6
136.542792 -28.823639 -11.159772 6
133.124132 -28.838386 -11.060300 6
129.741246 -28.845379 -10.960536 6
126.363030 -28.906448 -10.874460 6
123.023215 -28.951695 -10.786209 6
119.711048 -29.001185 -10.700296 6
117.179084 -27.365315 -10.231552 6
111.398701 -33.183494 -11.464625 5
106.207704 -37.986472 -12.470756 5
102.783338 -38.820712 -12.572603 5
99.707006 -38.889965 -12.500738 5
96.677116 -38.901062 -12.416670 5
93.657183 -38.943350 -12.340860 5
91.837425 -35.767560 -11.525199 5
87.714592 -38.934716 -12.170958 5
84.772881 -38.928799 -12.087146 5
81.834469 -38.968054 -12.014747 5
78.915538 -39.004666 -11.942711 5
76.033886 -38.978997 -11.857191 5
73.149974 -39.013521 -11.786528 5
70.278664 -39.061401 -11.719872 5
67.231218 -39.796845 -11.814055 9
63.724656 -42.350245 -12.332927 9
60.507622 -44.044613 -12.653729 9
57.282389 -45.967492 -13.029615 9
54.178901 -47.598614 -13.339128 9
51.187571 -48.936539 -13.581658 9
48.365580 -49.672277 -13.684542 9
45.651187 -50.011175 -13.695437 9
42.991159 -50.158929 -13.662307 9
40.361566 -50.209512 -13.607075 9
37.753897 -50.191332 -13.536335 9
35.148306 -50.208210 -13.474479 9
32.550295 -50.228373 -13.414023 9
29.953404 -50.293324 -13.364756 9
27.378568 -50.254961 -13.291691 9
24.797721 -50.307942 -13.240794 9
22.227361 -50.329042 -13.182933 9
19.665887 -50.319703 -13.118414 9
17.109173 -50.308434 -13.053967 9
14.550178 -50.371115 -13.007604 9
12.000697 -50.374839 -12.947760 9
9.456038 -50.356928 -12.883265 9
6.912467 -50.364175 -12.825241 9
4.370068 -50.400757 -12.774690 9
1.831994 -50.390480 -12.713431 9
-0.706115 -50.428671 -12.664200 9
-3.242087 -50.441808 -12.609434 9
-5.777215 -50.442636 -12.552154 9
-8.312287 -50.443389 -12.495275 9
-10.847428 -50.469997 -12.445005 9
-13.382686 -50.507331 -12.397719 9
-15.917702 -50.570765 -12.357109 9
-18.455662 -50.579073 -12.303644 9
-20.995347 -50.595103 -12.252409 9
-23.539143 -50.584726 -12.195176 9
-26.083281 -50.617006 -12.148574 9
-28.631305 -50.639482 -12.099958 9
-31.186383 -50.626300 -12.043067 9
-33.745416 -50.622705 -11.988809 9
-36.307719 -50.636510 -11.939072 9
-38.873260 -50.667707 -11.893855 9
-41.448706 -50.665853 -11.840935 9
-44.027995 -50.683820 -11.793108 9
-46.658763 -50.409655 -11.674634 9
-49.329233 -49.973095 -11.516856 9
-52.092824 -49.097631 -11.252419 9
-54.955506 -47.827013 -10.891702 9
-57.910136 -46.263962 -10.459488 9
-60.932492 -44.574720 -9.996129 9
-63.998523 -42.893142 -9.534207 9
-67.103595 -41.242230 -9.079340 9
-71.063264 -36.152619 -7.783660 8
-73.892848 -36.148557 -7.730065 8
-76.742649 -36.117599 -7.670092 8
-79.590187 -36.149583 -7.625726 8
-82.449456 -36.189096 -7.583410 8
-85.339553 -36.171183 -7.527203 8
-88.239409 -36.174761 -7.476442 8
-91.148984 -36.199876 -7.431141 8
-94.091006 -36.175493 -7.373837 8
-97.035013 -36.200589 -7.328852 8
-99.996112 -36.228331 -7.284671 8
-103.015511 -36.143834 -7.212970 8
-106.333048 -35.301020 -6.954303 8
-112.818200 -26.127735 -4.638930 8
-117.101884 -23.237448 -3.872475 7
-117.685017 -29.865344 -5.458316 7
-120.854200 -29.868001 -5.407471 7
-124.043494 -29.881116 -5.359305 7
-127.253038 -29.905562 -5.314032 7
-130.493591 -29.918261 -5.265926 7
-133.770128 -29.911247 -5.212995 7
-137.073955 -29.906626 -5.160711 7
-140.406707 -29.902864 -5.108683 7
-143.764630 -29.909578 -5.059297 7
-147.156873 -29.909940 -5.008359 7
147.004635 -29.809035 -8.021906 6
143.488847 -29.811777 -7.933831 6
139.982505 -29.862872 -7.858350 6
136.529458 -29.879212 -7.775623 6
133.112659 -29.889607 -7.692478 6
129.736053 -29.883443 -7.606336 6
126.383417 -29.890858 -7.524383 6
123.039604 -29.942861 -7.454047 6
121.190594 -26.805630 -6.617942 6
117.207409 -28.333661 -6.903730 6
111.408318 -34.171925 -8.229915 5
106.179319 -39.046754 -9.327815 5
102.783696 -39.811062 -9.436357 5
99.696816 -39.907553 -9.384561 5
96.683001 -39.879694 -9.303420 5
93.661390 -39.927721 -9.241343 5
90.673539 -39.943400 -9.172107 5
87.714644 -39.935026 -9.097681 5
84.752370 -39.991733 -9.039702 5
81.840217 -39.957813 -8.960295 5
78.920327 -40.000669 -8.900169 5
76.024628 -40.024005 -8.835871 5
73.149319 -40.036033 -8.769374 5
70.288464 -40.053583 -8.704766 5
67.100168 -41.293056 -8.939772 9
63.800727 -43.094998 -9.313725 9
60.571239 -44.827018 -9.671919 9
57.390301 -46.562674 -10.032337 9
54.262344 -48.280323 -10.389639 9
51.268017 -49.620500 -10.655350 9
48.423099 -50.453297 -10.797177 9
45.707546 -50.796148 -10.819025 9
43.064417 -50.857864 -10.772045 9
40.438305 -50.885448 -10.717028 9
37.825744 -50.889540 -10.656566 9
35.220570 -50.899671 -10.597937 9
32.621533 -50.921685 -10.542581 9
30.026588 -50.968507 -10.493697 9
27.445691 -50.968870 -10.433605 9
24.870105 -50.976878 -10.375697 9
22.301961 -50.971904 -10.314841 9
19.738974 -50.967134 -10.254295 9
17.175880 -51.012304 -10.206439 9
14.618892 -51.047060 -10.156247 9
12.069417 -51.042516 -10.096490 9
9.522206 -51.052929 -10.040684 9
6.979021 -51.046469 -9.980869 9
4.435354 -51.099285 -9.936080 9
1.896400 -51.104338 -9.879535 9
-0.642883 -51.180256 -9.840931 9
-3.177849 -51.146182 -9.774922 9
-5.713231 -51.150035 -9.718574 9
-8.248576 -51.127701 -9.655786 9
-10.783710 -51.187307 -9.613734 9
-13.320859 -51.146916 -9.546646 9
-15.857732 -51.180446 -9.498280 9
-18.397695 -51.169136 -9.438717 9
-20.938794 -51.184137 -9.385880 9
-23.483651 -51.178750 -9.327975 9
-26.029559 -51.205071 -9.278155 9
-28.576069 -51.262820 -9.236360 9
-31.132039 -51.251513 -9.177141 9
-33.693207 -51.237486 -9.117263 9
-36.256127 -51.256330 -9.065749 9
-38.829652 -51.231925 -9.003272 9
-41.404790 -51.245453 -8.950435 9
-43.984406 -51.272366 -8.901005 9
-46.599872 -51.108515 -8.802984 9
-49.266873 -50.696613 -8.641633 9
-52.024448 -49.858527 -8.371327 9
-54.900018 -48.519334 -7.972642 9
-57.876168 -46.851513 -7.489316 9
-60.887791 -45.226746 -7.016196 9
-63.961688 -43.517493 -6.520646 9
-67.078474 -41.824982 -6.028535 9
-71.042384 -36.736130 -4.664515 8
-73.879518 -36.711296 -4.597998 8
-76.721734 -36.720556 -4.540099 8
-79.574743 -36.740831 -4.484893 8
-82.442501 -36.758893 -4.428971 8
-85.336287 -36.738117 -4.362886 8
-88.241224 -36.734601 -4.301061 8
-91.153897 -36.759732 -4.246434 8
-94.104456 -36.718785 -4.174546 8
-97.044340 -36.766726 -4.125397 8
-100.006053 -36.802299 -4.072838 8
-104.110232 -33.662721 -3.197837 8
-106.374928 -35.808168 -3.690914 8
-111.010678 -31.581623 -2.531723 8
-117.018436 -24.118848 -0.529999 7
-117.794077 -30.250511 -2.057403 7
-122.164373 -27.342979 -1.236122 7
-125.406799 -27.325305 -1.165503 7
-127.376736 -30.301593 -1.874708 7
-130.639187 -30.280047 -1.803036 7
-133.927916 -30.262200 -1.731927 7
-137.205226 -30.330144 -1.682818 7
-140.547116 -30.321648 -1.613321 7
-143.896320 -30.360392 -1.555741 7
-147.300854 -30.350109 -1.484869 7
147.185091 -30.520689 -4.500598 6
143.664769 -30.522204 -4.430968 6
140.193080 -30.498892 -4.355620 6
136.728470 -30.526378 -4.293576 6
133.310229 -30.529025 -4.225771 6
129.925527 -30.528581 -4.157659 6
126.568236 -30.535250 -4.091798 6
123.249606 -30.523602 -4.021740 6
119.948834 -30.535157 -3.957970 6
117.194735 -29.392365 -3.601967 6
111.519650 -34.926637 -4.940089 5
106.297941 -39.759947 -6.103170 5
102.862362 -40.610995 -6.256501 5
99.826021 -40.577479 -6.185471 5
96.797905 -40.578472 -6.123520 5
93.792956 -40.575658 -6.060889 5
90.798581 -40.600694 -6.005639 5
87.822131 -40.633499 -5.952646 5
84.864635 -40.669676 -5.900778 5
81.946551 -40.646435 -5.833959 5
79.035115 -40.656413 -5.775857 5
76.140195 -40.669424 -5.718744 5
73.259825 -40.690008 -5.663774 5
70.408296 -40.667829 -5.598016 5
67.286491 -41.657266 -5.792376 9
63.982686 -43.449327 -6.193772 9
60.708416 -45.326872 -6.618119 9
57.501363 -47.146439 -7.028498 9
54.375087 -48.840173 -7.407360 9
51.373722 -50.194611 -7.699511 9
48.519429 -51.056465 -7.865118 9
45.796448 -51.424479 -7.903514 9
43.146557 -51.512181 -7.869612 9
40.509356 -51.592069 -7.833786 9
37.896855 -51.592109 -7.777347 9
35.294462 -51.581664 -7.718228 9
32.696327 -51.592614 -7.664687 9
30.104807 -51.609855 -7.612804 9
27.528781 -51.566228 -7.545104 9
24.947571 -51.606221 -7.499149 9
22.788269 -48.089984 -6.526710 9
19.818982 -51.550432 -7.371836 9
17.257316 -51.563982 -7.318931 9
14.698645 -51.596104 -7.270837 9
12.147502 -51.588638 -7.212354 9
9.599911 -51.576196 -7.152501 9
7.053404 -51.591201 -7.099752 9
4.510013 -51.597596 -7.044668 9
1.969699 -51.576545 -6.982290 9
-0.571115 -51.613070 -6.934911 9
-3.109962 -51.635073 -6.883615 9
-5.647760 -51.644372 -6.828860 9
-8.185284 -51.666510 -6.777350 9
-10.723502 -51.633193 -6.711092 9
-13.262244 -51.644907 -6.656531 9
-15.802011 -51.659728 -6.602625 9
-18.343324 -51.674405 -6.548505 9
-20.889406 -51.636899 -6.480406 9
-23.433140 -51.693116 -6.436881 9
-25.986593 -51.645115 -6.365571 9
-28.538838 -51.668538 -6.312941 9
-31.090296 -51.740929 -6.273072 9
-33.658861 -51.678623 -6.197229 9
-36.221515 -51.725848 -6.150199 9
-38.800408 -51.679587 -6.078055 9
-41.376573 -51.707369 -6.025314 9
-43.962567 -51.709343 -5.965413 9
-46.566077 -51.643814 -5.887202 9
-49.240644 -51.199258 -5.707476 9
-52.002021 -50.354971 -5.420416 9
-54.908019 -48.866872 -4.960455 9
-57.881598 -47.236858 -4.461426 9
-60.896326 -45.619030 -3.964483 9
-63.988716 -43.845371 -3.424566 9
-67.106181 -42.174103 -2.910835 9
-71.081875 -37.064512 -1.472256 8
-73.915968 -37.072884 -1.406705 8
-76.775616 -37.033215 -1.327757 8
-79.633507 -37.055593 -1.265014 8
-82.504847 -37.080567 -1.202477 8
-85.406246 -37.052630 -1.125152 8
-88.303901 -37.092416 -1.065567 8
-91.218715 -37.127752 -1.004244 8
-94.180165 -37.069564 -0.917049 8
-97.134556 -37.090650 -0.850709 8
-100.115327 -37.088195 -0.777382 8
-103.145207 -37.002401 -0.680798 8
-106.602988 -35.807928 -0.282220 8
-111.394281 -31.205609 1.044752 8
-117.062603 -24.671663 2.901002 7
-118.020084 -30.345439 1.433868 7
-121.215740 -30.322661 1.518766 7
-124.429584 -30.317003 1.599779 7
-127.652188 -30.350840 1.670798 7
-130.923409 -30.333875 1.756533 7
-134.214844 -30.334036 1.838438 7
-137.539326 -30.324822 1.923796 7
-140.889154 -30.324959 2.007497 7
-144.278850 -30.306501 2.097246 7
-147.715440 -30.259038 2.195955 7
-237.842344 136.518977 48.243559 0
-243.005604 135.739049 48.168929 0
147.597453 -30.820964 -0.865024 6
144.057179 -30.839695 -0.818765 6
140.563580 -30.838663 -0.767276 6
137.095272 -30.855019 -0.720395 6
133.671288 -30.850574 -0.667983 6
130.263688 -30.877556 -0.623894 6
126.897390 -30.884932 -0.574569 6
123.563799 -30.887099 -0.523818 6
120.272657 -30.860401 -0.465332 6
117.199237 -30.411645 -0.294335 6
112.098593 -34.617207 -1.363930 5
106.601501 -40.041398 -2.760130 5
104.558516 -37.521544 -2.037444 5
100.032525 -41.057427 -2.931565 5
96.986843 -41.089795 -2.890260 5
93.979518 -41.080795 -2.837791 5
91.005225 -41.038879 -2.776391 5
88.029450 -41.054927 -2.730380 5
85.081335 -41.048623 -2.678251 5
82.136060 -41.089224 -2.638563 5
79.212828 -41.120363 -2.596202 5
76.318416 -41.117302 -2.544507 5
73.446246 -41.095714 -2.487666 5
70.576005 -41.120457 -2.443109 5
67.476785 -42.010800 -2.631448 9
64.146536 -43.873585 -3.081967 9
60.894311 -45.642716 -3.507762 9
58.884708 -42.663529 -2.652766 9
54.554443 -49.124751 -4.345633 9
51.527393 -50.561765 -4.683125 9
48.687402 -51.334730 -4.841384 9
45.932069 -51.830618 -4.924735 9
43.292438 -51.846914 -4.878160 9
40.658480 -51.885186 -4.837302 9
38.047696 -51.848072 -4.775760 9
35.434713 -51.869559 -4.729847 9
32.834153 -51.865112 -4.676629 9
30.244193 -51.838188 -4.617020 9
27.652178 -51.872067 -4.573655 9
25.067178 -51.906118 -4.530054 9
22.493910 -51.895905 -4.474103 9
19.926137 -51.882413 -4.416941 9
17.358188 -51.917881 -4.372811 9
14.798425 -51.917702 -4.318629 9
12.245193 -51.883103 -4.254699 9
9.690223 -51.914634 -4.208493 9
7.139889 -51.927061 -4.156710 9
4.591059 -51.964477 -4.111410 9
2.046294 -51.965304 -4.055715 9
-0.496295 -51.941124 -3.992769 9
-3.038723 -51.938061 -3.935213 9
-5.580856 -51.959248 -3.883910 9
-8.122452 -52.000888 -3.837822 9
-10.664538 -51.971233 -3.771695 9
-13.207396 -51.972798 -3.713714 9
-15.751680 -51.971497 -3.654490 9
-18.297380 -51.980713 -3.597703 9
-20.844569 -52.002143 -3.543818 9
-23.396425 -51.986826 -3.479296 9
-25.949917 -51.998276 -3.421673 9
-28.508607 -51.989531 -3.357950 9
-31.068673 -52.013597 -3.302792 9
-33.630903 -52.057915 -3.252726 9
-36.207571 -52.012757 -3.177285 9
-38.780890 -52.048719 -3.123803 9
-41.361620 -52.070283 -3.065755 9
-43.951139 -52.074409 -3.002269 9
-46.591249 -51.795704 -2.859356 9
-49.280965 -51.296306 -2.654115 9
-52.044463 -50.479499 -2.359351 9
-54.942649 -49.071235 -1.898203 9
-57.924610 -47.430387 -1.370571 9
-60.969326 -45.698215 -0.815790 9
-64.041797 -44.053912 -0.283983 9
-67.206915 -42.201555 0.307835 9
-71.229099 -36.938964 1.859150 8
-74.071854 -36.952552 1.930990 8
-76.924820 -36.977711 2.000386 8
-79.800797 -36.967697 2.080515 8
-82.686644 -36.975965 2.156355 8
-85.569079 -37.048599 2.214903 8
-88.502881 -36.998572 2.308971 8
-91.439100 -36.998101 2.389977 8
-94.397898 -36.981769 2.476424 8
-97.372574 -36.973391 2.561599 8
-100.362496 -36.976151 2.644617 8
-103.428643 -36.819602 2.773915 8
-106.927862 -35.547610 3.221613 8
-112.050679 -30.113877 4.856213 8
-117.106894 -25.225700 6.339951 7
-118.460180 -29.910141 5.096104 7
-121.658406 -29.919717 5.186082 7
-124.898164 -29.890110 5.288486 7
-128.143609 -29.908776 5.378341 7
-131.424311 -29.907945 5.475063 7
-134.747147 -29.876247 5.581971 7
-138.128838 -29.782687 5.708045 7
-141.494551 -29.788665 5.806932 7
-144.907661 -29.761240 5.916876 7
-148.346135 -29.748276 6.024142 7
-238.447217 136.499100 54.167507 0
-243.537780 135.546050 54.062312 0
148.207042 -30.776274 2.884013 6
144.664637 -30.771549 2.917590 6
141.169441 -30.745631 2.957603 6
137.701930 -30.731879 2.994764 6
134.271680 -30.710298 3.034641 6
130.848263 -30.738830 3.061075 6
127.487659 -30.704474 3.105575 6
124.142833 -30.698903 3.142576 6
120.853373 -30.636942 3.195853 6
117.556533 -30.650587 3.228548 6
113.129739 -33.290724 2.527578 5
107.134733 -39.791918 0.746604 5
105.069822 -37.300205 1.480625 5
100.378330 -41.197008 0.427418 5
98.650531 -37.864589 1.398436 5
94.321986 -41.181543 0.507564 5
91.315469 -41.201502 0.540644 5
88.329271 -41.223020 0.573796 5
85.372428 -41.218197 0.614852 5
82.432099 -41.220194 0.654513 5
79.509208 -41.224667 0.693999 5
76.611214 -41.206049 0.740501 5
73.723432 -41.207666 0.781844 5
70.851643 -41.209832 0.823563 5
67.995280 -41.212254 0.865744 5
64.469598 -43.718347 0.202990 9
61.159673 -45.659914 -0.300888 9
57.936928 -47.471921 -0.768325 9
54.769832 -49.264260 -1.230283 9
51.740118 -50.676735 -1.585021 9
48.885736 -51.479528 -1.767396 9
46.127997 -51.952930 -1.856356 9
43.466030 -52.046723 -1.837515 9
40.829229 -52.068333 -1.797715 9
38.208446 -52.053297 -1.746980 9
35.588846 -52.079614 -1.707399 9
32.984684 -52.062105 -1.654823 9
30.385185 -52.060787 -1.606259 9
27.788248 -52.090722 -1.565989 9
25.198430 -52.119774 -1.524889 9
22.620833 -52.100162 -1.469358 9
20.049445 -52.069288 -1.410008 9
17.479949 -52.062737 -1.356961 9
14.911225 -52.096068 -1.314660 9
12.349268 -52.101246 -1.263712 9
9.790930 -52.105056 -1.211737 9
7.235988 -52.102264 -1.157232 9
4.684291 -52.081703 -1.096989 9
2.132275 -52.111326 -1.050432 9
-0.416747 -52.108070 -0.993799 9
-2.965246 -52.129496 -0.943553 9
-5.512515 -52.116210 -0.882667 9
-8.059895 -52.138376 -0.831245 9
-10.607878 -52.109775 -0.764534 9
-13.156950 -52.097708 -0.701836 9
-15.708578 -52.056440 -0.629992 9
-18.258173 -52.125783 -0.589230 9
-20.814363 -52.087436 -0.516700 9
-23.371419 -52.092381 -0.455864 9
-25.928952 -52.134678 -0.405025 9
-28.494964 -52.109842 -0.334008 9
-31.064486 -52.098543 -0.266076 9
-33.643272 -52.045686 -0.185279 9
-36.215015 -52.111083 -0.137870 9
-38.793219 -52.159989 -0.084853 9
