ply
format ascii 1.0
element vertex 1387
property float x
property float y
property float z
property int scalar_Label
end_header
16.455501 -46.306747 6.243229 9
14.019307 -46.329010 6.263905 9
11.577299 -46.307017 6.280456 9
9.135761 -46.336551 6.290431 9
6.686362 -46.316316 6.296408 9
4.232563 -46.298279 6.297048 9
1.776325 -46.303311 6.291800 9
-0.683927 -46.316545 6.281029 9
-3.151867 -46.311332 6.265397 9
-5.627775 -46.292574 6.244754 9
-8.109858 -46.277823 6.218628 9
-10.591317 -46.311882 6.185864 9
-13.084536 -46.315721 6.148433 9
-15.591147 -46.287638 6.106332 9
-18.099933 -46.294651 6.057856 9
-20.622992 -46.272819 6.004554 9
-23.134867 -46.351098 5.943238 9
-25.682231 -46.303519 5.879366 9
-28.229125 -46.306765 5.808602 9
-30.784936 -46.317014 5.731967 9
-33.354439 -46.316124 5.649838 9
-35.933256 -46.324415 5.561688 9
-38.530224 -46.309710 5.468193 9
-41.125636 -46.347541 5.367601 9
-43.702588 -46.493108 5.258722 9
-46.469173 -46.037360 5.156662 9
-49.416047 -45.072344 5.058634 9
-52.496643 -43.796015 4.959788 9
-55.750808 -42.118666 4.861282 9
-59.090926 -40.338494 4.756573 9
-62.532633 -38.422634 4.645894 9
-66.474516 -35.277227 4.548592 8
-68.666328 -37.089787 4.353917 8
-71.530916 -37.085147 4.185193 8
-74.402612 -37.113597 4.008882 8
-77.307368 -37.109727 3.825963 8
-80.208564 -37.166431 3.634880 8
-83.136653 -37.208975 3.436704 8
-86.091055 -37.241484 3.231232 8
-89.076465 -37.255915 3.018420 8
-92.082801 -37.277352 2.797801 8
-95.142452 -37.237983 2.569996 8
-98.199305 -37.260666 2.333478 8
-101.290764 -37.266807 2.088979 8
-104.513451 -37.067501 1.837835 8
-109.018591 -34.445289 1.595136 8
-116.926535 -25.544821 1.377057 7
-117.515228 -30.668370 1.060014 7
-120.808033 -30.723281 0.764989 7
-124.177758 -30.698883 0.460903 7
-127.527223 -30.770857 0.146977 7
-130.948268 -30.778937 -0.176561 7
-134.399578 -30.797768 -0.510106 7
-137.954591 -30.708992 -0.854063 7
-141.505192 -30.693729 -1.208506 7
-145.089716 -30.689633 -1.573677 7
-148.702162 -30.707261 -1.949722 7
149.088536 -28.881011 1.492744 6
146.031670 -28.919915 1.822816 6
143.005830 -28.940654 2.144658 6
140.029649 -28.892670 2.458995 6
137.072349 -28.848223 2.765390 6
134.114914 -28.856505 3.063359 6
131.187852 -28.836285 3.353951 6
128.275948 -28.826129 3.636827 6
125.410998 -28.732154 3.913524 6
122.530684 -28.732113 4.181497 6
119.690592 -28.660345 4.443451 6
116.845194 -28.653858 4.697199 6
113.489210 -30.394533 4.910546 5
109.962293 -32.896633 5.098732 5
106.938477 -33.840239 5.308331 5
104.164708 -33.982106 5.527077 5
101.441231 -33.992860 5.741999 5
98.747460 -33.936607 5.952009 5
96.056583 -33.914066 6.154928 5
93.377536 -33.888578 6.351662 5
90.714986 -33.836268 6.542893 5
88.061683 -33.785249 6.728015 5
85.418246 -33.730102 6.907234 5
82.778273 -33.700954 7.079797 5
80.142173 -33.696996 7.245737 5
77.509554 -33.721899 7.404961 5
74.901212 -33.650091 7.561130 5
72.284633 -33.672386 7.708801 5
69.687133 -33.614196 7.853139 5
67.087115 -33.615839 7.990011 5
64.033816 -37.306769 8.006354 9
61.321972 -38.689607 8.086621 9
58.639480 -40.092250 8.159543 9
55.988641 -41.491201 8.225980 9
53.375063 -42.814542 8.288419 9
50.786275 -44.189773 8.342824 9
48.254682 -45.152507 8.404854 9
45.767376 -45.715879 8.474595 9
43.301998 -46.097448 8.545057 9
40.863141 -46.039255 8.625379 9
38.422325 -46.062958 8.697791 9
35.984523 -46.018966 8.767497 9
33.545953 -46.037757 8.829949 9
31.108057 -46.069340 8.886894 9
28.670005 -46.011707 8.941986 9
26.231198 -46.001946 8.990353 9
23.791105 -45.984542 9.033982 9
21.350299 -45.993166 9.071657 9
18.905834 -45.955664 9.105997 9
16.462203 -45.985693 9.132866 9
14.014497 -45.983471 9.155895 9
11.564383 -45.989763 9.173592 9
9.111210 -45.998941 9.186155 9
6.652614 -45.989150 9.194381 9
4.186896 -45.953233 9.198521 9
1.722996 -45.981912 9.195225 9
-0.752013 -45.956736 9.188834 9
-3.224491 -45.997320 9.174934 9
-5.707185 -46.002411 9.157225 9
-8.200702 -45.977732 9.135469 9
-10.697189 -45.980786 9.107537 9
-13.196112 -46.012671 9.073371 9
-15.717192 -45.960949 9.037019 9
-18.231964 -45.992063 8.992420 9
-20.760107 -45.996903 8.943488 9
-23.290514 -46.034869 8.888058 9
-25.834413 -46.052157 8.828016 9
-28.412124 -45.964342 8.766271 9
-30.970468 -46.010514 8.694363 9
-33.539546 -46.055000 8.617045 9
-36.129886 -46.059099 8.535591 9
-38.739504 -46.036706 8.449440 9
-41.339516 -46.096671 8.354857 9
-43.999786 -45.989415 8.260152 9
-46.744075 -45.654182 8.167053 9
-49.677136 -44.775745 8.085394 9
-52.842510 -43.272132 8.016967 9
-56.155176 -41.463252 7.950709 9
-59.514723 -39.675788 7.875884 9
-62.933779 -37.874487 7.793389 9
-66.480577 -35.874005 7.708526 8
-69.067576 -36.625501 7.534258 8
-71.930192 -36.663915 7.374707 8
-74.811919 -36.702865 7.208466 8
-77.722267 -36.720476 7.036037 8
-80.660485 -36.721988 6.857136 8
-83.613265 -36.741691 6.670725 8
-86.561058 -36.824747 6.475583 8
-89.565887 -36.829591 6.275220 8
-92.550895 -36.931177 6.065163 8
-95.604786 -36.935637 5.849986 8
-98.674876 -36.960971 5.626697 8
-101.763324 -37.003109 5.395298 8
-105.098883 -36.609725 5.164955 8
-110.242473 -32.792332 4.992802 8
-116.842217 -26.449804 4.852157 7
-118.035043 -30.445908 4.508165 7
-121.373484 -30.446167 4.229778 7
-124.740481 -30.455807 3.942268 7
-128.107690 -30.525214 3.644743 7
-131.528030 -30.562829 3.338433 7
-134.963342 -30.635867 3.022205 7
-138.449594 -30.685639 2.696626 7
-142.027230 -30.651182 2.361993 7
-145.616687 -30.663647 2.016639 7
-149.223609 -30.713643 1.660566 7
149.617717 -28.671165 4.808963 6
146.575995 -28.641873 5.128118 6
143.566971 -28.587248 5.439914 6
140.598813 -28.482701 5.745115 6
137.633750 -28.419901 6.041903 6
134.690313 -28.351177 6.331421 6
131.749473 -28.326221 6.612563 6
128.816129 -28.333172 6.885626 6
125.930160 -28.256983 7.153748 6
123.054607 -28.198673 7.414450 6
120.191799 -28.150764 7.668005 6
117.353003 -28.076218 7.915588 6
114.079244 -29.488022 8.111016 5
110.479573 -32.166696 8.257557 5
107.390021 -33.281871 8.443698 5
105.331165 -30.741150 8.742628 5
101.842441 -33.516558 8.859282 5
99.133534 -33.467737 9.063250 5
96.440330 -33.400630 9.261840 5
93.749025 -33.370081 9.453188 5
91.072076 -33.322499 9.639251 5
88.394473 -33.323767 9.817671 5
85.742414 -33.249036 9.993158 5
83.097128 -33.181505 10.162705 5
80.444708 -33.195623 10.323437 5
77.816104 -33.123621 10.481936 5
75.187405 -33.093368 10.633246 5
72.564233 -33.073079 10.778647 5
69.951111 -33.030081 10.919521 5
67.339442 -33.019815 11.053626 5
64.296222 -36.506063 11.034411 9
61.565705 -37.912952 11.095606 9
58.864891 -39.341844 11.149385 9
56.183689 -40.898298 11.191237 9
53.547816 -42.322717 11.232549 9
50.943427 -43.738578 11.268109 9
48.410197 -44.552531 11.324576 9
45.905620 -45.189954 11.383494 9
43.430286 -45.527948 11.450678 9
40.975659 -45.556872 11.526893 9
38.524542 -45.541240 11.600280 9
36.074127 -45.534995 11.668401 9
33.624729 -45.497103 11.733168 9
31.174861 -45.513292 11.790613 9
28.725168 -45.520575 11.843666 9
26.273550 -45.434106 11.896334 9
23.823292 -45.495913 11.937237 9
21.369789 -45.471240 11.977435 9
18.914995 -45.466918 12.011891 9
16.460866 -45.515950 12.039023 9
13.999678 -45.480719 12.065384 9
11.536606 -45.469936 12.085795 9
9.069494 -45.454418 12.101641 9
6.599987 -45.458047 12.111768 9
4.129726 -45.495803 12.115447 9
1.647974 -45.466585 12.117512 9
-0.838965 -45.441908 12.114520 9
-3.322039 -45.493417 12.103023 9
-5.821940 -45.461186 12.090662 9
-8.319038 -45.495257 12.070236 9
-10.834527 -45.453653 12.048504 9
-13.348308 -45.470801 12.019025 9
-15.870492 -45.483262 11.984801 9
-18.398461 -45.508130 11.944992 9
-20.938068 -45.516479 11.900936 9
-23.484879 -45.534232 11.851372 9
-26.045759 -45.530892 11.797696 9
-28.614015 -45.540726 11.738260 9
-31.193220 -45.549194 11.673704 9
-33.771272 -45.607326 11.601637 9
-36.384718 -45.569691 11.528698 9
-38.985111 -45.629762 11.445973 9
-41.621198 -45.603601 11.361788 9
-44.296680 -45.489367 11.276085 9
-47.059455 -45.137589 11.195329 9
-50.061523 -44.081779 11.139668 9
-53.299282 -42.403660 11.104585 9
-56.608792 -40.661907 11.065056 9
-59.988905 -38.868494 11.020298 9
-63.454634 -36.988028 10.971537 9
-66.679182 -35.935710 10.880324 8
-69.550298 -35.944974 10.738153 8
-72.428626 -35.986222 10.588385 8
-75.294217 -36.109304 10.428988 8
-78.225520 -36.115340 10.267852 8
-81.178214 -36.122034 10.100103 8
-84.139164 -36.161916 9.924397 8
-87.119277 -36.209285 9.741656 8
-90.129837 -36.240186 9.552665 8
-93.150412 -36.301995 9.355566 8
-96.209547 -36.333686 9.152461 8
-99.289249 -36.376413 8.941737 8
-102.386661 -36.436951 8.723060 8
-105.921462 -35.687041 8.523565 8
-111.992267 -30.134303 8.468804 8
-116.885675 -27.110098 8.317590 7
-118.786049 -29.799426 7.980084 7
-122.087430 -29.903904 7.714831 7
-125.477590 -29.907584 7.444083 7
-128.884245 -29.943626 7.163734 7
-132.283416 -30.052440 6.872639 7
-135.742511 -30.119862 6.573708 7
-139.253696 -30.163090 6.266197 7
-142.720584 -30.338510 5.946242 7
-146.344835 -30.326635 5.621022 7
150.321282 -28.060313 8.147562 6
148.547564 -24.972868 8.552590 6
144.269608 -27.892392 8.759662 6
141.266991 -27.828810 9.054009 6
138.297252 -27.732875 9.342270 6
135.316225 -27.717041 9.620633 6
132.390645 -27.604181 9.895506 6
129.459279 -27.555778 10.161180 6
126.549633 -27.496090 10.420515 6
123.687916 -27.343724 10.676875 6
120.807141 -27.294340 10.922679 6
117.940063 -27.251779 11.161733 6
114.816265 -28.105494 11.356590 5
111.063070 -31.217876 11.446594 5
107.894329 -32.542715 11.603721 5
105.054720 -32.812189 11.799743 5
102.320818 -32.751710 12.004323 5
99.606444 -32.660388 12.204510 5
96.875893 -32.679161 12.393859 5
94.170732 -32.641368 12.580110 5
91.465754 -32.650056 12.758493 5
88.782091 -32.610051 12.933617 5
86.106061 -32.579005 13.102794 5
83.442597 -32.530129 13.267402 5
80.782791 -32.506301 13.425367 5
78.137897 -32.444182 13.579927 5
75.496715 -32.402132 13.728189 5
72.862523 -32.359586 13.871239 5
70.232441 -32.332968 14.008258 5
67.614416 -32.263440 14.142387 5
64.995870 -32.237413 14.269103 5
61.823839 -37.021479 14.131325 9
59.092974 -38.575579 14.159993 9
56.408364 -40.008088 14.189115 9
53.748477 -41.519255 14.207909 9
51.126388 -42.963736 14.224464 9
48.564895 -43.973936 14.259491 9
46.048965 -44.586917 14.311441 9
43.560882 -44.922912 14.373972 9
41.092957 -44.966433 14.448261 9
38.629333 -44.949834 14.521330 9
36.166337 -44.945917 14.589069 9
33.704438 -44.909172 14.654103 9
31.242184 -44.883283 14.713943 9
28.779665 -44.897083 14.766918 9
26.316169 -44.865382 14.817970 9
23.851491 -44.846135 14.863748 9
21.385655 -44.841942 14.904097 9
18.919895 -44.880172 14.937408 9
16.450133 -44.871688 14.968904 9
13.978403 -44.875723 14.995113 9
11.499797 -44.826470 15.019909 9
9.019809 -44.813655 15.038001 9
6.536110 -44.805565 15.051247 9
4.045448 -44.773273 15.061347 9
1.556555 -44.805184 15.063064 9
-0.939095 -44.819391 15.061225 9
-3.444061 -44.803640 15.056540 9
-5.954736 -44.792972 15.046919 9
-8.464087 -44.836301 15.029457 9
-10.992817 -44.797122 15.012187 9
-13.524022 -44.792067 14.988204 9
-16.056694 -44.823839 14.957331 9
-18.606420 -44.806780 14.924573 9
-21.161709 -44.808317 14.885939 9
-23.720896 -44.836150 14.840956 9
-26.305906 -44.788650 14.795507 9
-28.881555 -44.831821 14.739901 9
-31.465480 -44.882492 14.678952 9
-34.073833 -44.876797 14.616292 9
-36.683883 -44.911269 14.546317 9
-39.312395 -44.920954 14.472709 9
-41.956902 -44.919347 14.394632 9
-44.659024 -44.765521 14.319951 9
-47.483290 -44.261359 14.259534 9
-50.500045 -43.216558 14.223507 9
-53.762865 -41.518356 14.217381 9
-57.128038 -39.666130 14.212886 9
-60.579396 -37.724307 14.206151 9
-64.130516 -35.665176 14.198361 9
-67.286310 -34.869540 14.115359 8
-70.168525 -34.904890 13.981679 8
-73.057315 -34.972928 13.840323 8
-75.972859 -35.021568 13.693961 8
-78.921277 -35.039045 13.543078 8
-81.878719 -35.086887 13.384404 8
-84.870102 -35.106214 13.220850 8
-87.812448 -35.290167 13.042691 8
-90.832592 -35.346205 12.864449 8
-93.869562 -35.417665 12.678852 8
-96.963630 -35.419992 12.489838 8
-100.048074 -35.497686 12.290379 8
-103.208786 -35.474040 12.088654 8
-107.017211 -34.232315 11.934861 8
-113.750813 -27.474682 12.017040 8
-116.944193 -27.739866 11.774016 7
-119.750249 -28.765625 11.491080 7
-123.092550 -28.842190 11.241740 7
-126.477714 -28.900949 10.985146 7
-129.847353 -29.045486 10.716938 7
-133.299181 -29.107593 10.443760 7
-136.768374 -29.201314 10.160852 7
-140.262704 -29.314090 9.868589 7
-143.827162 -29.375543 9.569367 7
-147.420607 -29.454560 9.260418 7
151.191709 -27.070505 11.522900 6
148.099689 -27.065860 11.818978 6
145.085168 -26.929644 12.113678 6
142.079005 -26.821907 12.400209 6
139.081649 -26.741977 12.678639 6
136.100779 -26.670000 12.949948 6
133.147431 -26.574692 13.215749 6
130.206168 -26.495226 13.474275 6
127.310699 -26.333761 13.730522 6
124.403927 -26.250578 13.976580 6
121.517526 -26.153911 14.217129 6
118.645161 -26.060480 14.451409 6
115.764314 -26.042448 14.675621 5
111.861814 -29.546768 14.701691 5
108.523866 -31.370134 14.809418 5
105.581155 -31.939020 14.978920 5
102.826401 -31.891240 15.176889 5
100.094409 -31.801567 15.371706 5
97.369362 -31.727408 15.560191 5
94.649896 -31.674258 15.742055 5
91.942885 -31.611806 15.919119 5
89.238009 -31.584496 16.088797 5
86.560392 -31.471770 16.258388 5
83.882085 -31.401841 16.420254 5
81.221069 -31.281324 16.580137 5
78.548700 -31.262784 16.728668 5
75.890446 -31.206937 16.874479 5
73.247236 -31.097621 17.018694 5
70.594939 -31.086518 17.151762 5
67.953406 -31.045047 17.281843 5
65.323502 -30.955612 17.410157 5
62.113891 -35.867212 17.208039 9
59.359722 -37.458185 17.214632 9
56.649976 -38.955742 17.221417 9
53.970282 -40.486622 17.220210 9
51.331589 -41.916897 17.220010 9
48.744520 -43.043576 17.234625 9
46.207097 -43.745970 17.272575 9
43.702735 -44.104555 17.328888 9
41.220267 -44.142095 17.402374 9
38.742982 -44.088861 17.477632 9
36.265301 -44.064273 17.546575 9
33.787852 -44.048259 17.610574 9
31.310389 -44.064966 17.667969 9
28.832710 -44.012614 17.725786 9
26.354448 -44.014485 17.775529 9
23.875056 -44.006486 17.821627 9
21.393522 -43.980022 17.864690 9
18.908877 -43.934823 17.904747 9
16.422425 -43.912604 17.938887 9
13.936622 -43.948292 17.964656 9
11.444152 -43.925660 17.990183 9
8.949135 -43.919717 18.010214 9
6.452121 -43.935984 18.024351 9
3.949775 -43.939868 18.035013 9
1.438474 -43.906108 18.043968 9
-1.071849 -43.929206 18.044561 9
-3.592802 -43.911443 18.043648 9
-6.119367 -43.900147 18.037883 9
-8.646261 -43.932288 18.024653 9
-11.186982 -43.918505 18.010216 9
-13.726337 -43.958973 17.987517 9
-16.283911 -43.938367 17.964623 9
-18.842685 -43.958602 17.934363 9
-21.413755 -43.960368 17.900862 9
-23.987037 -43.996876 17.860378 9
-26.576946 -43.999845 17.817639 9
-29.169737 -44.035906 17.767975 9
-31.774113 -44.066633 17.714025 9
-34.395004 -44.074948 17.656923 9
-37.024449 -44.096249 17.594184 9
-39.670645 -44.100616 17.527819 9
-42.335997 -44.083254 17.458095 9
-45.046305 -43.959299 17.390700 9
-47.960810 -43.210535 17.360472 9
-51.038432 -42.033878 17.353502 9
-54.362628 -40.212941 17.383707 9
-57.779310 -38.276782 17.415077 9
-61.286910 -36.243511 17.446110 9
-66.413233 -29.786662 17.760677 8
-68.021805 -33.455424 17.403497 8
-70.910407 -33.539607 17.276228 8
-73.843425 -33.555860 17.147719 8
-76.748025 -33.695833 17.005558 8
-79.689083 -33.791619 16.860483 8
-84.069713 -30.486134 16.923179 8
-85.634769 -33.978076 16.553043 8
-88.649050 -34.050520 16.391616 8
-91.682006 -34.132671 16.223454 8
-94.753881 -34.181802 16.051056 8
-97.823424 -34.289133 15.868797 8
-100.928313 -34.374679 15.681412 8
-106.726199 -29.096593 15.800843 8
-108.730937 -31.572510 15.458422 8
-116.889866 -22.180540 15.788578 7
-117.676592 -27.103456 15.292830 7
-120.972676 -27.265213 15.061111 7
-124.307421 -27.411506 14.822954 7
-127.682313 -27.542590 14.578161 7
-131.075664 -27.698567 14.324423 7
-134.546159 -27.781138 14.066752 7
-138.045490 -27.876324 13.800393 7
-141.581628 -27.972483 13.525788 7
-145.121610 -28.123547 13.240116 7
-148.737546 -28.216753 12.948763 7
149.147329 -25.614714 15.239237 6
146.099536 -25.494013 15.524066 6
143.084974 -25.341332 15.804161 6
140.068117 -25.243005 16.074667 6
137.081392 -25.116367 16.340463 6
134.114353 -24.985276 16.600290 6
131.161440 -24.862883 16.853456 6
128.218116 -24.761055 17.099300 6
125.303097 -24.624203 17.341363 6
122.423199 -24.426046 17.581501 6
119.531630 -24.306454 17.810911 6
116.667496 -24.143523 18.037458 6
112.795863 -27.432351 18.030305 5
109.252881 -29.859623 18.070228 5
106.250043 -30.556517 18.218005 5
103.445107 -30.612239 18.403123 5
100.681625 -30.561757 18.590129 5
97.941990 -30.461532 18.775375 5
95.210154 -30.371182 18.954838 5
92.481617 -30.309633 19.127219 5
89.759207 -30.265218 19.293355 5
87.061124 -30.149040 19.459669 5
84.358148 -30.097283 19.616462 5
81.670167 -30.010106 19.770968 5
78.994376 -29.894643 19.922767 5
76.307637 -29.882486 20.062201 5
73.627778 -29.875517 20.196473 5
70.964701 -29.803693 20.330876 5
68.302384 -29.766890 20.458000 5
65.649359 -29.702105 20.582619 5
62.445715 -34.370402 20.341455 9
59.664337 -36.002838 20.324862 9
56.926572 -37.560305 20.308314 9
54.220276 -39.149499 20.283741 9
51.545110 -40.779554 20.250501 9
48.935054 -41.970490 20.246172 9
46.377777 -42.709945 20.272247 9
43.853045 -43.133951 20.318500 9
41.356656 -43.113554 20.395453 9
38.863003 -43.047086 20.471906 9
36.367678 -43.056618 20.538191 9
33.874257 -42.992525 20.606211 9
31.379888 -42.968693 20.666911 9
28.885127 -42.961179 20.722196 9
26.389789 -42.956506 20.773148 9
23.893863 -42.967921 20.818704 9
21.395897 -42.953462 20.862253 9
18.895753 -42.936269 20.901936 9
16.393997 -42.936234 20.936144 9
13.889357 -42.932591 20.966556 9
11.378994 -42.894041 20.995715 9
8.866778 -42.884616 21.018416 9
6.353163 -42.904976 21.034592 9
3.832726 -42.898034 21.048882 9
1.306011 -42.879696 21.059986 9
-1.220649 -42.908571 21.063112 9
-3.753951 -42.926627 21.062980 9
-6.303610 -42.870325 21.064757 9
-8.845303 -42.918803 21.053819 9
-11.395664 -42.952073 21.039933 9
-13.960350 -42.942252 21.025350 9
-16.526011 -42.973304 21.003209 9
-19.103744 -42.982916 20.978559 9
-21.696820 -42.960309 20.952244 9
-24.293186 -42.970021 20.918994 9
-26.891486 -43.016147 20.878460 9
-29.513816 -42.999807 20.838609 9
-32.120600 -43.096381 20.785249 9
-34.764067 -43.084889 20.736165 9
-37.436073 -43.011373 20.687564 9
-40.097657 -43.029372 20.627091 9
-42.774904 -43.037697 20.562827 9
-45.528239 -42.831053 20.511025 9
-48.490629 -41.990961 20.504575 9
-51.656417 -40.601092 20.536257 9
-55.041855 -38.666793 20.605032 9
-58.522686 -36.616921 20.676687 9
-62.148018 -34.321671 20.761037 9
-66.502421 -30.150077 20.983998 8
-68.880183 -31.710969 20.756605 8
-71.812568 -31.753721 20.641570 8
-74.701167 -31.960662 20.508673 8
-77.669968 -32.007110 20.382673 8
-80.666512 -32.036619 20.252461 8
-83.696933 -32.037684 20.118790 8
-86.699184 -32.158813 19.970491 8
-89.729052 -32.266063 19.817548 8
-92.802046 -32.327942 19.662158 8
-95.875077 -32.442537 19.497019 8
-99.005612 -32.486853 19.330992 8
-102.123051 -32.612763 19.152991 8
-105.618207 -32.032334 19.018868 8
-112.886639 -24.143272 19.390315 8
-116.889171 -22.926959 19.280763 7
-119.204678 -24.983207 18.937586 7
-122.527616 -25.166249 18.717804 7
-125.877665 -25.354528 18.490809 7
-129.281986 -25.502039 18.259534 7
-132.700138 -25.682546 18.018898 7
-136.170395 -25.831724 17.773005 7
-139.724186 -25.901926 17.524665 7
-143.249200 -26.080460 17.261698 7
-146.855350 -26.189761 16.995258 7
151.758300 -20.499115 18.950053 6
147.326079 -23.558702 19.010580 6
144.273502 -23.420861 19.281392 6
141.246511 -23.267722 19.547160 6
138.254941 -23.070213 19.810102 6
135.259049 -22.929797 20.063105 6
132.307736 -22.713654 20.315823 6
129.361768 -22.525272 20.560889 6
126.462920 -22.241838 20.807494 6
123.537733 -22.076226 21.039877 6
120.612638 -21.954836 21.263454 6
117.698351 -21.845178 21.480707 6
113.983454 -24.481416 21.479297 5
110.116917 -27.891214 21.408137 5
108.077602 -24.990824 21.825902 5
104.118085 -29.141112 21.680259 5
101.344768 -29.036860 21.866025 5
98.575757 -28.958845 22.044784 5
95.830624 -28.825011 22.223241 5
93.075220 -28.776807 22.389930 5
90.350101 -28.635602 22.559538 5
87.622139 -28.546294 22.720202 5
84.898129 -28.479388 22.874360 5
82.195730 -28.340742 23.029965 5
79.479723 -28.315254 23.171481 5
76.787524 -28.195080 23.316523 5
74.090942 -28.139200 23.451624 5
71.417560 -27.969326 23.592115 5
68.731105 -27.921934 23.717679 5
66.054936 -27.838038 23.842045 5
62.820692 -32.524761 23.544480 9
60.004680 -34.234819 23.500640 9
57.223565 -35.975507 23.448568 9
54.477003 -37.754360 23.387671 9
51.784328 -39.335023 23.339056 9
49.146610 -40.613107 23.312350 9
46.563711 -41.438469 23.321394 9
44.020811 -41.837805 23.364271 9
41.500483 -41.926607 23.430980 9
38.987791 -41.881680 23.505806 9
36.475503 -41.837206 23.576693 9
33.962914 -41.815335 23.641638 9
31.450328 -41.785413 23.703432 9
28.937400 -41.797434 23.757519 9
26.423031 -41.735109 23.814537 9
23.908950 -41.766435 23.859113 9
21.391163 -41.713778 23.907539 9
18.870885 -41.668049 23.951483 9
16.350397 -41.675830 23.986647 9
13.823547 -41.623496 24.023505 9
11.296488 -41.624556 24.051579 9
8.766354 -41.631315 24.075263 9
6.231949 -41.633930 24.095464 9
3.693956 -41.644671 24.111040 9
1.147476 -41.621704 24.125862 9
-1.403916 -41.606256 24.136099 9
-3.960698 -41.596545 24.141903 9
-6.520689 -41.610187 24.141625 9
-9.089671 -41.607404 24.138942 9
-11.666834 -41.599192 24.132817 9
-14.244624 -41.633712 24.118763 9
-16.843743 -41.591669 24.107825 9
-19.433834 -41.647437 24.083815 9
-22.043979 -41.643428 24.061313 9
-24.652766 -41.692631 24.029835 9
-27.276735 -41.714832 23.996775 9
-29.918753 -41.703331 23.962713 9
-32.563167 -41.729841 23.921002 9
-35.221573 -41.745495 23.876116 9
-37.879212 -41.810424 23.822500 9
-40.563213 -41.820682 23.769654 9
-43.269075 -41.800290 23.715315 9
-46.114092 -41.351024 23.695670 9
-49.106410 -40.492035 23.708619 9
-52.428437 -38.680970 23.802865 9
-55.889746 -36.604569 23.915536 9
-59.493173 -34.282423 24.044487 9
-63.185067 -31.896738 24.172989 9
-67.014830 -29.316811 24.312469 8
-69.945714 -29.407395 24.207702 8
-72.897056 -29.491552 24.098570 8
-75.868497 -29.572589 23.984708 8
-78.853818 -29.668253 23.864487 8
-81.837185 -29.817972 23.734409 8
-84.868073 -29.901259 23.604944 8
-87.870551 -30.101453 23.460074 8
-90.933590 -30.210023 23.317816 8
-94.033785 -30.287262 23.172800 8
-97.171661 -30.336163 23.024635 8
-100.304806 -30.449663 22.865336 8
-103.486629 -30.515517 22.704325 8
-107.869838 -28.232499 22.733008 8
-116.902930 -17.026951 23.490273 7
-117.819940 -21.892699 22.909089 7
-121.151156 -22.095262 22.707078 7
-124.552369 -22.223259 22.504746 7
-127.968699 -22.381423 22.293440 7
-131.396377 -22.576296 22.072577 7
-134.801417 -22.865472 21.837583 7
-138.281048 -23.082358 21.601490 7
-141.808834 -23.276668 21.360165 7
-145.398989 -23.429010 21.114879 7
-149.024260 -23.586732 20.861807 7
148.853192 -20.916774 22.608894 6
145.798629 -20.684788 22.879315 6
142.755639 -20.468910 23.142749 6
139.728340 -20.257817 23.400193 6
136.716431 -20.050783 23.651789 6
133.748153 -19.767961 23.904392 6
130.779604 -19.525748 24.148295 6
127.817353 -19.306654 24.384995 6
124.871946 -19.078842 24.617292 6
121.921841 -18.907011 24.839593 6
119.024122 -18.609538 25.067944 6
115.668893 -19.883378 25.151154 5
111.248562 -25.009215 24.880965 5
107.887273 -26.749378 24.905802 5
104.941202 -27.121304 25.048362 5
102.141834 -27.004661 25.230528 5
99.358785 -26.865214 25.410196 5
96.577638 -26.758601 25.582286 5
93.815083 -26.613075 25.753511 5
91.044901 -26.541769 25.913334 5
88.298466 -26.400985 26.075291 5
85.549011 -26.313538 26.227846 5
82.806952 -26.229344 26.375756 5
80.071345 -26.151329 26.518776 5
77.348955 -26.037023 26.661047 5
74.637635 -25.890047 26.802305 5
71.923532 -25.794338 26.934441 5
69.216912 -25.682718 27.064004 5
66.509855 -25.609487 27.185705 5
63.254932 -30.199842 26.842630 9
60.389655 -32.077483 26.760960 9
57.557956 -34.033335 26.666122 9
54.784660 -35.808986 26.583953 9
52.043529 -37.660675 26.489068 9
49.375232 -39.033547 26.437277 9
46.768108 -39.884041 26.433518 9
44.203016 -40.283078 26.471159 9
41.653587 -40.541769 26.519079 9
39.121159 -40.478099 26.595934 9
36.588415 -40.431775 26.667364 9
34.055560 -40.391270 26.734548 9
31.522052 -40.437069 26.789249 9
28.988814 -40.391968 26.849606 9
26.454076 -40.336909 26.907362 9
23.918222 -40.315690 26.958017 9
21.380980 -40.305454 27.003917 9
18.840719 -40.272510 27.048541 9
16.296425 -40.218422 27.091738 9
13.754172 -40.255117 27.121924 9
11.202882 -40.201976 27.157794 9
8.650181 -40.187639 27.186023 9
6.089844 -40.137676 27.214327 9
3.529984 -40.146014 27.232943 9
0.964983 -40.151488 27.248215 9
-1.609443 -40.123343 27.263336 9
-4.185914 -40.128822 27.271298 9
-6.772524 -40.106936 27.278438 9
-9.366368 -40.085410 27.281856 9
-11.962860 -40.095752 27.278256 9
-14.568762 -40.095646 27.272026 9
-17.181251 -40.105192 27.261056 9
-19.804804 -40.101960 27.247659 9
-22.439009 -40.092440 27.231138 9
-25.071893 -40.136964 27.205200 9
-27.724487 -40.134954 27.180271 9
-30.392401 -40.113860 27.153464 9
-33.066958 -40.114437 27.120523 9
-35.743332 -40.155515 27.079478 9
-38.437346 -40.173737 27.036855 9
-41.141578 -40.201162 26.989304 9
-45.062859 -35.943849 27.378551 9
-46.751465 -39.701385 26.939074 9
-49.854033 -38.563569 26.998644 9
-53.304557 -36.436723 27.154646 9
-56.917395 -33.995369 27.337457 9
-60.687056 -31.289015 27.541641 9
-66.435789 -23.046014 28.301608 8
-68.236520 -26.488219 27.870213 8
-71.199148 -26.601381 27.771979 8
-74.177520 -26.720281 27.668545 8
-77.187838 -26.804430 27.563914 8
-80.210554 -26.907652 27.452614 8
-83.246546 -27.028106 27.334782 8
-86.305564 -27.143057 27.212622 8
-89.384482 -27.262002 27.085119 8
-92.502381 -27.343377 26.956286 8
-95.609127 -27.502185 26.814753 8
-98.735478 -27.668502 26.667348 8
-101.987576 -27.621299 26.535386 8
-105.563343 -26.973191 26.455740 8
-116.882937 -10.960296 27.840526 7
-120.005273 -11.731183 27.604692 7
-123.301821 -12.198558 27.392319 7
-126.594388 -12.716289 27.169532 7
-129.951919 -13.157309 26.948197 7
-133.327986 -13.611068 26.719775 7
-136.704008 -14.110879 26.481120 7
-140.140485 -14.552548 26.241742 7
-143.632108 -14.950452 26.000103 7
-147.133392 -15.383418 25.748897 7
-148.232396 -19.703190 25.144460 7
149.323117 -13.046444 27.010697 6
146.373495 -12.353869 27.316064 6
143.405265 -11.730206 27.610247 6
140.492597 -10.980963 27.911813 6
137.610463 -10.162191 28.215690 6
134.739394 -9.321169 28.517479 6
131.955146 -8.231877 28.839472 6
129.226887 -6.962025 29.175542 6
126.712733 -4.997739 29.577272 6
118.541154 -11.352402 29.335174 5
113.026812 -19.910990 28.653818 5
109.043987 -23.656360 28.448780 5
107.222057 -19.680721 29.028218 5
103.068881 -24.486655 28.699889 5
100.245356 -24.372479 28.872986 5
97.451326 -24.177862 29.050195 5
94.649778 -24.052342 29.215990 5
91.859963 -23.914427 29.378912 5
89.069433 -23.819682 29.533130 5
86.330295 -23.508116 29.706339 5
83.563634 -23.363089 29.857845 5
80.800490 -23.234878 30.003551 5
78.034214 -23.162941 30.139208 5
75.284433 -23.030344 30.277460 5
72.538424 -22.907384 30.410767 5
69.797475 -22.783147 30.540343 5
67.059436 -22.670143 30.664847 5
63.776385 -27.168361 30.278041 9
60.838903 -29.357605 30.139007 9
57.944850 -31.588375 29.990032 9
55.128234 -33.489706 29.872414 9
52.343044 -35.508105 29.736828 9
49.631918 -37.081023 29.646140 9
46.991001 -38.052418 29.618342 9
44.394842 -38.569749 29.637471 9
41.826133 -38.722371 29.693895 9
39.269412 -38.649442 29.772229 9
36.711180 -38.639382 29.840029 9
34.154523 -38.560780 29.912162 9
31.611314 -34.396383 30.445078 9
29.037686 -38.435512 30.042615 9
26.478334 -38.460206 30.092801 9
23.916339 -38.398120 30.149483 9
21.353415 -38.383202 30.197393 9
18.789322 -38.389643 30.239468 9
16.220190 -38.342779 30.284264 9
13.648497 -38.312866 30.323739 9
11.073056 -38.283242 30.359798 9
8.494651 -38.268826 30.390725 9
5.912203 -38.258182 30.417828 9
3.327688 -38.274100 30.438475 9
0.731113 -38.224614 30.463258 9
-1.861979 -38.256978 30.475195 9
-4.468672 -38.226656 30.490944 9
-7.079944 -38.213913 30.501238 9
-9.696616 -38.213126 30.506712 9
-12.317545 -38.232243 30.506432 9
-14.955242 -38.197413 30.508913 9
-17.586135 -38.250816 30.497720 9
-20.235641 -38.247893 30.489527 9
-22.889013 -38.273152 30.474559 9
-25.557798 -38.270175 30.459305 9
-28.234856 -38.277576 30.439285 9
-30.925918 -38.271460 30.417230 9
-33.622143 -38.292528 30.388425 9
-36.327785 -38.322715 30.354928 9
-39.042640 -38.363880 30.316497 9
-41.774255 -38.389039 30.276202 9
-44.566286 -38.246939 30.251323 9
-47.555536 -37.488764 30.293063 9
-50.776409 -36.066472 30.406525 9
-54.403336 -33.491562 30.646918 9
-58.167010 -30.712347 30.905524 9
-62.104027 -27.642104 31.191892 9
-67.496507 -20.590900 31.923677 8
-70.509476 -20.715457 31.836516 8
-73.529391 -20.868842 31.741800 8
-76.553755 -21.057085 31.638824 8
-79.611362 -21.204903 31.536010 8
-82.698459 -21.326904 31.431630 8
-85.769942 -21.537026 31.312894 8
-88.888889 -21.680406 31.197046 8
-92.013445 -21.860834 31.072452 8
-95.155182 -22.051253 30.942071 8
-98.321734 -22.235986 30.807573 8
-100.959889 -23.601766 30.538824 8
-104.195341 -23.712582 30.403194 8
108.047542 -17.709382 32.563608 5
104.247652 -21.018444 32.345340 5
101.763708 -19.361109 32.692761 5
98.945332 -19.019414 32.885139 5
96.116502 -18.747723 33.065580 5
93.306361 -18.419735 33.248800 5
90.514851 -18.024994 33.436150 5
87.710056 -17.711635 33.610279 5
84.916016 -17.362195 33.785019 5
82.123468 -17.019617 33.955345 5
79.326297 -16.718299 34.117169 5
76.539677 -16.367140 34.281379 5
73.750408 -16.041439 34.439012 5
70.964208 -15.701874 34.594803 5
68.173130 -15.402823 34.742211 5
65.389186 -15.049616 34.892701 5
61.373005 -25.896937 33.676490 9
58.416833 -28.323911 33.476908 9
55.514228 -30.731358 33.274603 9
52.683396 -32.879704 33.099107 9
49.920260 -34.712617 32.957705 9
47.231341 -35.966860 32.883239 9
44.605245 -36.529497 32.890249 9
42.011687 -36.632465 32.950632 9
39.426648 -36.590458 33.025719 9
36.843073 -36.508128 33.102620 9
34.258337 -36.460338 33.172046 9
31.672985 -36.446139 33.234104 9
29.087350 -36.434440 33.292668 9
26.500447 -36.386256 33.352629 9
23.910603 -36.295029 33.414840 9
21.320680 -36.292399 33.462790 9
18.727467 -36.258445 33.511524 9
16.131960 -36.236936 33.555546 9
13.530442 -36.171033 33.602020 9
10.927805 -36.151409 33.639520 9
8.324945 -36.178310 33.667995 9
5.713442 -36.151275 33.700130 9
3.094289 -36.099957 33.732187 9
0.472898 -36.083229 33.756713 9
-2.150273 -36.100498 33.773767 9
-4.783196 -36.087257 33.791512 9
-7.428144 -36.037209 33.810741 9
-10.069240 -36.065795 33.816809 9
-12.722169 -36.064303 33.823484 9
-15.392589 -36.007762 33.833926 9
-18.059942 -36.021718 33.832191 9
-20.737174 -36.030016 33.827924 9
-23.425248 -36.031282 33.821283 9
-26.122978 -36.034659 33.811087 9
-28.820825 -36.085468 33.791572 9
-31.552743 -36.032814 33.781841 9
-34.283323 -36.038896 33.761312 9
-37.018140 -36.076648 33.733397 9
-39.757999 -36.141445 33.698662 9
-42.536223 -36.109729 33.672695 9
-45.428220 -35.726869 33.687566 9
-48.489197 -34.843636 33.761906 9
-51.960021 -32.719002 33.988737 9
-55.766339 -29.717514 34.321542 9
-59.926151 -25.872618 34.755528 9
-64.325766 -21.608111 35.236918 9
-71.317905 -10.155080 36.612515 8
-74.355954 -10.552082 36.498491 8
-77.401559 -10.962491 36.378826 8
-80.466871 -11.354826 36.257410 8
-83.568574 -11.689529 36.139103 8
-86.649456 -12.116236 36.005270 8
-89.731708 -12.575311 35.863317 8
-92.879135 -12.914874 35.731962 8
-96.042059 -13.260578 35.595583 8
-99.195799 -13.669207 35.447167 8
-102.382402 -14.045725 35.298347 8
-106.022546 -13.495829 35.258103 8
62.107359 -20.662800 37.537002 9
59.004972 -23.945021 37.194910 9
55.994527 -26.971791 36.881564 9
53.077963 -29.619860 36.613857 9
50.246688 -31.846891 36.397945 9
47.517526 -33.174848 36.298650 9
44.847222 -33.921804 36.273917 9
42.216329 -34.137183 36.317597 9
39.604631 -33.952578 36.412323 9
36.987682 -33.898993 36.486380 9
34.370834 -33.828990 36.559719 9
31.753092 -33.756264 36.630497 9
29.134156 -33.724292 36.692799 9
26.514097 -33.690729 36.752388 9
23.891801 -33.631297 36.812592 9
21.266442 -33.557241 36.871892 9
18.639442 -33.520894 36.923127 9
16.010141 -33.498423 36.969550 9
13.377015 -33.466881 37.014312 9
10.739937 -33.434572 37.056274 9
8.099687 -33.416903 37.093316 9
5.455543 -33.406635 37.126429 9
2.804820 -33.380095 37.158872 9
0.147881 -33.349094 37.189017 9
-2.512847 -33.338607 37.213411 9
-5.182171 -33.311302 37.237201 9
-7.860332 -33.272484 37.259647 9
-10.544385 -33.247164 37.277286 9
-13.224876 -33.294650 37.281904 9
-15.922573 -33.283953 37.291599 9
-18.626001 -33.290849 37.295881 9
-21.334721 -33.317621 37.294420 9
-24.053820 -33.338643 37.290746 9
-26.792882 -33.311866 37.290657 9
-29.539432 -33.302677 37.285092 9
-32.276949 -33.382587 37.264143 9
-35.033621 -33.425958 37.245166 9
-37.817843 -33.406111 37.231820 9
-40.597839 -33.453955 37.205992 9
-43.447728 -33.291799 37.205993 9
-46.446636 -32.664939 37.266861 9
-49.764722 -31.044616 37.461272 9
-53.582683 -27.940945 37.856268 9
-57.923918 -23.431725 38.440478 9
-63.077933 -16.766926 39.316212 9
59.919951 -16.389802 41.481503 9
56.752161 -20.228764 41.015920 9
53.588997 -24.979253 40.412502 9
50.648392 -27.977878 40.058464 9
47.852350 -29.646510 39.893911 9
45.126788 -30.645926 39.823447 9
42.453159 -30.943071 39.852512 9
39.800230 -30.848241 39.936165 9
37.146077 -30.786932 40.012189 9
34.492436 -30.670864 40.093563 9
31.836768 -30.610767 40.164014 9
29.179934 -30.552247 40.231543 9
26.520706 -30.441835 40.304062 9
23.859652 -30.382826 40.366317 9
21.195738 -30.315468 40.427142 9
18.529279 -30.263240 40.483061 9
15.858250 -30.189145 40.539566 9
13.186536 -30.172027 40.584945 9
10.507884 -30.110294 40.634297 9
7.823520 -30.040283 40.682226 9
5.136268 -30.000371 40.723013 9
2.442909 -29.955312 40.761905 9
-0.252740 -29.944878 40.792959 9
-2.962770 -29.865696 40.831610 9
-5.671374 -29.856866 40.857072 9
-8.386011 -29.854655 40.878856 9
-11.109564 -29.842117 40.899489 9
-13.851114 -29.768103 40.926624 9
-16.590928 -29.761484 40.940958 9
-19.341484 -29.745289 40.954002 9
-22.103530 -29.719910 40.965686 9
-24.868201 -29.733433 40.968791 9
-27.644065 -29.742381 40.969816 9
-30.426396 -29.771222 40.965079 9
-33.233385 -29.741273 40.966355 9
-36.047227 -29.735914 40.961129 9
-38.871703 -29.739493 40.951727 9
-41.703230 -29.766861 40.935905 9
-44.613402 -29.555131 40.952999 9
-47.829144 -28.331655 41.118565 9
-51.554441 -25.512244 41.519723 9
51.355633 -19.951082 44.469804 9
48.331815 -23.869158 43.933108 9
45.500189 -25.658223 43.727084 9
42.758625 -26.228645 43.709859 9
40.052950 -26.119643 43.797194 9
37.348524 -25.930642 43.894726 9
34.640849 -25.779773 43.983796 9
31.930523 -25.673315 44.063388 9
29.218038 -25.549438 44.143310 9
26.502042 -25.383801 44.227455 9
23.782594 -25.248239 44.304406 9
21.059880 -25.136825 44.375095 9
18.332348 -25.009351 44.445936 9
15.598658 -24.858757 44.518069 9
12.861141 -24.740238 44.582671 9
10.119181 -24.639382 44.642038 9
7.370572 -24.529357 44.700464 9
4.614943 -24.414492 44.757256 9
1.856235 -24.339597 44.805217 9
-0.913903 -24.224365 44.857239 9
-3.687206 -24.150449 44.900196 9
-6.464417 -24.106921 44.935830 9
-9.255688 -24.019542 44.976082 9
-12.055858 -23.934396 45.013531 9
-14.863166 -23.865286 45.045944 9
-17.670327 -23.855036 45.066400 9
-20.494724 -23.801241 45.091402 9
-23.325544 -23.770030 45.110273 9
-26.165457 -23.747574 45.125231 9
-29.018927 -23.714228 45.139434 9
-31.891861 -23.647471 45.156506 9
-34.747728 -23.711574 45.149903 9
-37.633021 -23.700631 45.152860 9
-40.528267 -23.703207 45.151058 9
-43.477113 -23.554093 45.171159 9
-46.880238 -21.807231 45.446618 9
43.386430 -14.234925 48.917092 9
40.559622 -14.031338 49.023828 9
37.741437 -13.372551 49.205565 9
34.913282 -12.588536 49.406562 9
32.070487 -11.784660 49.608977 9
29.210086 -10.575389 49.878491 9
24.157350 139.161357 75.478297 3
19.831376 139.226731 75.578677 3
15.504378 139.216512 75.662702 3
11.175217 139.189358 75.740380 3
6.840602 139.201397 75.821328 3
2.501461 139.207484 75.897834 3
-1.843375 139.215233 75.971209 3
24.248797 139.169016 80.558448 3
19.911329 139.204365 80.655464 3
15.572409 139.193433 80.741048 3
11.231017 139.172643 80.821837 3
6.882725 139.215572 80.911283 3
2.531890 139.211266 80.989134 3
-1.822130 139.176649 81.058472 3
28.687924 139.184969 85.566359 3
24.339887 139.228097 85.669213 3
19.991709 139.177206 85.751314 3
15.639581 139.203614 85.845833 3
11.285474 139.191779 85.930407 3
6.926025 139.210989 86.018486 3
2.564282 139.185933 86.095456 3
28.792324 139.229066 90.695862 3
24.432919 139.178172 90.780871 3
20.071935 139.170504 90.872625 3
15.708147 139.181023 90.966027 3
11.340824 139.195939 91.058265 3
6.969769 139.201530 91.146533 3
2.594235 139.201313 91.231562 3
28.897565 139.185428 95.830681 3
24.525399 139.197323 95.929616 3
20.151121 139.223181 96.029947 3
15.775295 139.209845 96.120166 3
11.397155 139.183291 96.205905 3
7.013888 139.188677 96.296986 3
2.627935 139.159501 96.378976 3
29.003010 139.217284 101.006403 3
24.618616 139.195649 101.098769 3
20.232384 139.204471 101.196917 3
15.844709 139.180703 101.286470 3
11.453823 139.168968 101.377636 3
7.056466 139.208759 101.479481 3
2.657407 139.187128 101.566163 3
29.109013 139.246925 106.208502 3
24.712258 139.197370 106.294870 3
20.314250 139.177168 106.387574 3
15.914266 139.157470 106.479719 3
11.508101 139.216714 106.590188 3
7.100744 139.201007 106.682002 3
2.688022 139.199178 106.776533 3
29.215823 139.205804 111.421160 3
24.806540 139.188378 111.515974 3
20.395812 139.181370 111.613196 3
15.981863 139.204521 111.717827 3
11.564931 139.212238 111.818403 3
7.143579 139.224936 111.920087 3
33.744290 139.184450 116.567320 3
29.323128 139.191772 116.669143 3
24.901737 139.149012 116.758037 3
20.477769 139.188325 116.868829 3
16.051407 139.204476 116.973825 3
11.623185 139.181882 117.068912 3
7.190523 139.175753 117.168678 3
33.864841 139.186577 121.849556 3
29.431042 139.181538 121.948547 3
24.996102 139.217271 122.059512 3
20.559688 139.218228 122.161684 3
16.120939 139.217268 122.264118 3
11.680358 139.184484 122.358578 3
7.235567 139.167399 122.458191 3
33.967471 136.704456 126.451636 0
29.545778 136.696201 126.549565 0
25.123386 136.699932 126.652177 0
20.698707 136.733505 126.764631 0
16.273339 136.694652 126.857545 0
11.844863 136.671897 126.956379 0
7.279300 139.189147 127.788575 0
38.512299 136.080698 131.484318 0
34.088487 136.659572 131.756225 0
29.654391 136.701858 131.869645 0
25.219734 136.663107 131.960575 0
20.782972 136.684441 132.071247 0
16.343952 136.688892 132.178653 0
11.901091 136.706012 132.291668 0
7.454729 136.706069 132.401396 0
38.640434 135.712072 136.715595 0
34.210548 136.647452 137.105265 0
29.763735 136.704323 137.224224 0
25.316275 136.661790 137.314505 0
20.867508 136.647335 137.415787 0
16.416063 136.651101 137.525037 0
11.959589 136.695741 137.649363 0
7.499907 136.706714 137.765532 0
38.781779 136.021944 142.193960 0
34.333493 136.640813 142.492811 0
29.873926 136.655832 142.599423 0
25.413694 136.642644 142.699678 0
20.951997 136.638127 142.805520 0
16.487523 136.648583 142.919019 0
12.020706 136.632801 143.026844 0
7.596278 135.733686 142.850777 0
38.930937 136.686536 147.837507 0
34.457543 136.660090 147.927638 0
29.984809 136.657763 148.029117 0
25.511705 136.632080 148.126033 0
21.037647 136.603263 148.225189 0
16.558573 136.675013 148.361488 0
12.081534 136.586350 148.447175 0
7.637720 135.816327 148.306632 0
39.069123 136.699820 153.311592 0
34.581728 136.589570 153.372231 0
30.096546 136.639694 153.492422 0
25.610142 136.647752 153.601799 0
21.122869 136.616994 153.701485 0
16.632718 136.621027 153.817146 0
12.138520 136.641862 153.942555 0
39.206956 136.639272 158.801765 0
34.707797 136.623274 158.894946 0
30.209127 136.632708 159.001613 0
25.709850 136.618603 159.104137 0
21.209296 136.605589 159.211416 0
16.706621 136.591926 159.322845 0
12.197643 136.657536 159.467344 0
43.842891 136.051645 164.044286 0
39.347059 136.639400 164.357228 0
34.834240 136.587936 164.436959 0
30.322637 136.585076 164.539665 0
25.810388 136.585241 164.648384 0
21.296819 136.574839 164.758064 0
16.780551 136.580346 164.878621 0
12.255942 136.704654 165.048587 0
43.986065 135.676948 169.494662 0
39.488221 136.634322 169.956801 0
34.961796 136.560938 170.027401 0
30.437057 136.552700 170.128509 0
25.911200 136.602553 170.257471 0
21.384276 136.581094 170.364372 0
16.854612 136.584022 170.486174 0
12.348393 135.940476 170.363434 0
44.153794 136.070106 175.288974 0
39.629709 136.585776 175.587024 0
35.090793 136.569677 175.679460 0
30.552434 136.559342 175.780156 0
26.013487 136.562562 175.892244 0
21.472654 136.579306 176.015745 0
16.929114 136.594029 176.144493 0
12.418963 135.713311 175.921503 0
44.330026 136.684305 181.234228 0
39.773706 136.599110 181.291534 0
35.220593 136.545034 181.368117 0
30.668835 136.522188 181.464059 0
26.116532 136.534984 181.581219 0
21.562435 136.547350 181.704789 0
17.002840 136.650808 181.872525 0
44.488708 136.677899 186.984627 0
39.918009 136.563815 187.027967 0
35.351499 136.513771 187.105513 0
30.786298 136.534970 187.220382 0
26.220345 136.523439 187.328492 0
21.652389 136.546396 187.458407 0
17.078904 136.654589 187.631765 0
44.647965 136.642423 192.776525 0
40.064185 136.553244 192.828625 0
35.483737 136.492686 192.900876 0
30.904862 136.519134 193.018860 0
26.325364 136.488189 193.119442 0
21.742839 136.562960 193.274059 0
17.154477 136.698066 193.462937 0
49.379173 135.964269 198.252696 0
44.810932 136.674751 198.654593 0
40.211242 136.517763 198.674347 0
35.617544 136.497475 198.763892 0
31.024578 136.509996 198.876501 0
26.431128 136.480061 198.978269 0
21.834540 136.561506 199.138623 0
17.250155 136.104225 199.064063 0
49.545100 135.693421 204.041742 0
44.972327 136.607646 204.546311 0
40.360649 136.522785 204.596754 0
35.752558 136.490220 204.680290 0
31.145509 136.516569 204.800042 0
26.537827 136.484962 204.901794 0
21.926167 136.610433 205.085464 0
17.341163 135.684077 204.788996 0
49.748742 136.257236 210.282686 0
45.138123 136.624746 210.537636 0
40.512131 136.551426 210.591786 0
35.888934 136.480372 210.656464 0
31.267538 136.412501 210.732121 0
26.645121 136.546402 210.913710 0
22.019643 136.614760 211.073567 0
17.397108 136.455131 211.133924 0
49.948872 136.686302 216.536532 0
45.304591 136.608675 216.576837 0
40.663441 136.500778 216.612336 0
36.026431 136.443798 216.682895 0
31.390989 136.415137 216.777457 0
26.754125 136.547398 216.961267 0
22.113128 136.670316 217.150720 0
50.130622 136.645190 222.631270 0
45.472078 136.568854 222.669831 0
40.817344 136.491811 222.718722 0
36.166103 136.462336 222.802332 0
31.515861 136.452275 222.906482 0
26.863812 136.608204 223.105308 0
22.209158 136.648072 223.256314 0
50.314977 136.616946 228.800405 0
45.640532 136.502381 228.816729 0
40.970924 136.395047 228.848120 0
36.341854 139.173803 230.388737 0
31.642196 136.505378 229.113635 0
26.975085 136.631216 229.300256 0
22.311104 136.368860 229.296597 0
50.493542 136.412525 234.946499 0
45.810857 136.434369 235.032474 0
41.128248 136.382972 235.091434 0
36.450332 136.505169 235.254945 0
31.769692 136.428705 235.324588 0
27.089813 136.386677 235.424632 0
50.669731 136.110331 241.107662 0
45.987563 136.492566 241.389663 0
41.288056 136.396539 241.422750 0
36.594073 136.459277 241.555402 0
31.898885 136.430729 241.650789 0
27.176726 139.866810 243.657510 0
-144.523811 30.311289 -5.888113 7
-138.931721 30.033521 -7.134220 7
-133.522405 29.722392 -8.330437 7
-128.293879 29.373187 -9.474372 7
-123.123641 29.068522 -10.639120 7
-118.202947 28.665957 -11.702565 7
-116.940060 25.579675 -10.471786 7
-101.782592 33.181720 -18.265237 8
-97.457518 32.663718 -19.151601 8
-93.238168 32.129680 -20.013652 8
-88.942560 31.725167 -20.971877 8
-84.927772 31.156502 -21.784949 8
-80.902931 30.659386 -22.647172 8
-76.999625 30.120990 -23.467194 8
-73.256683 29.501711 -24.214817 8
-69.495657 28.956319 -25.014130 8
-66.433096 27.822764 -25.346125 8
-58.041581 31.766252 -29.619747 9
-51.698673 33.973695 -32.494802 9
-46.716893 35.007855 -34.434273 9
-43.069543 34.817699 -35.421636 9
-39.848780 34.255706 -36.120497 9
-36.664688 33.705143 -36.823775 9
-33.519516 33.162507 -37.528989 9
-30.477435 32.556448 -38.183909 9
-27.459571 31.969168 -38.849813 9
-24.506013 31.354584 -39.493343 9
-21.566256 30.768025 -40.154910 9
-18.754519 30.074200 -40.738032 9
-15.769807 29.629345 -41.496240 9
-13.097178 28.847847 -42.015456 9
-10.431377 28.092177 -42.553370 9
-7.828062 27.290886 -43.060504 9
-5.257742 26.478615 -43.561498 9
-2.715949 25.659452 -44.059496 9
-0.199714 24.835839 -44.556438 9
2.245617 23.942541 -45.009001 9
4.697327 23.084891 -45.488272 9
7.079478 22.152615 -45.921354 9
9.457885 21.238499 -46.370100 9
11.798628 20.290657 -46.800814 9
14.072445 19.259796 -47.182532 9
16.369340 18.283925 -47.604560 9
18.619958 17.251913 -47.996004 9
20.808210 16.131811 -48.337848 9
23.010858 15.048802 -48.709365 9
25.163502 13.891139 -49.041242 9
27.300884 12.715398 -49.369327 9
29.415733 11.506071 -49.684614 9
31.475473 10.198151 -49.948635 9
33.525912 8.872651 -50.211301 9
35.531544 7.456849 -50.429975 9
37.517965 5.995572 -50.632404 9
39.467431 4.447546 -50.795365 9
41.368192 2.780129 -50.901419 9
43.222588 0.988518 -50.949680 9
44.913660 -1.203523 -50.785455 9
46.408331 -3.906699 -50.352461 9
47.740756 -7.081992 -49.679969 9
48.811503 -11.014985 -48.617152 9
49.429309 -16.257269 -46.873021 9
48.078083 -26.893600 -42.249560 9
-145.869238 30.748717 -0.801939 7
-139.849307 30.696324 -2.337507 7
-134.122188 30.547510 -3.758632 7
-128.559821 30.381944 -5.140369 7
-123.187664 30.175970 -6.463136 7
-118.066749 29.878032 -7.683380 7
-107.740013 33.580341 -12.385088 8
-101.295348 34.556999 -14.644085 8
-96.670163 34.243162 -15.757353 8
-92.278823 33.821113 -16.762612 8
-87.966261 33.407566 -17.761624 8
-83.778364 32.961895 -18.720788 8
-79.759517 32.441488 -19.605960 8
-75.667794 32.049166 -20.586574 8
-71.896977 31.441160 -21.379326 8
-68.092332 30.922536 -22.236635 8
-62.352749 32.253371 -24.573686 9
-55.583875 34.692310 -27.762885 9
-49.594046 36.562616 -30.456007 9
-45.167442 37.052162 -32.027193 9
-41.625503 36.750518 -32.962853 9
-38.409056 36.177722 -33.680312 9
-35.158492 35.690618 -34.458579 9
-32.067696 35.085768 -35.141705 9
-29.021171 34.479753 -35.820132 9
-25.950152 33.947316 -36.550130 9
-22.955800 33.376475 -37.247542 9
