ply
format ascii 1.0
element vertex 1391
property float x
property float y
property float z
property int scalar_Label
end_header
-78.160483 -30.775283 22.714534 8
-81.659849 -30.711494 22.781543 8
-85.172762 -30.689632 22.838117 8
-88.768280 -30.584507 22.915494 8
-92.387721 -30.507306 22.985952 8
-96.040970 -30.441364 23.053653 8
-99.762930 -30.329398 23.132932 8
-103.511263 -30.246417 23.205044 8
-107.975741 -29.081472 23.548347 8
-124.747785 -8.631103 28.727943 7
147.167180 -16.594035 24.986905 6
144.129947 -16.399300 25.108838 6
141.104840 -16.200502 25.231338 6
138.084219 -16.025208 25.347655 6
135.073498 -15.851150 25.463261 6
132.082326 -15.633451 25.589212 6
129.091207 -15.452536 25.705749 6
126.124322 -15.194446 25.840952 6
123.140131 -15.054638 25.946663 6
120.182640 -14.814110 26.076904 6
117.225736 -14.599731 26.200394 6
113.717932 -17.722244 25.497797 5
114.115277 3.646477 30.860179 5
105.864245 -31.167878 22.301664 5
102.913205 -32.310770 22.083197 5
100.151322 -32.191206 22.177504 5
97.383332 -32.157109 22.250319 5
94.620876 -32.118126 22.324083 5
91.862076 -32.086777 22.395692 5
89.108637 -32.039907 22.470927 5
86.355036 -32.037068 22.534948 5
83.935833 -27.041414 23.845962 5
80.856940 -32.050000 22.657652 5
78.115807 -31.979162 22.738025 5
75.376992 -31.863123 22.829554 5
72.637095 -31.760197 22.917661 5
69.894318 -31.771721 22.976920 5
67.152893 -31.698245 23.057359 5
64.431536 -38.295446 21.460788 9
61.780746 -40.337749 21.007170 9
59.169389 -42.373573 20.554148 9
56.594898 -44.344877 20.116369 9
54.053578 -46.220891 19.701653 9
51.539650 -47.954295 19.322022 9
49.029310 -49.240786 19.054486 9
46.507966 -50.069237 18.902169 9
43.953857 -50.347642 18.888674 9
41.379258 -50.390985 18.934569 9
38.796237 -50.390014 18.991646 9
36.203234 -50.347053 19.059355 9
33.606517 -50.327460 19.121130 9
31.005092 -50.322221 19.179259 9
28.399264 -50.333975 19.233070 9
25.777159 -50.285159 19.302318 9
23.142474 -50.212863 19.377600 9
20.515707 -50.242358 19.426979 9
17.874095 -50.235701 19.485624 9
15.212468 -50.174732 19.558211 9
12.552030 -50.174068 19.615468 9
9.877091 -50.154518 19.677641 9
7.187903 -50.122293 19.743161 9
4.490600 -50.107534 19.804318 9
1.783552 -50.103741 19.862780 9
-0.961117 -50.003200 19.946225 9
-3.687438 -50.029152 19.997326 9
-6.449746 -49.973708 20.069511 9
-9.196172 -50.027840 20.113656 9
-11.999423 -49.938906 20.194834 9
-14.794244 -49.934376 20.254456 9
-17.611961 -49.910154 20.319364 9
-20.440026 -49.908025 20.378781 9
-23.317747 -49.813226 20.462398 9
-26.186289 -49.802657 20.524482 9
-29.085307 -49.762013 20.594616 9
-32.003364 -49.726324 20.663745 9
-34.948075 -49.677480 20.736584 9
-37.904960 -49.654839 20.802927 9
-40.895833 -49.605023 20.876655 9
-43.916817 -49.541382 20.954326 9
-49.931378 -42.635599 22.815351 9
-50.978324 -47.299172 21.662414 9
-55.747078 -43.642153 22.679855 9
-61.070537 -39.046987 23.944599 9
-70.628670 -25.945374 27.436879 8
-74.121915 -25.836239 27.534601 8
-77.672527 -25.682552 27.644526 8
-81.259388 -25.530455 27.754605 8
-84.870095 -25.405445 27.858163 8
-88.536180 -25.249883 27.970350 8
-92.237919 -25.103593 28.080733 8
-95.987207 -24.947353 28.194392 8
-99.809000 -24.741302 28.321863 8
-103.603376 -24.658890 28.417449 8
153.251471 135.731067 68.482460 0
148.876793 136.719467 68.836722 0
144.334440 136.790598 68.953580 0
139.794743 136.799244 69.054191 0
111.571067 -13.935407 30.015489 5
106.674949 -26.925842 26.704761 5
103.545547 -28.991962 26.229521 5
100.706904 -29.149500 26.250186 5
97.905331 -29.071178 26.332243 5
95.105075 -29.020191 26.407234 5
92.312653 -28.932138 26.491958 5
89.523351 -28.842450 26.577197 5
86.734627 -28.776787 26.656256 5
83.950544 -28.677162 26.744301 5
81.165504 -28.615166 26.822620 5
78.382465 -28.540517 26.904378 5
75.599944 -28.469128 26.985420 5
72.817445 -28.403847 27.065007 5
70.035316 -28.304307 27.153754 5
67.252409 -28.114504 27.266423 5
64.489231 -35.797344 25.307291 9
61.807776 -38.013883 24.784794 9
59.168226 -40.175628 24.275914 9
56.572691 -42.410946 23.746820 9
54.011572 -44.454768 23.267476 9
51.482752 -46.383820 22.817738 9
48.637310 -42.698850 23.852554 9
46.404966 -48.501103 22.377196 9
43.843494 -48.969365 22.312997 9
41.231121 -48.834145 22.408896 9
38.624967 -48.832387 22.469679 9
36.008660 -48.787855 22.542094 9
33.383856 -48.728625 22.618718 9
30.755719 -48.700672 22.687333 9
28.120760 -48.676607 22.755229 9
25.476399 -48.642203 22.826208 9
22.824058 -48.611305 22.896596 9
19.340237 -43.848589 24.231397 9
16.623340 -43.831656 24.299922 9
13.881514 -43.737824 24.389411 9
12.148566 -48.631413 23.143352 9
9.438187 -48.558621 23.226854 9
6.727198 -48.539206 23.296478 9
3.994887 -48.480765 23.377020 9
1.260292 -48.467910 23.445774 9
-1.497850 -48.414647 23.525865 9
-4.269043 -48.367254 23.604872 9
-7.052834 -48.328932 23.681944 9
-9.850686 -48.295805 23.758137 9
-12.662341 -48.270323 23.832801 9
-15.501564 -48.209505 23.917571 9
-18.362845 -48.136162 24.006318 9
-21.225182 -48.116763 24.081060 9
-24.127451 -48.035043 24.173306 9
-27.031304 -48.006971 24.251640 9
-29.957758 -47.972227 24.332433 9
-32.902171 -47.945710 24.411655 9
-35.890142 -47.862803 24.506917 9
-38.885963 -47.819578 24.592099 9
-41.901301 -47.786350 24.675289 9
-45.011857 -47.585378 24.805055 9
-48.502915 -46.576157 25.156718 9
-52.967511 -43.497189 26.076354 9
-58.225414 -38.905290 27.413243 9
-64.426055 -32.602728 29.223044 9
-74.585066 -18.476063 33.186455 8
-78.255854 -18.218330 33.346069 8
-82.015369 -17.863779 33.533505 8
-85.818461 -17.508621 33.722372 8
-89.713611 -17.064286 33.937144 8
-93.650959 -16.630973 34.150267 8
-97.617940 -16.233013 34.355042 8
-101.716387 -15.692191 34.600818 8
162.811634 135.693481 73.655293 0
158.416389 136.709216 74.018548 0
153.825515 136.759317 74.121099 0
149.252435 136.821500 74.227372 0
144.680258 136.808375 74.313686 0
140.126166 136.813863 74.405504 0
135.575064 136.751794 74.479444 0
108.321600 -17.071932 32.754549 5
104.878617 -20.619215 31.849560 5
101.524169 -24.092229 30.963657 5
98.674300 -23.920081 31.069835 5
96.194648 -20.320552 32.111001 5
93.312066 -20.175979 32.211231 5
90.437695 -19.960500 32.331261 5
87.563697 -19.740990 32.452870 5
84.687166 -19.550907 32.566921 5
81.808457 -19.390100 32.673446 5
78.930990 -19.193279 32.790327 5
76.053452 -18.952284 32.919836 5
73.171398 -18.762262 33.035906 5
70.286647 -18.575040 33.151744 5
67.399094 -18.342352 33.280629 5
64.545535 -32.208609 29.531812 9
61.827319 -34.996343 28.827135 9
59.157151 -37.492178 28.202087 9
56.533777 -39.939672 27.589703 9
53.948292 -42.174748 27.035299 9
51.403575 -44.381432 26.488191 9
48.844617 -45.702495 26.185394 9
46.290539 -46.773029 25.951808 9
43.699929 -47.189040 25.899503 9
41.068250 -47.119226 25.982202 9
38.427727 -47.024243 26.072468 9
35.788857 -47.008287 26.141403 9
33.136972 -46.936871 26.226338 9
30.487201 -46.940092 26.291140 9
27.820851 -46.875353 26.375470 9
25.147142 -46.819645 26.457940 9
22.464034 -46.762083 26.541594 9
19.773839 -46.719396 26.621779 9
17.077466 -46.696988 26.696989 9
14.361076 -46.623405 26.787213 9
11.650051 -46.632916 26.854912 9
8.909235 -46.552986 26.948396 9
6.165291 -46.516578 27.030452 9
3.401094 -46.447983 27.122323 9
0.626965 -46.395526 27.210472 9
-2.163986 -46.332849 27.302322 9
-4.954655 -46.327258 27.378941 9
-7.789610 -46.214670 27.486569 9
-10.629853 -46.143836 27.583333 9
-13.486470 -46.075580 27.680288 9
-16.365399 -45.992736 27.782310 9
-19.287019 -45.835699 27.906314 9
-22.195316 -45.781991 28.002069 9
-25.134594 -45.695151 28.108229 9
-28.079814 -45.650781 28.203375 9
-31.063122 -45.559411 28.312937 9
-34.059553 -45.493314 28.416410 9
-37.061417 -45.472068 28.508215 9
-40.113176 -45.382961 28.620504 9
-43.184605 -45.306961 28.730240 9
-46.486706 -44.747609 28.979462 9
-50.445171 -42.769549 29.636596 9
-64.189391 -19.100615 36.516438 9
-65.101214 -24.631765 35.030504 9
172.519691 135.722848 78.923198 0
168.092234 136.731696 79.284368 0
163.448609 136.767318 79.371771 0
158.840297 136.885944 79.483608 0
154.209318 136.815094 79.542826 0
149.618638 136.861164 79.636094 0
145.024597 136.805898 79.701642 0
140.454358 136.797177 79.781355 0
135.896446 136.777521 79.858959 0
131.352454 136.761556 79.938613 0
126.821939 136.753414 80.021504 0
122.301624 136.736349 80.102887 0
117.795497 136.749368 80.193868 0
113.296306 136.741816 80.280055 0
108.705106 135.704109 80.073838 0
64.598649 -26.473803 34.477908 9
61.831263 -30.597920 33.357938 9
59.125502 -33.836266 32.491508 9
56.467217 -36.586170 31.764896 9
53.864403 -39.391379 31.021856 9
51.288907 -41.693066 30.423395 9
48.718337 -43.382482 30.001238 9
46.127212 -44.368899 29.782026 9
43.498157 -44.704161 29.751305 9
40.288568 -38.758855 31.537626 9
38.164622 -44.578277 29.922429 9
35.484968 -44.488122 30.017229 9
32.799623 -44.414978 30.108034 9
30.102323 -44.311957 30.208457 9
27.404526 -44.268948 30.292425 9
24.690553 -44.175546 30.392011 9
21.963727 -44.064774 30.497665 9
19.236257 -44.012921 30.587193 9
16.498657 -43.961789 30.677536 9
13.741663 -43.866652 30.781773 9
10.973612 -43.777580 30.885329 9
8.202185 -43.731988 30.977277 9
5.396513 -43.590090 31.098532 9
2.602410 -43.560680 31.188002 9
-0.209561 -43.512894 31.284006 9
-3.044234 -43.432660 31.390720 9
-5.898472 -43.337879 31.502934 9
-8.753444 -43.299931 31.599675 9
-11.643845 -43.195246 31.717333 9
-14.537490 -43.140141 31.821681 9
-17.458808 -43.053354 31.936702 9
-22.447416 -36.626230 33.928139 9
-23.305377 -43.042434 32.122708 9
-26.303938 -42.899682 32.258447 9
-29.310785 -42.797213 32.383728 9
-32.330564 -42.720820 32.502762 9
-35.371356 -42.648942 32.621971 9
-38.469302 -42.490693 32.768460 9
-41.555746 -42.426364 32.888586 9
-44.773715 -42.104320 33.087300 9
-48.551878 -40.539838 33.659428 9
-53.847643 -35.645043 35.231715 9
182.388531 135.811447 84.295334 0
177.904699 136.739151 84.630239 0
173.200285 136.748309 84.696297 0
168.537189 136.846888 84.790214 0
163.855869 136.783271 84.837830 0
159.223040 136.854221 84.926636 0
154.593321 136.859369 84.997547 0
149.975367 136.838493 85.062286 0
145.368302 136.787539 85.119649 0
140.789487 136.808949 85.199917 0
136.218077 136.791757 85.270303 0
131.656289 136.749017 85.334658 0
127.118506 136.785204 85.423924 0
122.581904 136.748729 85.493222 0
117.934547 135.684254 85.259194 0
61.786699 -22.062644 39.253565 9
59.045627 -27.942980 37.559755 9
56.361454 -31.979605 36.416965 9
53.729160 -35.374617 35.465841 9
51.139706 -38.332775 34.645346 9
48.526955 -40.014018 34.208230 9
45.903058 -41.123157 33.943468 9
43.246627 -41.616511 33.864651 9
40.547528 -41.591143 33.943026 9
37.841374 -41.550917 34.027074 9
35.124595 -41.472910 34.123745 9
32.374852 -41.189565 34.283709 9
29.635394 -41.076000 34.393725 9
26.890511 -40.990544 34.496551 9
24.141170 -40.937454 34.590893 9
21.375440 -40.841408 34.699589 9
18.602152 -40.763821 34.804053 9
15.811534 -40.651857 34.920350 9
13.006729 -40.530056 35.041068 9
10.192861 -40.427695 35.157328 9
7.368856 -40.339772 35.270662 9
4.532090 -40.255396 35.384405 9
1.667668 -40.113925 35.517107 9
-1.207237 -39.994502 35.644650 9
-4.101052 -39.864314 35.777086 9
-7.014938 -39.722774 35.914639 9
-9.939541 -39.606998 36.045962 9
-12.849774 -39.602715 36.144717 9
-15.823898 -39.440829 36.293598 9
-18.833804 -39.229993 36.459348 9
-21.833978 -39.118066 36.596464 9
-24.864335 -38.978299 36.744006 9
-27.917648 -38.836469 36.894075 9
-30.990221 -38.705315 37.042770 9
-34.084424 -38.579604 37.191743 9
-37.211440 -38.431580 37.349646 9
-40.363154 -38.286082 37.508828 9
-43.601566 -37.991182 37.716622 9
-47.357183 -36.523178 38.292339 9
-53.787532 -28.920233 40.786320 9
192.429822 135.947143 89.779664 0
187.865340 136.737606 90.066849 0
183.106314 136.766216 90.122565 0
178.373832 136.811061 90.185352 0
173.671832 136.894744 90.262152 0
168.964071 136.871355 90.308161 0
164.284273 136.881893 90.366659 0
159.616442 136.860644 90.417458 0
154.975342 136.880863 90.483071 0
150.332552 136.805667 90.521401 0
145.726626 136.837328 90.594668 0
141.119686 136.778542 90.642161 0
136.539336 136.790145 90.713393 0
131.964067 136.749242 90.770520 0
127.266381 135.737242 90.530216 0
53.521922 -29.624209 40.569932 9
50.893061 -33.094809 39.556800 9
48.258028 -35.394003 38.909596 9
45.598883 -36.769722 38.551630 9
42.884086 -37.184996 38.495213 9
40.119483 -37.022579 38.621154 9
37.352762 -36.921393 38.729495 9
34.572481 -36.768641 38.855624 9
31.781506 -36.604779 38.986893 9
28.984367 -36.470437 39.110552 9
26.176688 -36.332807 39.236930 9
23.360046 -36.206457 39.361463 9
20.524698 -36.033532 39.502421 9
17.672685 -35.837312 39.652524 9
14.813157 -35.674341 39.793942 9
11.985044 -35.741392 39.864381 9
9.087216 -35.515732 40.029288 9
6.191520 -35.374381 40.169388 9
3.262000 -35.150136 40.337728 9
0.319673 -34.945172 40.501944 9
-2.632403 -34.772006 40.658065 9
-5.620409 -34.528251 40.838723 9
-8.619756 -34.316005 41.011459 9
-11.646593 -34.076613 41.195015 9
-14.695300 -33.834855 41.381536 9
-17.780165 -33.546185 41.585337 9
-23.488145 -24.963558 44.451381 9
-26.778778 -24.472088 44.728519 9
-30.123071 -23.911379 45.030593 9
-33.492120 -23.374049 45.327929 9
-36.983056 -22.589194 45.707903 9
-40.521848 -21.782597 46.098012 9
-44.997563 -18.624233 47.251777 9
202.665836 136.153107 95.395392 0
197.990513 136.745302 95.609551 0
193.166264 136.771716 95.645915 0
188.367189 136.799364 95.685383 0
183.610606 136.897691 95.750120 0
178.866805 136.963342 95.807114 0
174.109643 136.889381 95.822181 0
169.393955 136.895758 95.865568 0
164.690795 136.868874 95.900971 0
160.007419 136.842659 95.939222 0
155.355906 136.881869 96.001030 0
150.704241 136.835445 96.038070 0
146.072101 136.802412 96.082010 0
141.448449 136.726318 96.114770 0
136.684805 135.681329 95.839686 0
208.270665 136.692464 101.245942 0
203.392671 136.769431 101.277668 0
198.535582 136.828679 101.306892 0
193.699362 136.872031 101.334196 0
188.882758 136.897161 101.358780 0
184.090815 136.924905 101.387540 0
179.312551 136.916957 101.407736 0
174.565311 136.943684 101.442712 0
169.822909 136.902760 101.458470 0
165.111921 136.907747 101.492708 0
160.403898 136.837089 101.505028 0
155.719358 136.784988 101.526711 0
151.062189 136.779823 101.567186 0
146.227873 135.713016 101.257756 0
213.856468 136.935571 107.089099 0
208.858405 136.787965 107.023826 0
203.955215 136.840292 107.031541 0
199.091482 136.934131 107.057585 0
194.236830 136.973288 107.068766 0
189.382309 136.923290 107.053171 0
184.572482 136.943846 107.065823 0
179.786164 136.965739 107.082833 0
175.001316 136.904083 107.074912 0
170.241372 136.851428 107.073937 0
165.502437 136.796431 107.075977 0
160.782220 136.732893 107.078870 0
155.884479 135.702654 106.752057 0
214.444421 136.963344 112.910551 0
209.454508 136.894787 112.854225 0
204.537607 136.960263 112.850573 0
199.632360 136.975120 112.833486 0
194.782357 137.087564 112.855931 0
189.901688 137.006108 112.813627 0
185.039968 136.895879 112.765596 0
180.222430 136.855351 112.747008 0
175.421472 136.786530 112.722790 0
170.643353 136.716563 112.702616 0
165.674868 135.706948 112.350867 0
215.039552 136.997960 118.783526 0
210.037630 136.946535 118.714984 0
205.093446 136.980373 118.683464 0
200.148937 136.921164 118.622787 0
195.247386 136.910706 118.585475 0
190.363521 136.868926 118.541798 0
185.494259 136.784851 118.487649 0
180.663322 136.749027 118.456531 0
175.605274 135.703843 118.056623 0
215.364938 136.218487 124.394908 0
210.617525 136.973121 124.617495 0
205.656892 137.009553 124.570171 0
200.656505 136.823059 124.443284 0
195.716677 136.734793 124.360087 0
190.826435 136.721604 124.311605 0
185.706195 135.765809 123.907420 0
205.933530 136.116745 130.143269 0
200.918401 135.905594 129.987440 0
-145.915908 15.836634 -25.466019 7
-140.709374 14.594702 -26.208358 7
-135.684908 13.280921 -26.882729 7
-130.768125 11.947591 -27.534599 7
-126.077530 10.493421 -28.081775 7
-121.465968 9.031432 -28.619356 7
-117.053635 7.455918 -29.062600 7
-104.066670 13.410929 -35.541802 8
-99.806703 11.956254 -36.031767 8
-95.604172 10.499692 -36.519559 8
-91.560153 8.945283 -36.930557 8
-87.634503 7.322920 -37.290204 8
-83.843306 5.610983 -37.583485 8
-80.187594 3.801157 -37.806038 8
-76.667434 1.885711 -37.954098 8
-73.319910 -0.181435 -37.995205 8
-70.148604 -2.414753 -37.921527 8
-59.169134 3.715167 -44.049092 9
-50.412934 7.775191 -48.570957 9
-45.509587 7.809212 -50.099305 9
-41.963383 6.397084 -50.569089 9
-38.768982 4.612694 -50.775543 9
-35.678643 2.724898 -50.916518 9
-32.711741 0.702573 -50.971988 9
-29.827356 -1.413201 -50.973159 9
-27.092882 -3.714360 -50.857861 9
-24.525484 -6.235684 -50.605315 9
-22.143197 -9.015688 -50.192897 9
-20.081053 -12.253339 -49.489873 9
-18.467602 -16.155511 -48.364390 9
-18.133183 -21.933375 -46.018048 9
-20.060819 -31.123355 -41.462373 9
-17.040837 -33.355291 -41.568831 9
-149.816671 19.553793 -20.289300 7
-144.092259 18.601884 -21.348518 7
-138.645925 17.523291 -22.282844 7
-131.754649 17.656523 -24.247354 7
-126.646998 16.491483 -25.075469 7
-121.715112 15.254950 -25.833801 7
-116.887336 13.999177 -26.568384 7
-104.472330 19.266228 -32.721693 8
-99.926711 18.031650 -33.416136 8
-95.485583 16.765008 -34.079124 8
-91.164540 15.447689 -34.696740 8
-86.942255 14.093857 -35.281900 8
-82.834770 12.683842 -35.820098 8
-78.843972 11.210167 -36.306955 8
-74.983381 9.653537 -36.728958 8
-71.220638 8.039328 -37.107847 8
-62.271411 11.774897 -41.623936 9
-55.901635 13.073063 -44.208386 9
-48.854028 15.250241 -47.429451 9
-44.365795 14.828360 -48.648010 9
-40.756962 13.507220 -49.184033 9
-37.380571 11.962362 -49.555620 9
-34.062268 10.380251 -49.904385 9
-30.809567 8.748229 -50.222000 9
-27.617838 7.067392 -50.510383 9
-24.543885 5.263136 -50.716967 9
-21.541055 3.385245 -50.879612 9
-18.626107 1.406304 -50.980373 9
-15.814872 -0.702083 -51.001211 9
-13.159184 -3.019056 -50.889345 9
-10.594109 -5.469646 -50.700210 9
-8.233926 -8.224033 -50.319484 9
-6.091324 -11.321133 -49.725809 9
-4.386201 -15.107617 -48.690978 9
-3.482856 -20.178203 -46.828207 9
-5.978377 -30.617169 -41.446697 9
-3.055787 -32.910178 -41.532021 9
-147.531597 22.674815 -16.457877 7
-141.642690 21.829965 -17.671903 7
-135.963601 20.917432 -18.806552 7
-130.447973 19.965125 -19.889141 7
-125.070130 18.987261 -20.934012 7
-119.903907 17.918678 -21.885903 7
-106.506653 23.757628 -28.787848 8
-101.198005 23.106748 -30.023708 8
-96.403467 22.098103 -30.940331 8
-91.870437 20.928888 -31.712081 8
-87.435166 19.733844 -32.455429 8
-83.098359 18.508139 -33.167499 8
-78.860489 17.246944 -33.845511 8
-74.723139 15.944152 -34.485739 8
-70.680920 14.600177 -35.089843 8
-59.597190 20.352276 -41.372753 9
-55.533823 19.277958 -42.141290 9
-48.766050 21.081174 -45.172015 9
-44.165873 20.751404 -46.496227 9
-40.465165 19.527235 -47.115098 9
-36.916840 18.178853 -47.637911 9
-33.424445 16.805955 -48.143345 9
-30.002382 15.388643 -48.617130 9
-26.665185 13.905268 -49.044153 9
-23.358354 12.415982 -49.470664 9
-20.165381 10.815830 -49.819577 9
-17.022154 9.177158 -50.146103 9
-13.964335 7.450200 -50.415022 9
-10.943914 5.691275 -50.668691 9
-8.008725 3.832742 -50.859537 9
-5.183430 1.832964 -50.959965 9
-2.443176 -0.283435 -50.989901 9
0.180100 -2.571082 -50.913383 9
2.712173 -5.004288 -50.751234 9
5.051122 -7.747075 -50.393432 9
7.196241 -10.822264 -49.829708 9
8.979538 -14.518101 -48.870956 9
10.082806 -19.391851 -47.154091 9
7.589620 -30.347751 -41.439466 9
10.433458 -32.698568 -41.505904 9
-146.179540 25.108231 -12.023122 7
-140.013667 24.438153 -13.467440 7
-134.058772 23.709523 -14.833578 7
-128.362371 22.877407 -16.083210 7
-122.709610 22.101259 -17.364053 7
-109.469734 27.554075 -24.205062 8
-103.294722 27.524301 -26.062442 8
-98.513199 26.434882 -26.959074 8
-93.772367 25.379522 -27.874584 8
-89.102430 24.330935 -28.785326 8
-84.420311 23.361364 -29.753822 8
-79.816787 22.389753 -30.710086 8
-75.469901 21.246312 -31.511645 8
-71.230919 20.059719 -32.270395 8
-60.652096 25.126423 -38.209082 9
-52.725867 27.867283 -42.143751 9
-49.606052 25.928200 -42.204285 9
-44.735343 25.829489 -43.760198 9
-40.831716 24.797969 -44.550579 9
-37.135586 23.595379 -45.200519 9
-33.511536 22.358822 -45.821981 9
-29.942556 21.103521 -46.427927 9
-26.467197 19.781844 -46.982122 9
-23.029598 18.453822 -47.532393 9
-19.659384 17.081619 -48.050305 9
-16.381678 15.629727 -48.510107 9
-13.112021 14.197993 -48.988582 9
-9.960977 12.643724 -49.379322 9
-6.847089 11.064787 -49.757156 9
-3.789820 9.432052 -50.101427 9
-0.807364 7.715618 -50.391594 9
2.128955 5.949111 -50.653621 9
4.974497 4.063721 -50.839374 9
7.728760 2.049565 -50.944112 9
10.391078 -0.104125 -50.962669 9
13.007879 -2.336090 -50.940376 9
15.471339 -4.822846 -50.756486 9
17.816072 -7.526991 -50.441142 9
19.933016 -10.645113 -49.864198 9
21.745794 -14.336949 -48.924736 9
22.950379 -19.172973 -47.250063 9
20.706299 -30.299535 -41.438762 9
23.466964 -32.744109 -41.462978 9
-145.793656 26.842492 -6.915978 7
-139.306970 26.361971 -8.622330 7
-133.069344 25.805389 -10.226130 7
-126.979607 25.241072 -11.794876 7
-121.249191 24.497400 -13.170520 7
-106.121019 31.413699 -21.581687 8
-100.855820 30.640396 -22.824204 8
-95.885201 29.704768 -23.901341 8
-91.094021 28.691665 -24.894047 8
-86.341069 27.716711 -25.907814 8
-81.775084 26.646228 -26.824700 8
-77.305009 25.554414 -27.712488 8
-72.849294 24.513342 -28.634799 8
-63.014594 28.669224 -34.011725 9
-54.976630 31.360842 -38.056719 9
-48.378787 32.839519 -41.015802 9
-45.022567 31.188011 -41.311080 9
-41.741627 29.487557 -41.568209 9
-37.901038 28.407280 -42.339502 9
-34.124816 27.309597 -43.091926 9
-30.445760 26.154969 -43.794285 9
-26.835163 24.970151 -44.469657 9
-23.276535 23.770332 -45.131157 9
-19.793155 22.525188 -45.755525 9
-16.379988 21.236027 -46.345054 9
-12.996559 19.948207 -46.936186 9
-9.679860 18.613525 -47.492097 9
-6.441830 17.211861 -47.998629 9
-3.243695 15.788338 -48.491549 9
-0.108337 14.309206 -48.946186 9
2.961384 12.765365 -49.357061 9
5.988854 11.184090 -49.745790 9
8.944691 9.519184 -50.079419 9
11.856453 7.804383 -50.384230 9
14.720271 6.029298 -50.653841 9
17.472141 4.089655 -50.814912 9
20.190530 2.097093 -50.949769 9
22.799136 -0.076702 -50.969192 9
25.355756 -2.349561 -50.933856 9
27.799995 -4.832058 -50.769051 9
30.094180 -7.605876 -50.422409 9
32.210641 -10.742565 -49.850268 9
34.010189 -14.524821 -48.867910 9
35.204094 -19.544876 -47.089549 9
33.420448 -30.474939 -41.432375 9
36.156650 -32.931690 -41.468805 9
-146.761497 27.612092 -0.811547 7
-139.720568 27.468195 -2.946928 7
-132.935988 27.261427 -4.980899 7
-126.622252 26.817567 -6.748765 7
-117.224686 28.902874 -10.903822 8
-104.101215 34.192504 -18.020547 8
-98.924918 33.331846 -19.235791 8
-93.769674 32.536069 -20.492350 8
-88.807527 31.658925 -21.654761 8
-84.006837 30.719295 -22.743266 8
-79.303918 29.766686 -23.805129 8
-74.716268 28.781256 -24.823686 8
-72.600823 25.563821 -23.843525 8
-58.352176 33.857265 -33.040196 9
-50.528075 36.377967 -37.035686 9
-45.365392 36.471040 -38.864079 9
-41.191762 35.667478 -39.897107 9
-37.328457 34.608380 -40.701747 9
-33.564174 33.498247 -41.456955 9
-30.692619 31.472754 -41.440206 9
-27.730202 29.557297 -41.523234 9
-24.052939 28.463373 -42.290082 9
-20.445542 27.338032 -43.027259 9
-16.899071 26.187774 -43.741119 9
-13.414555 25.007804 -44.428737 9
-9.996193 23.789126 -45.083946 9
-6.626233 22.549772 -45.722140 9
-3.313123 21.275763 -46.333137 9
-0.045884 19.977592 -46.926113 9
3.162166 18.634077 -47.485541 9
6.294907 17.218330 -47.992056 9
9.393589 15.782151 -48.486583 9
12.440099 14.296596 -48.948030 9
15.434648 12.757204 -49.374260 9
18.366118 11.142091 -49.750342 9
21.259763 9.483817 -50.101778 9
24.092463 7.741504 -50.399852 9
26.867241 5.912925 -50.644687 9
29.584024 3.990692 -50.832744 9
32.225852 1.938067 -50.939812 9
34.812610 -0.220676 -50.985440 9
37.311720 -2.552647 -50.924825 9
39.707115 -5.101219 -50.731117 9
41.972365 -7.933473 -50.362158 9
43.997307 -11.285379 -49.662374 9
45.447932 -15.862893 -48.164400 9
45.980041 -22.468132 -45.352401 9
45.643929 -31.160466 -41.221106 9
-149.866008 26.876139 6.929893 7
-141.962266 27.254906 4.139148 7
-134.328652 27.588782 1.447961 7
-127.306794 27.607440 -0.878834 7
-110.796769 35.161318 -10.571933 8
-102.869364 36.337647 -13.871821 8
-97.444569 35.651511 -15.314693 8
-92.154618 34.944696 -16.713471 8
-87.063588 34.157495 -18.013309 8
-82.090334 33.351494 -19.275215 8
-77.242625 32.515102 -20.489906 8
-72.485231 31.674979 -21.683693 8
-62.660731 35.612460 -27.226469 9
-54.403999 38.347782 -31.587592 9
-47.617264 39.887066 -34.803835 9
-43.004208 39.447322 -36.208661 9
-38.905197 38.571459 -37.210531 9
-34.948823 37.611591 -38.128153 9
-31.103410 36.593142 -38.986107 9
-27.264425 35.622795 -39.877980 9
-23.554270 34.566417 -40.688967 9
-19.916324 33.479956 -41.468750 9
-17.153348 31.433340 -41.439376 9
-14.268771 29.535449 -41.542752 9
-10.706043 28.466605 -42.336278 9
-7.247603 27.317235 -43.060170 9
-3.822097 26.169922 -43.783390 9
-0.475139 24.964194 -44.457737 9
2.828312 23.740505 -45.116990 9
6.073375 22.475867 -45.743718 9
9.297756 21.217886 -46.376358 9
12.449368 19.891874 -46.957111 9
15.550881 18.524290 -47.507994 9
18.591247 17.094382 -48.014258 9
21.617702 15.667934 -48.527201 9
24.577910 14.162644 -48.985211 9
27.501227 12.618175 -49.419571 9
30.359348 10.984329 -49.794174 9
33.182334 9.303542 -50.141989 9
35.942377 7.523646 -50.426194 9
38.665180 5.681264 -50.675181 9
41.323373 3.721454 -50.851015 9
43.863829 1.536126 -50.879398 9
46.158879 -1.135244 -50.581460 9
48.135364 -4.474348 -49.839324 9
49.861284 -8.399270 -48.721369 9
51.196858 -13.244495 -47.008667 9
51.877191 -19.644663 -44.285997 9
52.832990 -25.708802 -41.853698 9
-148.960164 23.621037 14.942777 7
-138.475227 25.896156 10.079379 7
-130.020440 26.875072 6.635099 7
-110.247313 36.817502 -5.804106 8
-102.182671 38.051399 -9.285752 8
-96.574448 37.475426 -10.907416 8
-91.107234 36.880848 -12.481937 8
-85.758490 36.281397 -14.024537 8
-80.625438 35.588594 -15.451305 8
-75.603719 34.884765 -16.844576 8
-70.748746 34.115459 -18.154200 8
-59.225259 39.592358 -25.303435 9
-50.918083 42.385308 -29.833663 9
-45.309464 42.804286 -32.100788 9
-41.016569 42.048878 -33.260658 9
-36.877799 41.208698 -34.329034 9
-32.861396 40.308070 -35.330527 9
-28.947077 39.361746 -36.280378 9
-25.013529 38.494972 -37.290701 9
-21.244661 37.508068 -38.185804 9
-17.552461 36.489720 -39.045845 9
-13.835782 35.552144 -39.968450 9
-10.268744 34.493579 -40.780572 9
-6.858911 33.294516 -41.468905 9
-4.211401 31.197717 -41.403147 9
-1.297500 29.436417 -41.626300 9
2.111955 28.328649 -42.393198 9
5.479536 27.209715 -43.148146 9
8.774103 26.034993 -43.855680 9
12.028338 24.843958 -44.548999 9
15.229486 23.615747 -45.212206 9
18.353559 22.311347 -45.815620 9
21.495828 21.064988 -46.466090 9
24.533965 19.693651 -47.020820 9
27.556832 18.324935 -47.580710 9
30.532887 16.907413 -48.106765 9
33.472361 15.452829 -48.609082 9
36.376080 13.958507 -49.086621 9
39.180280 12.310707 -49.455778 9
41.979951 10.663760 -49.833499 9
44.658466 8.805984 -50.065145 9
47.077314 6.462875 -49.955694 9
49.267121 3.653219 -49.527691 9
51.247151 0.376681 -48.789468 9
53.006333 -3.427036 -47.706843 9
54.539026 -7.812723 -46.250827 9
55.809450 -12.904234 -44.345590 9
56.574973 -19.290124 -41.597698 9
58.407112 -23.549079 -40.368637 9
-144.748529 17.111304 23.809341 7
-128.261728 24.154842 13.880375 7
-102.424610 39.038095 -3.920558 8
-96.418407 38.727298 -5.894350 8
-90.584486 38.386810 -7.801288 8
-85.005618 37.940127 -9.567371 8
-79.708576 37.352531 -11.162751 8
-74.502209 36.778874 -12.744625 8
-69.424808 36.181719 -14.277484 8
-56.475693 42.926801 -22.854515 9
-48.638889 45.272869 -27.082242 9
-43.513166 45.223087 -28.972879 9
-39.243581 44.435318 -30.142950 9
-35.088930 43.602068 -31.255073 9
-31.005645 42.762303 -32.347038 9
-26.982500 41.924720 -33.427696 9
-23.049667 41.054403 -34.466163 9
-19.222745 40.129433 -35.444277 9
-15.398403 39.259902 -36.461741 9
-11.655380 38.356674 -37.439420 9
-8.073177 37.321543 -38.292992 9
-4.479465 36.350646 -39.195688 9
-0.937197 35.368850 -40.082151 9
2.532286 34.346434 -40.927860 9
5.673895 32.949636 -41.452827 9
8.306134 30.910745 -41.441829 9
11.238742 29.276573 -41.776427 9
14.519481 28.141282 -42.525650 9
17.753365 26.980314 -43.252005 9
20.955338 25.811773 -43.971028 9
24.112689 24.614576 -44.666358 9
27.216728 23.371776 -45.325468 9
30.262923 22.071363 -45.940157 9
33.300830 20.786693 -46.569179 9
36.264911 19.410206 -47.129233 9
39.218745 18.040247 -47.697930 9
42.112157 16.589584 -48.208998 9
44.869145 14.916311 -48.557112 9
47.397220 12.833917 -48.607123 9
49.727073 10.365926 -48.384437 9
51.864741 7.492187 -47.881600 9
53.835214 4.228450 -47.117759 9
55.740159 0.747905 -46.225519 9
57.514227 -3.102608 -45.098942 9
59.103533 -7.468836 -43.641036 9
60.558021 -12.284571 -41.907796 9
62.882855 -15.314166 -41.471241 9
63.240542 -23.004972 -37.827235 9
-103.776702 39.167019 2.426111 8
-97.108427 39.310056 -0.123990 8
-90.974654 39.150207 -2.310541 8
-85.023716 38.956536 -4.420902 8
-79.343124 38.646647 -6.374078 8
-73.856981 38.274545 -8.229478 8
-63.887211 42.031499 -14.170301 9
-54.036745 45.967023 -20.179162 9
-46.901417 47.646019 -23.871152 9
-42.065450 47.304506 -25.539637 9
-37.727527 46.567047 -26.801480 9
-33.473904 45.818486 -28.034573 9
-29.321393 45.037860 -29.220322 9
-25.218490 44.274195 -30.406228 9
-21.263604 43.420238 -31.493300 9
-17.347154 42.587447 -32.586890 9
-13.486454 41.755304 -33.668520 9
-9.735174 40.859689 -34.681021 9
-6.054380 39.939544 -35.661379 9
-2.382674 39.064708 -36.672685 9
1.208140 38.147743 -37.637647 9
4.670312 37.123302 -38.500888 9
8.098492 36.103686 -39.362340 9
11.510138 35.110300 -40.240711 9
14.885705 34.116667 -41.113427 9
17.760333 32.477710 -41.438199 9
20.308231 30.391619 -41.394725 9
23.345217 29.008668 -41.944206 9
26.514367 27.849307 -42.678720 9
29.667398 26.702801 -43.422579 9
32.789849 25.545889 -44.157129 9
35.834365 24.300338 -44.820403 9
38.863224 23.060021 -45.488951 9
41.837870 21.758931 -46.111111 9
44.679021 20.253876 -46.576823 9
47.335638 18.436869 -46.806971 9
49.771578 16.216061 -46.737546 9
52.022588 13.624835 -46.401946 9
54.153319 10.756675 -45.877856 9
56.239279 7.737681 -45.264828 9
58.253358 4.500522 -44.515902 9
60.217423 1.072707 -43.655410 9
62.026225 -2.787563 -42.510875 9
64.039430 -6.322459 -41.637365 9
63.538562 -15.690562 -36.620955 9
62.440279 -26.927423 -30.381725 9
64.872826 -30.213468 -29.861649 9
-99.579365 38.487605 7.255244 8
-92.469705 39.025311 4.210231 8
-85.835777 39.320565 1.480661 8
-79.759883 39.280049 -0.845971 8
-73.914465 39.161453 -3.048248 8
-62.885691 43.796221 -10.074560 9
-52.161505 48.484644 -17.023647 9
-45.524686 49.679310 -20.336508 9
-40.862160 49.151493 -21.877526 9
-36.433012 48.481029 -23.253182 9
-32.110707 47.781391 -24.579256 9
-27.870092 47.073199 -25.877472 9
-23.712389 46.351582 -27.144324 9
-19.657095 45.591797 -28.357562 9
-15.659349 44.837555 -29.560148 9
-11.775742 44.023055 -30.691375 9
-7.981138 43.170289 -31.773841 9
-4.214299 42.345981 -32.870318 9
-0.497346 41.523126 -33.956269 9
3.074743 40.582597 -34.925110 9
6.640530 39.688162 -35.926336 9
10.185402 38.822110 -36.943777 9
13.644388 37.898546 -37.902051 9
16.965305 36.840614 -38.736237 9
20.335109 35.895291 -39.662618 9
23.601181 34.852523 -40.499768 9
26.878556 33.870290 -41.384054 9
29.453510 31.888550 -41.424842 9
31.984597 29.835536 -41.416555 9
35.084089 28.663231 -42.146344 9
38.210509 27.569549 -42.939671 9
41.253348 26.377070 -43.651354 9
44.212537 25.076282 -44.276156 9
46.941026 23.402236 -44.605386 9
49.492361 21.418992 -44.697577 9
51.874375 19.114905 -44.550058 9
54.101032 16.489317 -44.168897 9
56.310855 13.782520 -43.745738 9
58.482142 10.944777 -43.244240 9
60.666529 8.070430 -42.738483 9
62.688258 4.787848 -41.950083 9
63.687640 -0.795460 -39.477560 9
65.476307 -4.854796 -38.188715 9
67.325156 -8.918957 -36.935261 5
69.212893 -13.037042 -35.681562 5
68.941439 -22.569982 -30.570834 5
-96.876049 36.556904 13.431183 8
-88.625489 38.057066 9.250458 8
-81.586635 38.727542 6.041483 8
-74.979157 39.182394 3.123712 8
-62.817657 44.732428 -5.087890 9
-51.112829 50.245843 -13.103886 9
-44.683060 51.213782 -16.287519 9
-39.875883 50.792595 -17.996608 9
-35.346582 50.192462 -19.495984 9
-30.921218 49.570958 -20.949683 9
-26.591331 48.931917 -22.363211 9
-22.415485 48.209709 -23.673641 9
-18.246075 47.553287 -25.029162 9
-14.212458 46.822789 -26.294075 9
-10.214772 46.121923 -27.570311 9
-6.361307 45.325906 -28.739793 9
-2.514894 44.586190 -29.947851 9
1.195969 43.749919 -31.051679 9
4.869346 42.928193 -32.156783 9
8.475422 42.082134 -33.227964 9
11.997771 41.186457 -34.243562 9
15.480581 40.293605 -35.252433 9
18.940428 39.424016 -36.273260 9
22.332626 38.515348 -37.251090 9
25.617011 37.505561 -38.133137 9
28.869454 36.495420 -39.009516 9
32.110698 35.513924 -39.905609 9
35.306478 34.508985 -40.776875 9
38.336946 33.289027 -41.462546 9
40.801867 31.191931 -41.413575 9
43.444560 29.374165 -41.608797 9
46.312941 27.938453 -42.126923 9
48.967758 26.150816 -42.361464 9
51.457210 24.067599 -42.365632 9
53.984728 22.036890 -42.424840 9
56.124438 19.259870 -41.903190 9
58.393314 16.674946 -41.555602 9
60.673397 14.063764 -41.207620 9
63.296259 12.103883 -41.384770 9
64.337521 6.791946 -38.999124 9
66.195787 3.039942 -37.857624 5
68.825615 0.891075 -37.962118 5
71.411460 -1.387115 -37.984539 5
73.867485 -4.011651 -37.766462 5
76.242101 -6.897271 -37.377383 5
78.383677 -10.454149 -36.523125 5
80.092499 -15.272557 -34.789498 5
80.491468 -23.857501 -30.404016 5
-87.172608 35.014927 16.561845 8
-78.260760 37.299874 11.490373 8
-65.222464 43.484353 2.319341 9
-50.643119 51.483984 -8.607474 9
-44.086118 52.524668 -11.974151 9
-39.161949 52.177416 -13.826616 9
-34.546337 51.627363 -15.436354 9
-29.963081 51.131390 -17.074252 9
-25.554260 50.545026 -18.593175 9
-21.215864 49.966891 -20.096151 9
-17.031039 49.305565 -21.492897 9
-12.867107 48.696902 -22.920948 9
-8.897480 47.947745 -24.190802 9
-4.930006 47.265035 -25.507838 9
-1.051137 46.549471 -26.775726 9
2.766472 45.828733 -28.022513 9
6.482573 45.050339 -29.199599 9
10.132197 44.251580 -30.344067 9
13.719111 43.433356 -31.457963 9
17.271722 42.629339 -32.573361 9
20.739561 41.769978 -33.627231 9
24.129808 40.858805 -34.624710 9
27.492467 39.960784 -35.625706 9
30.839759 39.092604 -36.645242 9
34.114815 38.169530 -37.608686 9
37.259585 37.096361 -38.434873 9
40.458063 36.148526 -39.365552 9
41.870594 32.368704 -37.866498 9
46.532643 33.861655 -40.879743 9
49.197112 32.138479 -41.146636 9
50.237211 27.585290 -39.060108 9
52.612667 25.272702 -38.874677 9
56.463192 25.646093 -40.907431 9
58.691346 23.068119 -40.519380 9
61.094805 20.783114 -40.387480 9
63.418896 18.306513 -40.118557 9
64.294891 12.800354 -37.468536 9
66.389088 9.653058 -36.731115 5
69.196070 7.976878 -37.167022 5
71.940732 6.161464 -37.503647 5
74.633830 4.217660 -37.752284 5
77.292637 2.173683 -37.937087 5
79.881385 -0.069568 -37.985652 5
82.405908 -2.517667 -37.897865 5
84.851338 -5.231191 -37.633033 5
87.154700 -8.410238 -37.049691 5
89.218273 -12.381061 -35.919708 5
90.402340 -19.107480 -32.843432 5
-79.886825 31.429763 21.856507 8
-64.073140 40.155900 9.680045 9
-43.965081 53.400564 -7.147342 9
-38.892892 53.145242 -9.173039 9
-34.026841 52.793756 -11.059494 9
-29.351264 52.350664 -12.816023 9
-24.713462 51.960737 -14.597544 9
-20.344500 51.383697 -16.156023 9
-16.029537 50.831366 -17.714563 9
-11.785861 50.283368 -19.252953 9
-7.679442 49.663128 -20.695406 9
-3.651776 49.029149 -22.103066 9
0.278704 48.355868 -23.452118 9
4.136402 47.666781 -24.767439 9
7.916231 46.951694 -26.040462 9
11.661087 46.259944 -27.319903 9
15.292486 45.489491 -28.509146 9
18.868551 44.708644 -29.675159 9
22.382546 43.905064 -30.807398 9
25.856649 43.105411 -31.931703 9
29.280487 42.292907 -33.033252 9
32.633824 41.434776 -34.083236 9
35.883752 40.476061 -35.033920 9
39.151323 39.592516 -36.044845 9
42.386343 38.709029 -37.048404 9
45.459500 37.614616 -37.860358 9
48.238584 36.071080 -38.279261 9
50.919627 34.374293 -38.570262 9
53.375374 32.287869 -38.535446 9
55.779608 30.091072 -38.419839 9
58.189506 27.879853 -38.306454 9
60.522707 25.496081 -38.064318 9
62.932050 23.223417 -37.930988 9
63.881686 17.980539 -35.387216 9
66.092232 15.140683 -34.847110 5
68.978741 13.675656 -35.434546 5
71.841789 12.173455 -35.997190 5
74.662060 10.585439 -36.497698 5
77.437468 8.897252 -36.926854 5
80.178739 7.123874 -37.298545 5
82.885839 5.255697 -37.607321 5
85.562211 3.291023 -37.853987 5
88.185453 1.159208 -37.987256 5
90.743794 -1.190718 -37.972402 5
93.238816 -3.778419 -37.799223 5
95.653360 -6.681549 -37.415274 5
97.891546 -10.231464 -36.584867 5
99.793531 -15.015183 -34.895691 5
100.611639 -23.669516 -30.480012 5
-53.944210 50.160127 4.797377 9
-44.265816 53.896458 -1.829808 9
-38.912729 53.847896 -4.166630 9
-33.829231 53.654639 -6.301548 9
-28.992654 53.324116 -8.249024 9
-24.232401 53.015111 -10.184383 9
-19.723344 52.543707 -11.914160 9
-15.224872 52.150020 -13.695909 9
-10.924921 51.631586 -15.318779 9
-6.650750 51.168309 -16.972326 9
-2.530611 50.614495 -18.507953 9
1.471797 50.002670 -19.962099 9
5.373264 49.345592 -21.350131 9
9.254452 48.735942 -22.765864 9
12.996941 48.025519 -24.063721 9
14.613308 44.643429 -22.751985 9
20.338728 46.620764 -26.626199 9
23.916047 45.892182 -27.859443 9
27.414984 45.118708 -29.036369 9
30.886074 44.366355 -30.220602 9
34.252127 43.521687 -31.307026 9
37.632013 42.753185 -32.453470 9
40.925628 41.910768 -33.521881 9
44.127457 40.977600 -34.499413 9
47.083207 39.694382 -35.156599 9
49.883463 38.181442 -35.608968 9
52.457728 36.297997 -35.738396 9
54.910773 34.196087 -35.686319 9
55.910856 29.453143 -33.363563 9
59.774442 29.855202 -35.502508 9
62.202117 27.639950 -35.393284 9
64.615470 25.368120 -35.251093 9
65.431375 19.831968 -32.398997 5
68.414857 18.581813 -33.157434 5
71.343144 17.241295 -33.842793 5
74.254701 15.885513 -34.518421 5
77.127123 14.460328 -35.141285 5
79.964416 12.966970 -35.714119 5
82.763430 11.389630 -36.226083 5
85.544075 9.768620 -36.710844 5
88.291804 8.060340 -37.135575 5
90.994709 6.222351 -37.469498 5
93.672904 4.295721 -37.746880 5
96.317998 2.245458 -37.943127 5
98.901400 -0.029086 -37.985142 5
101.442845 -2.493129 -37.903440 5
103.917037 -5.251729 -37.624181 5
106.122360 -9.021654 -36.627869 5
107.738441 -15.057636 -34.022500 5
-45.522546 53.525965 4.567177 9
-39.615460 53.917651 1.631823 9
-18.910848 68.712488 -17.302317 1
-16.535599 66.246316 -16.809476 4
-24.116558 53.705727 -5.320472 9
-19.320894 53.481604 -7.386080 9
-8.231758 60.033867 -16.675092 4
-10.013533 53.037142 -11.412399 9
-1.116274 57.688157 -18.494981 4
1.564075 55.590086 -18.422743 4
2.887577 51.910234 -16.726218 4
6.432346 50.812155 -17.703883 9
10.429688 50.320521 -19.282902 9
14.225328 49.656148 -20.665911 9
18.017770 49.058680 -22.096669 9
21.694234 48.381449 -23.429883 9
25.300103 47.677022 -24.719807 9
28.848117 46.958345 -25.980456 9
32.368248 46.264442 -27.250308 9
35.812217 45.524166 -28.461929 9
39.177467 44.727530 -29.607799 9
42.506372 43.932897 -30.744374 9
45.696067 42.975526 -31.720052 9
48.582773 41.574081 -32.281857 9
51.321323 39.948407 -32.640555 9
53.854672 37.980750 -32.695984 9
56.353312 35.941685 -32.697760 9
58.851681 33.886873 -32.696942 9
61.327010 31.771958 -32.655223 9
63.805884 29.642127 -32.613390 9
65.169694 25.287172 -30.669417 9
67.936535 23.626900 -31.071508 5
70.551975 21.652808 -31.214552 5
73.532056 20.449362 -32.015124 5
76.490214 19.227327 -32.800523 5
79.391046 17.901777 -33.501510 5
82.267571 16.539269 -34.175011 5
85.134722 15.171184 -34.847534 5
87.962808 13.720077 -35.457311 5
90.754125 12.181770 -36.003035 5
93.512700 10.556470 -36.486944 5
96.256571 8.884163 -36.942352 5
98.967789 7.105858 -37.324706 5
101.643629 5.199886 -37.619716 5
104.295711 3.186745 -37.845770 5
106.751758 0.486694 -37.567258 5
108.906692 -3.346744 -36.463613 5
110.668394 -8.788923 -34.204355 5
110.298950 -22.532613 -25.896621 5
-49.055423 51.090451 13.519820 9
-17.939016 74.993136 -16.694376 1
-16.058674 72.094538 -15.674794 1
-14.183553 69.159697 -14.636277 1
-12.290818 66.209381 -13.603191 4
-7.581860 66.133210 -15.777982 4
-2.898153 66.136251 -17.999513 4
0.217333 64.547568 -18.451523 4
2.344215 61.889193 -17.747676 4
4.021008 58.693132 -16.488744 4
6.200580 56.030837 -15.821849 4
8.187071 53.111235 -14.903845 4
11.363912 51.610256 -15.477494 9
15.264225 51.048978 -17.010166 9
19.116027 50.502786 -18.536030 9
22.901851 49.946755 -20.030530 9
26.566091 49.301822 -21.416018 9
30.224587 48.719185 -22.845225 9
33.744004 48.010851 -24.133206 9
37.219119 47.302851 -25.406400 9
40.649338 46.591772 -26.662243 9
44.041282 45.885072 -27.908620 9
47.113747 44.735160 -28.723428 9
49.978059 43.284452 -29.251805 9
52.661103 41.551176 -29.518654 9
55.190171 39.557178 -29.551402 9
57.727466 37.566067 -29.596889 9
60.230836 35.500795 -29.585656 9
62.780330 33.504035 -29.647398 9
64.012993 28.955725 -27.455661 9
66.854654 27.431095 -27.974184 5
69.930217 26.397325 -28.924373 5
72.984305 25.360382 -29.868332 5
75.990862 24.261365 -30.756080 5
78.637374 22.391400 -30.987317 5
81.496625 20.999859 -31.631444 5
84.421923 19.782521 -32.424257 5
87.317149 18.517792 -33.178919 5
90.178460 17.189165 -33.883242 5
93.002777 15.780004 -34.525381 5
95.825508 14.377176 -35.177360 5
98.609591 12.874302 -35.754320 5
101.364414 11.286159 -36.270324 5
104.093795 9.613039 -36.727619 5
106.682417 7.474828 -36.832289 5
109.020133 4.445924 -36.265607 5
111.082673 0.327385 -34.893546 5
112.895267 -4.932914 -32.698477 5
113.861834 -13.747336 -27.889937 5
-23.797956 74.954596 -8.688788 1
-15.128939 78.302057 -15.083969 1
-14.560624 74.171162 -12.593871 1
-12.648556 71.266213 -11.575950 1
-7.818944 71.262617 -13.906383 1
-3.134087 71.220858 -16.148190 1
-0.121334 69.521275 -16.484897 1
2.362655 67.273164 -16.207608 1
5.077172 65.275985 -16.215420 4
7.137659 62.542696 -15.424084 4
9.027114 59.579641 -14.404185 4
10.758058 56.384615 -13.160511 4
12.347370 52.961212 -11.703848 9
16.211086 52.326703 -13.206702 9
20.114796 51.818903 -14.818981 9
23.947426 51.297893 -16.393909 9
27.733715 50.793066 -17.962853 9
31.375893 50.166681 -19.387115 9
34.998785 49.584304 -20.836784 9
38.541954 48.958109 -22.224355 9
42.013527 48.294005 -23.557646 9
45.328791 47.455310 -24.705300 9
48.407641 46.297926 -25.533554 9
51.200708 44.712558 -25.946800 9
53.859183 42.915032 -26.161164 9
56.423855 40.956448 -26.230396 9
58.989718 38.990544 -26.301975 9
61.602283 37.099040 -26.451727 9
64.165124 35.106588 -26.517637 9
65.471471 30.667862 -24.375810 9
68.603620 29.705731 -25.408170 5
71.735338 28.790388 -26.476509 5
74.847560 27.883695 -27.546521 5
77.887853 26.869625 -28.516906 5
80.883499 25.797153 -29.433076 5
83.854622 24.705400 -30.330420 5
86.690356 23.323116 -30.978486 5
89.360406 21.542790 -31.293251 5
92.246290 20.306038 -32.072742 5
95.130351 19.088273 -32.869594 5
97.965281 17.758599 -33.575946 5
100.798028 16.437662 -34.292993 5
103.586310 14.998363 -34.918011 5
106.270993 13.240962 -35.293588 5
108.730860 10.732356 -35.082316 5
110.972010 7.396719 -34.240266 5
113.024269 3.230744 -32.782019 5
115.001414 -1.458111 -30.962667 5
117.129354 -5.870600 -29.406247 6
119.494912 -9.612779 -28.406735 6
121.109008 -16.776162 -24.864663 6
-21.982094 77.350723 -5.877583 1
-10.433479 83.357909 -15.663180 1
-8.074995 81.008116 -15.221212 1
-13.222639 71.309417 -6.069721 1
-4.885993 74.756277 -12.543618 1
-1.651487 73.246119 -13.125458 1
0.981345 71.136759 -13.008082 1
5.582081 71.155547 -15.318646 1
7.997891 68.865762 -14.983466 1
9.797013 65.867863 -13.867885 4
11.441573 62.645227 -12.529623 4
12.958579 59.213569 -10.992948 4
15.241405 56.651042 -10.432651 4
16.822735 53.184269 -8.917742 9
20.886647 52.843006 -10.760118 9
24.843489 52.451321 -12.520596 9
28.685590 51.991389 -14.183234 9
32.450304 51.506471 -15.795812 9
36.127501 50.976944 -17.339961 9
39.752455 50.447905 -18.863641 9
43.280818 49.849613 -20.297642 9
46.557695 48.933645 -21.397371 9
49.580440 47.666657 -22.139371 9
52.348828 46.016548 -22.502328 9
54.981941 44.149349 -22.657748 9
57.605035 42.261934 -22.800686 9
60.218544 40.352438 -22.930154 9
62.830544 38.432864 -23.058288 9
64.182614 34.126391 -20.964054 9
67.056860 32.625291 -21.517044 5
70.269511 31.818086 -22.709106 5
73.434709 30.970859 -23.855810 5
76.546391 30.064483 -24.941394 5
79.635999 29.160125 -26.022460 5
82.719788 28.292707 -27.130385 5
85.719040 27.278726 -28.103555 5
88.681673 26.217309 -29.032130 5
91.615166 25.120209 -29.927745 5
94.563642 24.096547 -30.884972 5
97.161901 22.165992 -31.070969 5
99.978158 20.816713 -31.757569 5
102.830869 19.586675 -32.547060 5
105.622903 18.194492 -33.204645 5
108.194765 16.116391 -33.305135 5
110.559325 13.306774 -32.826487 5
112.742750 9.759751 -31.779666 5
114.159114 3.282827 -28.431064 5
117.292829 2.761469 -29.868869 6
119.975475 0.560468 -29.983525 6
122.618416 -1.882127 -29.927500 6
125.206770 -4.668914 -29.626878 6
127.698482 -8.047731 -28.899583 6
129.921087 -12.949258 -27.053423 6
131.822843 -19.906692 -23.719091 6
-13.970273 94.220978 -16.327599 3
-9.631542 93.671933 -18.120992 3
-7.212218 91.470374 -17.798606 3
-4.363039 89.667793 -17.977313 3
-4.309050 85.225882 -14.909518 1
-1.812602 83.051566 -14.662445 1
0.781640 80.975606 -14.539155 1
0.977771 76.446665 -11.500452 1
4.173654 74.949983 -12.096682 1
6.262189 72.294309 -11.331685 1
9.686213 71.088319 -12.257150 1
12.512645 69.252840 -12.447880 1
16.637373 68.940358 -14.360350 1
15.766164 62.764590 -9.673997 4
16.916468 58.847960 -7.588317 4
17.845687 54.558869 -5.139000 4
21.430810 53.574241 -6.335148 9
25.538835 53.339276 -8.321409 9
29.473598 52.966758 -10.129290 9
33.338860 52.586511 -11.901343 9
37.125895 52.182053 -13.621657 9
40.801279 51.698996 -15.235605 9
44.347182 51.100735 -16.708860 9
47.625965 50.161112 -17.815459 9
50.600381 48.789205 -18.474140 9
53.316613 47.021730 -18.734222 9
55.988230 45.183332 -18.928398 9
58.655527 43.336727 -19.120435 9
61.325709 41.493108 -19.321720 9
63.996399 39.647426 -19.527592 9
65.379306 35.356294 -17.405286 9
68.555955 34.414682 -18.501598 5
71.811413 33.682974 -19.786720 5
75.036319 32.951532 -21.061071 5
78.187615 32.125458 -22.237788 5
81.329161 31.334404 -23.438141 5
84.394538 30.427389 -24.525136 5
87.482494 29.623937 -25.699016 5
90.463692 28.615665 -26.683539 5
93.448670 27.658777 -27.709828 5
96.384287 26.616988 -28.658019 5
99.334241 25.652330 -29.670827 5
102.204241 24.504502 -30.523383 5
104.878565 22.809138 -30.910081 5
107.463953 20.824842 -31.061658 5
