ply
format ascii 1.0
element vertex 1386
property float x
property float y
property float z
property int scalar_Label
end_header
16.629622 -51.129876 -10.647952 9
13.982766 -51.179571 -10.602823 9
11.349776 -51.147532 -10.536351 9
8.718162 -51.143697 -10.477185 9
6.088315 -51.167510 -10.425188 9
3.461104 -51.210944 -10.378267 9
0.842985 -51.161841 -10.307057 9
-1.779866 -51.246140 -10.270697 9
-4.395188 -51.225770 -10.206820 9
-7.010710 -51.253911 -10.155560 9
-9.623724 -51.227439 -10.089841 9
-12.237390 -51.296106 -10.048997 9
-14.849845 -51.295064 -9.989695 9
-17.462743 -51.294625 -9.930396 9
-20.075309 -51.349144 -9.885422 9
-22.691674 -51.297596 -9.812309 9
-25.306166 -51.357931 -9.768534 9
-27.922757 -51.400711 -9.719947 9
-30.543692 -51.406323 -9.661336 9
-33.167284 -51.420020 -9.604648 9
-35.793710 -51.442697 -9.550113 9
-38.426324 -51.440633 -9.488781 9
-41.078190 -51.298898 -9.390112 9
-43.774609 -50.835171 -9.205549 9
-46.548875 -49.862179 -8.885049 9
-49.438528 -48.218020 -8.385142 9
-52.392703 -46.404523 -7.839033 9
-55.392995 -44.579687 -7.288713 9
-58.443252 -42.726368 -6.729580 9
-62.912514 -32.977394 -4.059956 8
-65.295196 -35.701333 -4.720274 8
-68.163592 -35.690465 -4.649616 8
-71.034334 -35.721627 -4.589803 8
-73.920526 -35.730600 -4.523631 8
-76.830531 -35.686042 -4.442658 8
-79.720526 -35.783383 -4.399323 8
-82.653240 -35.752547 -4.321104 8
-85.591892 -35.754839 -4.251297 8
-88.538611 -35.780792 -4.187362 8
-91.501661 -35.800365 -4.121198 8
-94.470901 -35.851659 -4.063067 8
-97.474853 -35.838397 -3.986966 8
-100.491772 -35.839548 -3.914183 8
-103.516592 -35.871613 -3.849174 8
-106.609521 -35.752695 -3.742663 8
-109.944800 -34.992462 -3.461522 8
-115.813378 -27.195807 -1.269027 7
-118.470136 -28.709784 -1.601840 8
-122.270172 -27.161832 -1.101819 7
-125.530217 -27.153311 -1.019412 7
-128.795460 -27.192400 -0.949219 7
-132.112966 -27.162897 -0.859545 7
-135.440460 -27.172462 -0.779719 7
-138.797049 -27.176157 -0.697460 7
-142.183219 -27.175495 -0.613151 7
-145.601456 -27.167527 -0.525954 7
-149.043971 -27.171505 -0.441116 7
147.041851 -27.164535 -3.196057 6
143.359493 -27.189625 -3.149471 6
139.751026 -27.147105 -3.084975 6
136.115829 -27.221899 -3.051579 6
132.583389 -27.167009 -2.983767 6
129.044594 -27.189156 -2.936376 6
125.538509 -27.211619 -2.889042 6
122.080850 -27.199023 -2.832345 6
118.293035 -27.964459 -2.982720 5
113.001555 -32.169812 -4.049749 5
108.655055 -34.512591 -4.621719 5
105.148210 -35.081488 -4.721242 5
101.931295 -35.046405 -4.659645 5
98.725118 -35.043698 -4.606588 5
95.526802 -35.081323 -4.564208 5
92.368061 -35.077538 -4.510651 5
89.235343 -35.062899 -4.454064 5
86.117562 -35.065010 -4.401829 5
83.022787 -35.060030 -4.347555 5
79.959663 -35.019318 -4.283545 5
76.895162 -35.038247 -4.235377 5
73.856931 -35.032969 -4.180547 5
70.821808 -35.074608 -4.138157 5
67.818256 -35.068969 -4.082882 5
64.836853 -35.041505 -4.021538 5
63.019598 -30.791700 -2.822283 5
56.583145 -43.911712 -6.304819 9
53.209265 -45.992427 -6.813437 9
49.873302 -48.151465 -7.343807 9
46.647664 -50.080861 -7.812748 9
43.673697 -51.100378 -8.036164 9
40.828293 -51.658981 -8.135012 9
38.104228 -51.717639 -8.098440 9
35.397056 -51.744867 -8.053120 9
32.704743 -51.743498 -7.999795 9
30.012177 -51.794939 -7.960535 9
27.337425 -51.791602 -7.906138 9
24.662184 -51.842427 -7.866177 9
22.001745 -51.844424 -7.812658 9
19.350910 -51.822615 -7.752355 9
16.700411 -51.845434 -7.703890 9
14.054422 -51.881781 -7.658800 9
11.419256 -51.865699 -7.599087 9
8.782904 -51.911002 -7.555791 9
6.157358 -51.879726 -7.491233 9
3.534649 -51.848860 -7.426415 9
0.910752 -51.880388 -7.378293 9
-1.709706 -51.905447 -7.328032 9
-4.326913 -51.910637 -7.271945 9
-6.941914 -51.894530 -7.209616 9
-9.556708 -51.907807 -7.154939 9
-12.170607 -51.909741 -7.096728 9
-14.784363 -51.928268 -7.042651 9
-17.398090 -51.953502 -6.989985 9
-20.012761 -51.955237 -6.930401 9
-22.628416 -51.968712 -6.873589 9
-25.246883 -51.954255 -6.808596 9
-27.866972 -51.959709 -6.748608 9
-30.489691 -51.967298 -6.688709 9
-33.115364 -51.978485 -6.629296 9
-35.744250 -51.994821 -6.570787 9
-38.377496 -52.007653 -6.510775 9
-41.025878 -51.918129 -6.421818 9
-43.725472 -51.438810 -6.224011 9
-46.508445 -50.408641 -5.872287 9
-49.405090 -48.730171 -5.339103 9
-52.366357 -46.887597 -4.758761 9
-55.361307 -45.119433 -4.197581 9
-58.420767 -43.227850 -3.600407 9
-62.926498 -33.300682 -0.757946 8
-65.305489 -36.068633 -1.457525 8
-68.175192 -36.075238 -1.385380 8
-71.059555 -36.062270 -1.307010 8
-73.957457 -36.040549 -1.225414 8
-76.858388 -36.060518 -1.154718 8
-79.769906 -36.087287 -1.085139 8
-82.716846 -36.021968 -0.988865 8
-85.660258 -36.029612 -0.912242 8
-88.612466 -36.058052 -0.840617 8
-91.594835 -36.030668 -0.752381 8
-94.587345 -36.025108 -0.669381 8
-97.597204 -36.017334 -0.584822 8
-100.612953 -36.046646 -0.509794 8
-103.659353 -36.034671 -0.422115 8
-106.721372 -36.032779 -0.336284 8
-110.170631 -34.963199 0.053567 8
-114.313344 -32.067407 0.963968 8
-118.791165 -28.492896 2.070335 8
-122.562019 -27.060454 2.570202 7
-125.831155 -27.059570 2.664086 7
-129.132132 -27.039776 2.764571 7
-132.446300 -27.050025 2.857722 7
-135.789127 -27.053547 2.954058 7
-139.172640 -27.025445 3.060750 7
-142.576947 -27.014798 3.163793 7
-146.006528 -27.012672 3.265769 7
-149.465710 -27.011408 3.368907 7
147.523398 -27.387641 0.625164 6
143.835071 -27.401430 0.654822 6
140.193046 -27.399140 0.689508 6
136.582526 -27.405408 0.722361 6
133.032128 -27.362764 0.769398 6
129.500491 -27.347851 0.809259 6
125.995682 -27.343967 0.846594 6
122.515721 -27.353822 0.880643 6
118.770446 -28.000897 0.737281 5
113.661527 -31.760126 -0.275234 5
109.040884 -34.677351 -1.052844 5
105.492135 -35.318457 -1.194153 5
102.230543 -35.369088 -1.169887 5
99.033587 -35.324502 -1.118446 5
95.852349 -35.298169 -1.071570 5
92.679093 -35.309708 -1.034763 5
89.534741 -35.304059 -0.992602 5
86.405401 -35.315875 -0.954799 5
83.309308 -35.292371 -0.906544 5
80.221227 -35.302349 -0.867140 5
77.144642 -35.336232 -0.833908 5
74.105249 -35.312931 -0.784059 5
71.076535 -35.310702 -0.739577 5
68.071034 -35.286937 -0.688476 5
65.057729 -35.345947 -0.660117 5
62.960859 -32.112772 0.296445 5
56.780281 -44.223756 -3.071498 9
53.379042 -46.381909 -3.635142 9
50.047111 -48.495787 -4.186461 9
46.833049 -50.345159 -4.663236 9
43.799815 -51.602924 -4.972891 9
40.960211 -52.116329 -5.071923 9
38.218703 -52.244036 -5.061429 9
35.522489 -52.198389 -5.001326 9
32.825834 -52.201629 -4.954483 9
30.133647 -52.230375 -4.914293 9
27.451068 -52.253741 -4.872000 9
24.782759 -52.235583 -4.817333 9
22.124222 -52.195404 -4.755803 9
19.464283 -52.211133 -4.709545 9
17.217348 -48.779711 -3.682025 9
14.157654 -52.292270 -4.629337 9
11.516665 -52.299098 -4.578704 9
8.880251 -52.306880 -4.527707 9
6.244490 -52.360014 -4.489006 9
3.619816 -52.316955 -4.422209 9
0.994324 -52.325513 -4.369477 9
-1.629227 -52.349965 -4.320620 9
-4.248718 -52.333349 -4.259339 9
-6.867451 -52.332972 -4.202009 9
-9.485149 -52.332857 -4.144050 9
-12.102242 -52.326113 -4.083477 9
-14.719376 -52.330655 -4.025415 9
-17.336868 -52.333036 -3.966000 9
-19.955572 -52.320001 -3.901406 9
-22.574606 -52.347989 -3.847850 9
-25.195335 -52.367506 -3.791098 9
-27.818456 -52.379488 -3.731399 9
-30.444543 -52.386305 -3.669419 9
-33.076908 -52.351340 -3.594570 9
-35.706475 -52.405591 -3.544659 9
-38.346678 -52.380681 -3.471043 9
-40.999326 -52.287204 -3.376715 9
-43.706416 -51.776574 -3.160611 9
-46.503543 -50.667119 -2.769704 9
-49.398674 -49.040282 -2.227130 9
-52.361881 -47.219079 -1.626285 9
-55.374544 -45.367740 -1.014733 9
-58.462367 -43.339536 -0.349701 9
-62.921829 -33.732539 2.525608 8
-65.397615 -35.994244 1.945997 8
-68.276015 -36.003993 2.023575 8
-71.164274 -36.017620 2.101104 8
-74.075485 -35.976698 2.195694 8
-76.985161 -35.999708 2.272721 8
-79.915526 -35.986956 2.361375 8
-82.857209 -35.983454 2.448503 8
-85.805788 -36.007702 2.528687 8
-88.781989 -35.981712 2.624860 8
-91.765525 -35.986239 2.713321 8
-94.769918 -35.973663 2.808104 8
-97.789337 -35.967501 2.902313 8
-100.828599 -35.953919 3.000057 8
-103.897334 -35.906109 3.109302 8
-106.988820 -35.849807 3.222494 8
-110.468735 -34.728722 3.652793 8
-114.870359 -31.149042 4.815045 8
-119.272080 -27.846395 5.899077 8
-123.042457 -26.466309 6.415095 7
-126.374198 -26.350606 6.557103 7
-129.701971 -26.312282 6.677776 7
-133.038472 -26.316376 6.787508 7
-136.429163 -26.254677 6.918651 7
-139.837454 -26.218403 7.044010 7
-143.276823 -26.177725 7.172545 7
-146.721180 -26.191785 7.286546 7
-150.230246 -26.132331 7.424557 7
148.337915 -27.028407 4.638106 6
144.633461 -27.035579 4.649561 6
141.001153 -26.979288 4.680667 6
137.359548 -27.006950 4.688366 6
133.766239 -27.010573 4.704178 6
130.223503 -26.981497 4.730625 6
126.693056 -26.992994 4.746288 6
123.183770 -27.027320 4.756333 6
119.753558 -26.959719 4.797225 6
114.551538 -30.854297 3.680331 5
109.603625 -34.448107 2.651828 5
105.985636 -35.213397 2.451462 5
102.724444 -35.231820 2.470578 5
99.493429 -35.238675 2.494054 5
96.281559 -35.258573 2.514681 5
93.097509 -35.267859 2.539379 5
89.958395 -35.217426 2.582540 5
86.819498 -35.222986 2.610248 5
83.717879 -35.181967 2.652571 5
80.613222 -35.206190 2.676706 5
77.534014 -35.213223 2.706827 5
74.479921 -35.199953 2.743851 5
71.450277 -35.163987 2.788487 5
68.426115 -35.164505 2.823348 5
65.411265 -35.189763 2.851871 5
62.951293 -33.251493 3.458962 5
57.066625 -44.201932 0.274127 9
53.646639 -46.388636 -0.332259 9
50.273162 -48.628801 -0.954110 9
47.047091 -50.490673 -1.464213 9
44.010779 -51.725171 -1.788966 9
41.141061 -52.344989 -1.931845 9
38.387475 -52.502427 -1.937532 9
35.674568 -52.515159 -1.899639 9
32.970672 -52.531085 -1.861802 9
30.282462 -52.508158 -1.811586 9
27.596984 -52.516742 -1.769786 9
24.915677 -52.550060 -1.734406 9
22.250527 -52.523429 -1.680372 9
19.591184 -52.498904 -1.626039 9
16.932194 -52.518650 -1.583907 9
14.283978 -52.494188 -1.527738 9
11.637959 -52.493885 -1.477801 9
8.992301 -52.541077 -1.441039 9
6.353353 -52.566417 -1.396851 9
3.724209 -52.507273 -1.326582 9
1.092922 -52.517084 -1.275858 9
-1.535835 -52.531356 -1.225498 9
-4.161974 -52.538187 -1.171945 9
-6.786186 -52.536540 -1.114877 9
-9.409720 -52.554488 -1.062660 9
-12.032225 -52.559496 -1.005575 9
-14.654584 -52.552534 -0.943894 9
-17.277561 -52.540632 -0.879699 9
-19.901155 -52.552668 -0.821626 9
-22.526234 -52.554759 -0.759523 9
-25.152775 -52.566214 -0.699161 9
-27.781107 -52.584811 -0.639868 9
-30.412940 -52.587730 -0.574778 9
-33.047620 -52.597377 -0.510604 9
-35.690980 -52.546843 -0.427194 9
-38.328666 -52.615884 -0.378645 9
-41.003347 -52.359717 -0.230906 9
-43.712208 -51.895302 -0.018996 9
-46.509847 -50.835676 0.374188 9
-49.439798 -48.995303 1.005282 9
-52.424741 -47.083180 1.660388 9
-55.448939 -45.220364 2.302938 9
-58.549596 -43.175475 3.003107 9
-62.860038 -34.492977 5.720899 8
-65.540544 -35.648099 5.455829 8
-68.435529 -35.635373 5.546721 8
-71.341568 -35.623397 5.638832 8
-74.264654 -35.587187 5.739802 8
-77.194049 -35.580213 5.833365 8
-80.145107 -35.536539 5.939662 8
-83.106004 -35.511163 6.041937 8
-86.070769 -35.527460 6.133044 8
-89.069613 -35.470745 6.248124 8
-92.951470 -32.320533 7.314268 8
-110.964873 19.121142 23.222427 8
-98.124943 -35.446336 6.558713 8
-101.182132 -35.424642 6.669852 8
-104.274332 -35.352751 6.798255 8
-107.442819 -35.114611 6.979852 8
-111.053520 -33.670908 7.536200 8
-115.718589 -29.423971 8.963385 8
-120.538191 -25.076662 10.427081 7
-123.846576 -25.027502 10.562279 7
-127.174343 -24.992722 10.695127 7
-130.531077 -24.949540 10.832747 7
-133.929297 -24.870684 10.983697 7
-137.343409 -24.821370 11.127719 7
-140.786441 -24.771712 11.274169 7
-144.264881 -24.709552 11.426906 7
-147.775520 -24.645044 11.582822 7
-151.330637 -24.554720 11.749345 7
147.633548 -22.714434 9.891921 6
143.897169 -22.720584 9.884940 6
140.187167 -22.747649 9.873263 6
136.512718 -22.777004 9.862556 6
132.889576 -22.775192 9.863020 6
127.673559 -26.077272 8.855449 6
124.160502 -26.067988 8.861383 6
120.677156 -26.061163 8.868127 6
116.021431 -28.691016 8.070529 5
110.529106 -33.411134 6.635379 5
106.663714 -34.689496 6.253576 5
103.340187 -34.813212 6.226153 5
100.093413 -34.818127 6.236477 5
96.888014 -34.780579 6.261204 5
93.682604 -34.801763 6.269372 5
90.511846 -34.792233 6.288327 5
87.360397 -34.789057 6.306717 5
84.235278 -34.770593 6.331156 5
81.119478 -34.782919 6.347531 5
78.019994 -34.805585 6.362089 5
74.964134 -34.751613 6.401458 5
71.906105 -34.759145 6.423328 5
68.876526 -34.729431 6.457939 5
65.845708 -34.759488 6.475552 5
62.969143 -34.289245 6.647906 5
57.469177 -43.748515 3.775483 9
54.005619 -46.042826 3.101149 9
50.606146 -48.328698 2.430141 9
47.314308 -50.413888 1.821470 9
44.244914 -51.749453 1.443839 9
41.366068 -52.370662 1.286667 9
38.601441 -52.541682 1.268985 9
35.875756 -52.579665 1.293400 9
33.168620 -52.571348 1.333269 9
30.467887 -52.576322 1.370263 9
27.782979 -52.534849 1.422782 9
25.093047 -52.572932 1.452010 9
22.421847 -52.534036 1.506189 9
19.750876 -52.538842 1.548120 9
17.084840 -52.554658 1.587878 9
14.427596 -52.544399 1.636920 9
11.773040 -52.556526 1.680283 9
9.124923 -52.550656 1.730453 9
6.480401 -52.549508 1.780412 9
3.839742 -52.543853 1.833024 9
1.200758 -52.560205 1.880083 9
-1.431874 -52.505118 1.950558 9
-4.066954 -52.539180 1.994675 9
-6.697863 -52.505333 2.061152 9
-9.329346 -52.524917 2.112340 9
-11.959695 -52.524300 2.171110 9
-14.589943 -52.539584 2.226251 9
-17.220710 -52.520769 2.293336 9
-19.853219 -52.481556 2.368130 9
-22.487202 -52.464847 2.437280 9
-25.124406 -52.425060 2.515011 9
-27.762653 -52.426685 2.581210 9
-30.403930 -52.425853 2.649574 9
-33.048340 -52.429146 2.718062 9
-35.698666 -52.407499 2.795790 9
-38.348141 -52.447489 2.855655 9
-41.016017 -52.348939 2.960428 9
-43.746097 -51.766765 3.218618 9
-46.568218 -50.583423 3.667618 9
-49.482249 -48.942246 4.262902 9
-52.497899 -46.878033 4.993971 9
-55.577949 -44.721328 5.757068 9
-58.725106 -42.477583 6.550621 9
-62.879317 -34.790206 9.066871 8
-65.788212 -34.740390 9.174741 8
-68.702748 -34.720425 9.274964 8
-71.642316 -34.634661 9.397850 8
-74.582331 -34.609038 9.503542 8
-77.525945 -34.624109 9.598185 8
-80.506139 -34.538407 9.726746 8
-83.467062 -34.592336 9.812840 8
-86.476260 -34.510489 9.944119 8
-89.480297 -34.509577 10.051621 8
-92.515732 -34.452463 10.179103 8
-95.559910 -34.425539 10.299032 8
-98.625611 -34.385654 10.425232 8
-101.716230 -34.325668 10.560049 8
-104.816575 -34.296762 10.687114 8
-108.117802 -33.728501 10.989857 8
-111.933484 -31.771086 11.742659 8
-117.306337 -25.645913 13.843359 8
-121.619163 -22.825758 14.884838 7
-124.980953 -22.733012 15.049490 7
-128.415160 -22.522923 15.254785 7
-131.837112 -22.417535 15.428940 7
-135.319708 -22.234971 15.630935 7
-138.778257 -22.182081 15.793660 7
-142.292256 -22.069714 15.978610 7
-145.853722 -21.922563 16.177883 7
-149.485923 -21.695430 16.406376 7
147.390171 -24.254761 13.411270 6
143.677140 -24.226300 13.395115 6
139.970759 -24.254367 13.363174 6
136.316841 -24.252439 13.343039 6
132.702141 -24.242032 13.327799 6
129.118547 -24.236555 13.313143 6
125.545040 -24.277641 13.285758 6
122.020608 -24.283556 13.271687 6
117.981961 -25.479869 12.880047 5
111.799435 -31.616041 10.915265 5
107.538869 -33.723016 10.237505 5
104.164422 -33.911524 10.173440 5
100.885667 -33.939983 10.162304 5
97.649793 -33.924445 10.167069 5
94.425182 -33.940309 10.163674 5
91.232959 -33.931968 10.169828 5
88.059515 -33.932160 10.175075 5
84.915718 -33.908633 10.189683 5
81.772256 -33.942365 10.187811 5
78.670211 -33.912689 10.207927 5
75.570807 -33.931772 10.214241 5
72.495273 -33.933708 10.227762 5
69.450861 -33.889819 10.257633 5
66.402983 -33.912781 10.267885 5
63.379879 -33.905764 10.289409 5
57.993778 -42.847002 7.455165 9
54.483753 -45.240166 6.712699 9
51.038887 -47.630407 5.972377 9
47.699594 -49.840315 5.290847 9
44.569613 -51.375486 4.826174 9
41.673607 -52.015836 4.648905 9
38.872524 -52.305975 4.585083 9
36.148708 -52.277396 4.624737 9
34.113438 -48.503734 5.864914 9
31.362305 -48.508681 5.897409 9
28.013757 -52.282479 4.723892 9
25.314531 -52.310849 4.751472 9
22.633793 -52.263409 4.804896 9
19.953810 -52.254532 4.847504 9
17.280252 -52.242325 4.892726 9
14.610323 -52.246586 4.934211 9
11.944133 -52.266013 4.972370 9
9.286097 -52.250490 5.023314 9
6.632764 -52.223697 5.079448 9
3.977983 -52.262456 5.116057 9
1.332827 -52.203757 5.185611 9
-1.314280 -52.214078 5.234524 9
-3.958005 -52.196486 5.294020 9
-6.600740 -52.187562 5.352321 9
-9.242775 -52.190034 5.408551 9
-11.884488 -52.230488 5.454121 9
-14.525452 -52.181582 5.530194 9
-17.167063 -52.196201 5.587369 9
-19.810831 -52.140670 5.668905 9
-22.455487 -52.136572 5.735462 9
-25.101515 -52.147398 5.798857 9
-27.752255 -52.110204 5.879526 9
-30.403839 -52.118494 5.947145 9
-33.063710 -52.057592 6.038982 9
-35.722152 -52.076692 6.106558 9
-38.387237 -52.068113 6.184898 9
-41.065957 -51.977245 6.291850 9
-43.811488 -51.361417 6.571962 9
-47.229019 -45.454729 8.582431 9
-49.615378 -48.213173 7.765443 9
-52.660479 -46.054644 8.557760 9
-55.792110 -43.674252 9.426101 9
-58.954666 -41.456015 10.244830 9
-63.862841 -29.582047 14.236903 8
-66.105743 -33.461886 13.062130 8
-69.052385 -33.391021 13.186491 8
-72.018961 -33.284958 13.324662 8
-74.985775 -33.242504 13.444137 8
-77.973202 -33.168115 13.576419 8
-80.979281 -33.077029 13.716546 8
-83.989869 -33.030900 13.844174 8
-87.015913 -32.984616 13.974233 8
-90.074663 -32.876931 14.127082 8
-93.136996 -32.820997 14.265257 8
-96.227096 -32.730714 14.417371 8
-99.337648 -32.636354 14.573432 8
-102.461649 -32.563031 14.725120 8
-105.593306 -32.528779 14.866432 8
-109.042428 -31.610898 15.305939 8
-113.628777 -27.538727 16.805430 8
-120.055280 -18.654428 19.925660 7
-123.520164 -18.375552 20.167090 7
-127.012622 -18.103743 20.409436 7
-130.528527 -17.851345 20.648597 7
-134.107029 -17.522460 20.916977 7
-137.692932 -17.258476 21.166984 7
-141.211314 -17.231394 21.340358 7
-144.717761 -17.298209 21.485274 7
-148.265869 -17.335264 21.643650 7
146.117665 -20.860569 18.518102 6
142.322370 -20.946298 18.446202 6
138.583010 -20.999716 18.387916 6
134.859124 -21.095515 18.318329 6
131.206224 -21.122509 18.274388 6
127.582657 -21.159082 18.229963 6
123.992101 -21.195765 18.188160 6
120.442482 -21.212897 18.155471 6
114.102695 -27.533984 16.031185 5
108.808866 -31.865283 14.571239 5
105.171631 -32.592836 14.310969 5
101.855822 -32.644692 14.277494 5
98.576415 -32.671073 14.254822 5
95.343096 -32.642470 14.252716 5
92.119980 -32.646615 14.242025 5
88.906766 -32.685073 14.222207 5
85.719927 -32.712334 14.208343 5
82.570963 -32.691432 14.212674 5
79.431060 -32.701794 14.208822 5
76.323877 -32.670618 14.220925 5
73.222682 -32.677164 14.222662 5
70.140951 -32.678088 14.228400 5
67.079868 -32.666106 14.240539 5
64.034697 -32.654184 14.254763 5
58.691231 -41.312735 11.392692 9
55.108599 -43.878932 10.554633 9
51.560913 -46.581808 9.672884 9
48.147772 -49.011408 8.883518 9
44.966848 -50.688948 8.345592 9
42.022500 -51.478366 8.104439 9
39.204917 -51.778504 8.027677 9
36.471952 -51.724869 8.070369 9
33.743115 -51.695002 8.107044 9
31.015973 -51.704097 8.132636 9
28.301224 -51.689980 8.167822 9
25.595254 -51.668116 8.207458 9
22.891785 -51.677490 8.238562 9
20.202874 -51.629034 8.290798 9
17.515762 -51.609507 8.335271 9
14.832553 -51.603076 8.377249 9
12.150364 -51.637317 8.407527 9
9.479243 -51.608317 8.460778 9
6.807848 -51.627778 8.499729 9
4.143482 -51.604364 8.554882 9
1.482229 -51.573423 8.614445 9
-1.179373 -51.590414 8.659877 9
-3.838077 -51.596309 8.710916 9
-6.494225 -51.573746 8.773394 9
-9.149765 -51.553406 8.837053 9
-11.805321 -51.557000 8.894620 9
-14.460714 -51.556462 8.955510 9
-17.116674 -51.543324 9.022583 9
-19.774197 -51.512588 9.097540 9
-22.432899 -51.509029 9.165347 9
-25.094023 -51.495447 9.238520 9
-27.968853 -47.436146 10.676774 9
-30.425779 -51.454609 9.395537 9
-33.094237 -51.475317 9.463236 9
-35.769909 -51.451803 9.547918 9
-38.452636 -51.405924 9.642255 9
-41.154585 -51.231395 9.782252 9
-43.916103 -50.611749 10.075240 9
-46.790945 -49.227356 10.630039 9
-49.798210 -47.116254 11.434544 9
-53.695730 -39.183670 14.220214 9
-56.051692 -42.338411 13.243528 9
-59.309918 -39.677866 14.246459 9
-63.656154 -31.180193 17.242794 8
-66.628676 -31.084956 17.381493 8
-69.613054 -30.994106 17.521282 8
-72.592270 -30.992348 17.633231 8
-75.603301 -30.899550 17.778936 8
-78.624901 -30.824448 17.921278 8
-81.675298 -30.691095 18.086338 8
-84.732081 -30.599587 18.239843 8
-87.812003 -30.483014 18.404804 8
-90.923226 -30.316857 18.589747 8
-94.031647 -30.230441 18.750180 8
-97.164967 -30.122750 18.920937 8
-100.349669 -29.911370 19.130605 8
-103.522852 -29.809490 19.305548 8
-106.732405 -29.661432 19.499663 8
-110.688937 -27.366157 20.442975 8
-117.253060 -17.793403 23.923856 7
-120.605696 -17.812548 24.075877 7
-124.091175 -17.535177 24.334789 7
-127.671976 -17.088406 24.656721 7
-131.309368 -16.587917 25.001537 7
-135.026794 -15.983193 25.387138 7
-138.813046 -15.312504 25.800358 7
-142.738008 -14.421321 26.295803 7
-146.805078 -13.322616 26.869417 7
148.817755 -17.056318 23.919829 6
145.005398 -17.053709 23.856149 6
141.224272 -17.063416 23.791670 6
137.511124 -17.011879 23.751822 6
133.801764 -17.020939 23.694325 6
130.140616 -17.001316 23.650052 6
126.507511 -16.990944 23.605815 6
122.904879 -16.982862 23.563972 6
119.323543 -16.995264 23.518187 6
110.861375 -28.240151 19.594771 5
106.522766 -30.483923 18.785818 5
103.217155 -30.421776 18.776397 5
99.906181 -30.432553 18.744624 5
96.622423 -30.436985 18.717837 5
93.342778 -30.493123 18.675972 5
90.108108 -30.492211 18.656520 5
86.875999 -30.545490 18.621073 5
83.686370 -30.540115 18.608522 5
80.519505 -30.526812 18.601339 5
77.364610 -30.535775 18.589089 5
74.223193 -30.562059 18.573454 5
71.116807 -30.533314 18.579349 5
68.009623 -30.564456 18.567140 5
64.929686 -30.559276 18.569969 5
59.678231 -38.718145 15.761025 9
55.910679 -41.847593 14.688040 9
52.291024 -44.705482 13.710887 9
48.796509 -47.346782 12.810547 9
45.481892 -49.493037 12.082989 9
42.471017 -50.489365 11.754090 9
39.619547 -50.860808 11.642883 9
36.850774 -50.898394 11.649050 9
34.096118 -50.916105 11.664293 9
31.356014 -50.904465 11.691879 9
28.625068 -50.887581 11.723486 9
25.899777 -50.883774 11.752783 9
23.180279 -50.891015 11.780463 9
20.473286 -50.856616 11.824732 9
17.764079 -50.887131 11.848758 9
15.072482 -50.816730 11.909881 9
12.375665 -50.836442 11.942033 9
9.687805 -50.813998 11.990972 9
7.005381 -50.770694 12.049343 9
4.323362 -50.761933 12.097961 9
1.642568 -50.782994 12.138449 9
-1.032281 -50.746498 12.201112 9
-3.706163 -50.721243 12.262107 9
-6.379051 -50.700466 12.323786 9
-9.050271 -50.629054 12.405310 9
-11.723403 -50.678837 12.446962 9
-14.395535 -50.638131 12.522342 9
-17.068581 -50.625284 12.590310 9
-19.741893 -50.654876 12.645777 9
-22.419220 -50.583961 12.738581 9
-25.096309 -50.599599 12.803525 9
-27.776927 -50.588535 12.880118 9
-30.461761 -50.561158 12.964767 9
-33.150286 -50.538764 13.050055 9
-35.844200 -50.505299 13.141619 9
-38.545562 -50.447898 13.244001 9
-41.280957 -50.121072 13.443371 9
-44.065745 -49.467328 13.760211 9
-46.971441 -47.994671 14.367825 9
-50.031434 -45.647593 15.286647 9
-53.186704 -43.027581 16.305839 9
-56.463813 -40.022856 17.465213 9
-59.808786 -37.037912 18.622544 9
-64.354067 -27.625333 22.056092 8
-67.391075 -27.431908 22.238720 8
-70.422988 -27.340680 22.388233 8
-73.491867 -27.136179 22.580949 8
-76.566926 -26.979356 22.759918 8
-79.664293 -26.795936 22.951526 8
-82.788593 -26.573040 23.160442 8
-85.930966 -26.354059 23.371310 8
-89.100713 -26.105613 23.596091 8
-92.287724 -25.871210 23.819338 8
-95.499389 -25.625752 24.050071 8
-98.702392 -25.486700 24.246281 8
-101.966346 -25.216397 24.493147 8
-105.259763 -24.931011 24.749194 8
-109.098720 -23.054686 25.581686 8
108.839805 -26.137603 24.150758 5
104.978526 -27.260991 23.701588 5
101.612138 -27.287444 23.649348 5
98.259539 -27.344006 23.589628 5
94.942673 -27.373311 23.542945 5
91.652341 -27.395320 23.502098 5
88.388679 -27.406524 23.468301 5
85.146164 -27.419360 23.437062 5
81.907546 -27.483019 23.390744 5
78.713655 -27.474164 23.373448 5
75.522195 -27.517765 23.340427 5
72.363526 -27.516393 23.326505 5
69.206879 -27.568149 23.296566 5
66.075153 -27.594770 23.278573 5
62.996973 -27.484056 23.312616 5
57.057369 -38.506477 19.368945 9
53.215503 -42.067464 18.095962 9
49.555133 -45.240212 16.964478 9
46.129868 -47.727650 16.080619 9
43.024342 -49.030897 15.622743 9
40.099193 -49.642348 15.414802 9
37.306561 -49.691939 15.410370 9
34.540211 -49.657646 15.438519 9
31.776651 -49.656370 15.457425 9
29.024170 -49.640105 15.484252 9
26.281726 -49.608894 15.518983 9
23.540132 -49.620127 15.541065 9
20.812113 -49.583137 15.582958 9
18.087800 -49.562289 15.621611 9
15.365630 -49.571237 15.652123 9
12.655647 -49.514332 15.708779 9
9.947706 -49.475107 15.761641 9
7.239902 -49.477371 15.802160 9
4.538988 -49.435733 15.860979 9
1.839171 -49.415393 15.914703 9
-0.856628 -49.360473 15.983408 9
-3.371510 -44.778756 17.682584 9
-6.246680 -49.288957 16.114759 9
-8.941390 -49.282762 16.173663 9
-11.635339 -49.248371 16.245306 9
-14.329866 -49.223826 16.316006 9
-17.025317 -49.197529 16.389952 9
-19.722977 -49.136087 16.479214 9
-22.421716 -49.125859 16.552639 9
-25.125154 -49.055037 16.650623 9
-27.830503 -49.023073 16.737253 9
-30.539661 -48.988719 16.827451 9
-33.253667 -48.945912 16.923438 9
-35.974361 -48.881941 17.029854 9
-38.695365 -48.878235 17.117182 9
-41.449388 -48.604988 17.305230 9
-44.271243 -47.833582 17.677457 9
-47.234656 -46.097742 18.404191 9
-50.380969 -43.317086 19.515840 9
-53.656370 -40.093857 20.793963 9
-57.031882 -36.709518 22.136406 9
-64.694845 -7.881788 32.786965 8
-65.267725 -22.857591 27.431314 8
-68.326328 -22.866425 27.551047 8
-71.396242 -22.873674 27.674708 8
-74.492287 -22.811308 27.827332 8
-77.585837 -22.823769 27.955937 8
-80.694476 -22.826723 28.091521 8
-83.816495 -22.831436 28.229994 8
-86.960159 -22.807438 28.382653 8
-90.112207 -22.811796 28.528496 8
-93.292421 -22.771054 28.694733 8
-96.491476 -22.725986 28.866375 8
-99.711106 -22.673762 29.044540 8
-102.936896 -22.664940 29.210504 8
-106.218712 -22.539723 29.423778 8
107.853151 -21.462452 29.725628 5
104.358320 -21.607317 29.613230 5
100.956916 -21.588585 29.565563 5
106.040948 0.591246 37.755829 5
94.171983 -21.697367 29.427268 5
90.798213 -21.802000 29.345083 5
87.444282 -21.919871 29.261677 5
84.116305 -22.031542 29.184221 5
80.812922 -22.137925 29.112329 5
77.535511 -22.231410 29.048779 5
74.293223 -22.277684 29.006248 5
71.076260 -22.302250 28.975234 5
67.861289 -22.382879 28.926883 5
64.695568 -22.348582 28.924523 5
58.858538 -32.676775 25.086621 9
54.520336 -37.929076 23.132941 9
50.646920 -41.758464 21.709717 9
46.976930 -45.109026 20.467025 9
43.728096 -46.898558 19.805590 9
40.726122 -47.727694 19.502862 9
37.904282 -47.778129 19.491537 9
35.101766 -47.783666 19.499789 9
32.305963 -47.805167 19.505057 9
29.521340 -47.814856 19.517622 9
26.751476 -47.783208 19.548419 9
23.984444 -47.780675 19.571330 9
21.224173 -47.780212 19.596369 9
18.472918 -47.759356 19.631863 9
15.725810 -47.751016 19.665603 9
12.988443 -47.698592 19.718594 9
10.245549 -47.748432 19.736505 9
7.517264 -47.684347 19.799606 9
4.789359 -47.650196 19.854485 9
2.063646 -47.622499 19.909864 9
-0.656021 -47.518071 19.996686 9
-3.380092 -47.525670 20.044750 9
-6.101768 -47.515060 20.102497 9
-8.821137 -47.435698 20.188778 9
-11.541986 -47.409737 20.258108 9
-14.263276 -47.342282 20.345864 9
-17.043763 -42.028271 22.395163 9
-19.711261 -47.229308 20.522139 9
-22.438308 -47.191876 20.607657 9
-25.167517 -47.168535 20.690918 9
-27.899227 -47.154662 20.773662 9
-30.640326 -47.043161 20.896029 9
-33.382337 -47.000141 20.995839 9
-36.132049 -46.924417 21.111031 9
-38.885121 -46.879425 21.217831 9
-41.683461 -46.455257 21.470372 9
-44.570300 -45.379581 21.971594 9
-47.622361 -43.201301 22.892222 9
-50.903477 -39.705617 24.314606 9
-54.358688 -35.561832 25.987736 9
-58.148100 -29.874574 28.250974 9
-64.696009 -8.305063 36.531780 8
-65.810853 -20.211386 32.154195 8
-68.998024 -19.731002 32.467489 8
-72.235927 -19.102572 32.841218 8
-75.529925 -18.326484 33.275509 8
-78.879400 -17.430654 33.760027 8
-82.351650 -16.141782 34.399205 8
59.835825 -17.757732 34.454593 9
52.313563 -35.906757 27.483019 9
48.224724 -40.764002 25.611810 9
44.658768 -43.749487 24.461809 9
41.535587 -44.955765 23.997291 9
38.642945 -45.171806 23.915715 9
35.795957 -45.221102 23.901391 9
32.972558 -45.196090 23.918869 9
30.159916 -45.156932 23.945077 9
27.342259 -45.199350 23.943299 9
24.543020 -45.173938 23.970812 9
21.746699 -45.176838 23.990738 9
18.958936 -45.164724 24.019689 9
16.176249 -45.159391 24.049296 9
13.405825 -45.087123 24.107855 9
10.634808 -45.059299 24.152614 9
7.865189 -45.061686 24.189023 9
5.100622 -45.048421 24.234698 9
2.341373 -44.998369 24.297772 9
-0.415086 -44.928384 24.371786 9
-3.171970 -44.889478 24.437127 9
-5.930360 -44.931329 24.474653 9
-8.684796 -44.878193 24.552035 9
-11.439788 -44.838587 24.627509 9
-14.195488 -44.745078 24.727090 9
-16.953392 -44.662246 24.825907 9
-19.712538 -44.645880 24.902421 9
-22.477807 -44.491298 25.035708 9
-25.244430 -44.429039 25.136733 9
-28.012610 -44.410688 25.224180 9
-30.790907 -44.285092 25.356588 9
-33.570832 -44.223007 25.467877 9
-36.359510 -44.121081 25.598121 9
-39.169919 -43.858857 25.794176 9
-42.013093 -43.383096 26.076946 9
-44.986203 -41.902138 26.754790 9
-48.206327 -38.729392 28.096384 9
-51.768389 -33.557037 30.223893 9
-57.347248 -15.262873 37.481625 9
-61.824594 -6.579971 41.002896 9
55.553308 -23.551069 36.018779 9
50.747464 -30.896732 33.089357 9
46.075697 -38.408996 30.098658 9
42.689394 -40.558763 29.237670 9
39.649823 -41.236443 28.963970 9
36.744306 -41.327649 28.926460 9
33.869316 -41.311728 28.935139 9
30.996478 -41.336186 28.931531 9
28.141029 -41.306935 28.952911 9
25.288712 -41.306962 28.966375 9
22.450612 -41.255978 29.003740 9
19.610383 -41.268748 29.019495 9
16.785504 -41.203263 29.069945 9
13.959117 -41.194366 29.101610 9
11.140340 -41.156302 29.148500 9
8.326392 -41.105124 29.204250 9
5.515848 -41.047278 29.266308 9
2.709582 -40.956195 29.345234 9
-0.098732 -40.924727 29.404146 9
-2.903568 -40.849269 29.484216 9
-5.707524 -40.752485 29.576461 9
-8.512415 -40.664492 29.668917 9
-11.318254 -40.559240 29.771967 9
-14.126109 -40.479059 29.868767 9
-16.936417 -40.360777 29.984509 9
-19.749578 -40.268026 30.093849 9
-22.856510 -30.820138 33.942556 9
-25.778997 -30.588858 34.117589 9
-28.202771 -40.163108 30.375399 9
-31.033706 -40.028208 30.516866 9
-33.875815 -39.828550 30.688190 9
-36.727751 -39.611624 30.870433 9
-39.603354 -39.240436 31.118621 9
-42.528812 -38.513584 31.513859 9
-47.439116 -20.517240 38.856529 9
-49.547337 -28.168694 35.896127 9
-53.020067 -24.549860 37.473927 9
-57.405591 -15.216240 41.363827 9
52.505072 -24.451105 39.457487 9
48.574528 -28.188377 37.905926 9
44.982947 -30.743220 36.843370 9
41.287773 -34.155957 35.434167 9
38.170871 -34.924921 35.111722 9
35.220514 -34.900259 35.118388 9
32.278911 -34.876680 35.128793 9
29.344396 -34.861161 35.140064 9
26.418422 -34.841249 35.157283 9
23.499831 -34.820033 35.179171 9
20.590631 -34.776206 35.214443 9
17.709586 -34.533347 35.335356 9
14.809325 -34.484216 35.381048 9
11.915046 -34.416481 35.438476 9
9.023540 -34.354977 35.497463 9
6.139313 -34.232114 35.585723 9
3.254949 -34.127708 35.670545 9
0.373101 -33.990469 35.772974 9
-2.511456 -33.908715 35.856778 9
-5.392406 -33.715555 35.990485 9
-8.275669 -33.503640 36.136101 9
-11.162447 -33.278797 36.291260 9
-14.053706 -33.094080 36.434167 9
-16.949996 -32.830210 36.613917 9
-20.021493 -24.355344 40.180357 9
-22.745572 -32.847538 36.761735 9
-25.649699 -32.765906 36.879211 9
-28.558602 -32.676412 37.004230 9
-31.471833 -32.599537 37.128365 9
-34.393279 -32.484039 37.272822 9
-37.316795 -32.425916 37.397945 9
-40.265220 -32.166584 37.610818 9
-43.247649 -31.684508 37.920640 9
-46.526003 -28.744476 39.255404 9
-49.665408 -27.472104 39.904297 9
45.464604 -29.677498 41.043838 9
42.336991 -30.112178 40.841204 9
39.300418 -30.170492 40.802356 9
36.281373 -30.195279 40.782350 9
33.278731 -30.183013 40.782644 9
30.288828 -30.145565 40.798202 9
27.292166 -30.206993 40.776586 9
24.316717 -30.178926 40.797370 9
21.347165 -30.156644 40.820282 9
18.386106 -30.113724 40.856479 9
15.423713 -30.132784 40.871029 9
12.469766 -30.123519 40.902093 9
9.525091 -30.058235 40.961388 9
6.580221 -30.035038 41.007424 9
3.639613 -29.994080 41.065514 9
0.700787 -29.961246 41.124709 9
-2.234782 -29.893251 41.203344 9
-5.171467 -29.876487 41.264835 9
-8.106380 -29.821410 41.347126 9
-11.040960 -29.697631 41.463143 9
-13.977883 -29.410401 41.653162 9
-16.920722 -29.166432 41.829544 9
-19.871364 -28.835594 42.047581 9
-22.832151 -28.448333 42.294432 9
-25.798370 -28.176513 42.497050 9
-28.777952 -27.807552 42.745898 9
-31.775964 -27.318011 43.051101 9
-34.787898 -26.830771 43.360418 9
-37.821740 -26.255695 43.712384 9
-40.881423 -25.586705 44.109755 9
-44.082303 -23.742867 45.015045 9
-148.989352 -8.134858 -28.872448 7
-147.127397 -12.345735 -27.334263 7
-149.093989 4.469287 -29.661684 7
-145.413690 2.330019 -29.897706 7
-141.885077 0.052330 -30.012146 7
-138.618266 -2.495779 -29.890497 7
-135.641511 -5.365734 -29.493831 7
-133.056817 -8.697738 -28.706488 7
-131.388888 -13.141381 -26.972386 7
-148.690563 11.435015 -27.730850 7
-144.610799 9.719493 -28.362512 7
-140.647968 7.925638 -28.916201 7
-136.817274 6.029678 -29.372499 7
-133.114307 4.027522 -29.730761 7
-129.576879 1.867636 -29.947208 7
-126.228603 -0.489569 -29.990400 7
-123.082132 -3.073960 -29.838724 7
-120.218467 -5.999817 -29.396549 7
-117.841632 -9.542837 -28.429810 7
-106.096718 -1.333563 -37.726275 8
-102.890296 -3.627704 -37.803840 8
-100.086206 -6.447523 -37.441082 8
-97.573552 -9.681674 -36.744372 8
-95.558375 -13.645287 -35.457742 8
-94.903377 -19.613286 -32.533427 8
-149.558309 17.092598 -24.637317 7
-145.161405 15.668305 -25.575513 7
-140.875689 14.189124 -26.448948 7
-136.734484 12.613772 -27.220344 7
-132.711783 10.961021 -27.910811 7
-128.772977 9.261195 -28.551575 7
-124.980308 7.439104 -29.074358 7
-121.328877 5.489858 -29.478295 7
-117.794971 3.430628 -29.782787 7
-109.167127 7.515335 -35.668810 8
-104.543436 6.984520 -37.307097 8
-101.115093 5.038317 -37.663762 8
-97.833406 2.924409 -37.875931 8
-94.659722 0.680408 -37.980832 8
-91.611699 -1.728085 -37.951874 8
-88.709781 -4.342292 -37.757546 8
-86.024804 -7.278476 -37.303385 8
-83.658288 -10.708381 -36.451267 8
-81.815079 -14.973831 -34.925145 8
-148.705932 18.679191 -19.881632 7
-144.100831 17.426572 -21.037629 7
-138.046425 17.722648 -23.712356 7
-133.465576 16.617371 -24.966749 7
-129.283023 15.157876 -25.859403 7
-125.184769 13.660044 -26.705290 7
-121.233172 12.048944 -27.434590 7
-117.338009 10.417714 -28.139128 7
-109.022962 14.013857 -33.743294 8
-104.328278 13.551321 -35.481735 8
-100.681877 11.893810 -36.096700 8
-97.152397 10.124588 -36.607819 8
-93.675293 8.317015 -37.084719 8
-90.310431 6.387685 -37.453929 8
-87.034918 4.357140 -37.737024 8
-83.853565 2.209930 -37.923123 8
-80.783321 -0.087837 -37.985634 8
-77.836384 -2.566177 -37.902277 8
-75.042800 -5.284313 -37.626499 8
-72.460343 -8.349375 -37.072619 8
-70.233402 -12.014618 -36.034619 8
-68.667549 -16.817761 -34.075591 8
-58.228362 -7.114396 -44.200993 9
-52.891434 -5.424637 -47.575137 9
-48.563792 -5.287776 -49.639378 9
-45.306513 -6.943860 -50.233090 9
-42.593238 -9.577789 -50.047584 9
-40.227360 -12.901484 -49.332237 9
-38.183096 -16.923210 -48.094697 9
-36.727189 -22.233438 -45.887657 9
-151.347211 22.683099 -15.077730 7
-146.390461 21.693835 -16.566024 7
-141.645989 20.576154 -17.898147 7
-137.023183 19.409885 -19.160172 7
-132.549292 18.159995 -20.319340 7
-127.716013 17.359997 -21.910943 7
-122.148264 17.448485 -24.356641 7
-118.023649 16.050211 -25.308810 7
-110.768557 18.289645 -29.777762 8
-104.945101 19.078122 -32.778633 8
-101.096155 17.652934 -33.625311 8
-97.341011 16.159971 -34.400961 8
-93.694870 14.573050 -35.083461 8
-90.121681 12.929772 -35.710601 8
-86.600344 11.252010 -36.304398 8
-83.186529 9.460169 -36.793738 8
-79.845191 7.592674 -37.216512 8
-76.561526 5.663391 -37.587343 8
-73.401736 3.569862 -37.817239 8
-70.307026 1.386098 -37.975413 8
-67.346629 -1.001915 -37.964916 8
-60.363487 2.919581 -43.415950 9
-55.447921 3.826329 -46.204492 9
-50.730855 4.563705 -48.814131 9
-46.890704 3.961281 -50.264735 9
-43.681071 2.336133 -50.850801 9
-40.795152 0.151603 -50.978078 9
-38.015533 -2.239780 -50.947851 9
-35.344136 -4.859771 -50.747013 9
-32.752325 -7.672594 -50.409341 9
-30.305234 -10.825559 -49.821256 9
-28.045761 -14.436914 -48.896162 9
-26.105643 -18.826669 -47.392093 9
-25.114304 -25.440445 -44.199088 9
-149.793958 24.976913 -10.974955 7
-144.695738 24.102561 -12.639706 7
-139.705376 23.210801 -14.257269 7
-134.890517 22.227891 -15.752780 7
-130.201948 21.194920 -17.172625 7
-125.656108 20.087413 -18.494469 7
-121.240369 18.910575 -19.726845 7
-114.862256 19.992149 -23.205733 8
-108.208738 21.563225 -27.112591 8
-102.191372 22.586089 -30.414971 8
-98.220893 21.323377 -31.436225 8
-94.382919 19.953506 -32.343067 8
-90.632422 18.522862 -33.183444 8
-86.960147 17.036685 -33.964568 8
-83.353138 15.505879 -34.698729 8
-79.839292 13.887389 -35.347522 8
-76.365897 12.245857 -35.973350 8
-72.972435 10.521658 -36.522715 8
-69.668916 8.692207 -36.977610 8
-66.432041 6.782696 -37.363633 8
-59.549788 10.480164 -42.750798 9
-54.746792 11.210967 -45.435198 9
-50.186726 11.698898 -47.872214 9
-46.374156 11.083066 -49.321162 9
-43.112909 9.604241 -50.015065 9
-40.083851 7.747551 -50.387638 9
-37.131975 5.758818 -50.655496 9
-34.218694 3.697158 -50.871377 9
-31.377992 1.490795 -50.977464 9
-28.593575 -0.841760 -50.992349 9
-25.878818 -3.339176 -50.887331 9
-23.244762 -6.039536 -50.635219 9
-20.712272 -9.006060 -50.189640 9
-18.318612 -12.345292 -49.471407 9
-16.140148 -16.265096 -48.324205 9
-14.403136 -21.349626 -46.302854 9
-149.055788 26.501878 -6.019722 7
-143.501660 26.027223 -8.186595 7
-138.276361 25.337587 -10.082045 7
-133.243903 24.550894 -11.840355 7
-128.365586 23.696288 -13.496829 7
-123.668545 22.736246 -15.015669 7
-119.012231 21.812512 -16.548185 7
-110.343740 25.441062 -22.729336 8
-105.507869 24.994894 -24.657587 8
-101.440336 23.749689 -25.751443 8
-97.223647 22.741997 -27.068836 8
-92.345103 22.615794 -29.240668 8
-87.908818 22.045285 -30.945186 8
-84.145179 20.696579 -31.871443 8
-80.466363 19.284346 -32.728350 8
-76.832884 17.855057 -33.562511 8
-73.310751 16.313728 -34.285261 8
-69.826282 14.754647 -34.988282 8
-66.397528 13.148261 -35.645127 8
-64.704359 8.973197 -33.939095 8
-54.987058 17.025416 -43.417686 9
-50.369948 17.572556 -45.961255 9
-46.490951 17.064130 -47.526535 9
-43.098388 15.828996 -48.431250 9
-39.977299 14.172051 -48.961231 9
-36.908084 12.441974 -49.430739 9
-33.883965 10.643473 -49.845859 9
-30.882564 8.810973 -50.237957 9
-27.954321 6.844045 -50.522767 9
-25.063810 4.799394 -50.751300 9
-22.211884 2.667413 -50.917485 9
-19.428230 0.377493 -50.964995 9
-16.668262 -1.989886 -50.963470 9
-14.001953 -4.597441 -50.782362 9
-11.405185 -7.413376 -50.452533 9
-8.925462 -10.570029 -49.872643 9
-6.579502 -14.141640 -48.990983 9
-4.496973 -18.495792 -47.527254 9
-3.161565 -24.970753 -44.454816 9
-149.183758 27.218026 -0.101990 7
-143.222682 27.073114 -2.725934 7
-140.001595 24.352557 -2.457040 7
-132.248387 26.216097 -7.205373 7
-127.071669 25.635442 -9.219291 7
-122.148157 24.888418 -11.019672 7
-114.616224 27.066850 -15.893745 8
-107.683067 28.812464 -20.224444 8
-103.273062 27.892020 -21.703172 8
-100.736381 24.860760 -20.983623 8
-95.013507 25.613313 -24.148338 8
-91.044954 24.372947 -25.244512 8
-87.156976 23.088685 -26.283642 8
-82.677577 22.620387 -28.121684 8
-77.947194 22.577755 -30.353041 8
-74.156368 21.377450 -31.423518 8
-70.548780 19.977042 -32.290200 8
-66.989322 18.551177 -33.126233 8
-64.689169 15.325506 -32.249343 8
-59.688900 16.095485 -35.155551 9
-51.072342 22.589276 -43.354781 9
-47.045720 22.288548 -45.143541 9
-43.517976 21.272235 -46.256573 9
-40.287370 19.814947 -46.961201 9
-37.116650 18.284487 -47.599357 9
-33.994392 16.693173 -48.184180 9
-30.930693 15.015982 -48.695376 9
-27.865400 13.356142 -49.225726 9
-24.861396 11.593221 -49.670590 9
-21.902854 9.747959 -50.050494 9
-18.974030 7.843732 -50.387530 9
-16.071732 5.880706 -50.683427 9
-13.233286 3.771727 -50.866651 9
-10.421981 1.583810 -50.996337 9
-7.682298 -0.793748 -50.983167 9
-4.972234 -3.280516 -50.897102 9
-2.342280 -6.011820 -50.631013 9
0.232545 -8.949612 -50.220730 9
2.661258 -12.354434 -49.463271 9
4.942939 -16.278487 -48.327172 9
6.847994 -21.424945 -46.273030 9
-151.480312 25.912518 8.249108 7
-144.292542 26.832268 4.283244 7
-137.906890 27.147311 1.080028 7
-131.968010 27.164452 -1.727546 7
-126.386540 26.948137 -4.223286 7
-121.149412 26.489677 -6.407438 7
-111.399798 31.031225 -13.984756 8
-105.724560 31.400329 -16.930318 8
-101.321388 30.465101 -18.434267 8
-97.118206 29.373590 -19.749899 8
-92.923732 28.339570 -21.106493 8
-88.807335 27.279451 -22.416807 8
-84.857170 26.077589 -23.563994 8
-80.925931 24.910122 -24.732016 8
-77.086444 23.680913 -25.823968 8
-73.134208 22.659691 -27.111387 8
-68.536774 22.600144 -29.334094 8
-64.633321 21.665074 -30.667998 8
-63.562743 16.651235 -28.029614 8
-55.566995 21.890861 -35.307321 9
-47.947743 26.947390 -42.289948 9
-44.275110 26.139111 -43.619770 9
-40.937091 24.853094 -44.489346 9
-37.675041 23.479702 -45.273364 9
-34.491956 22.004517 -45.961231 9
-31.299933 20.572491 -46.687974 9
-28.185852 19.027693 -47.312144 9
-25.115418 17.422770 -47.883978 9
-22.043734 15.837354 -48.475936 9
-19.030564 14.153171 -48.983885 9
-16.063671 12.384756 -49.423124 9
-13.091951 10.630655 -49.881070 9
-10.174124 8.763355 -50.248439 9
-7.299915 6.793785 -50.537335 9
-4.456911 4.739587 -50.765138 9
-1.639300 2.605249 -50.937685 9
1.115823 0.289968 -50.973527 9
3.842989 -2.137457 -50.933194 9
6.518302 -4.752832 -50.757603 9
9.121455 -7.632788 -50.389107 9
11.665777 -10.769024 -49.840011 9
14.073086 -14.421828 -48.909535 9
16.250940 -18.935344 -47.338145 9
17.766147 -25.796608 -43.985887 9
-140.586049 25.256272 10.029102 7
-133.212433 26.588165 5.580432 7
-126.780129 27.155170 2.087513 7
-121.026213 27.170289 -0.718232 7
-109.508994 33.555109 -10.556461 8
-104.309027 33.385220 -12.985993 8
-99.741630 32.614701 -14.717438 8
-95.316275 31.765227 -16.334946 8
-91.022625 30.839625 -17.845304 8
-86.902692 29.777319 -19.187876 8
-82.746111 28.828866 -20.630789 8
-78.761970 27.730839 -21.897864 8
-74.883465 26.556927 -23.070343 8
-71.027498 25.411117 -24.257372 8
-67.274174 24.181641 -25.346029 8
-63.540600 22.977640 -26.448733 8
-56.840989 26.173994 -31.905701 9
-51.899413 27.014223 -34.956456 9
-45.614510 30.091222 -40.140343 9
-41.858755 29.435218 -41.637075 9
-38.521257 28.172509 -42.536684 9
-35.251805 26.836707 -43.361422 9
-31.993224 25.518213 -44.198619 9
-28.811494 24.099585 -44.938974 9
-25.648100 22.677035 -45.674251 9
-22.512177 21.231313 -46.387380 9
-19.424028 19.719329 -47.040276 9
-16.382914 18.134845 -47.629326 9
-13.345602 16.558438 -48.228412 9
-10.343052 14.923749 -48.779097 9
-7.389946 13.191598 -49.248781 9
-4.439458 11.456817 -49.722309 9
-1.552607 9.575506 -50.076263 9
1.327658 7.669119 -50.417782 9
4.166575 5.647236 -50.671254 9
6.987430 3.556713 -50.878729 9
9.758726 1.304927 -50.964998 9
12.506867 -1.053587 -50.978659 9
15.210918 -3.591853 -50.862578 9
17.867382 -6.341790 -50.594915 9
20.455714 -9.392906 -50.108477 9
22.958836 -12.837584 -49.336223 9
25.333351 -16.871783 -48.131945 9
27.340410 -22.412752 -45.791208 9
-143.409292 17.053893 23.577287 7
-129.852674 24.620952 11.707657 7
-122.309670 26.377405 6.760815 7
-108.578199 35.041900 -5.955102 8
-103.287453 34.935322 -8.532964 8
-98.537335 34.338755 -10.516792 8
-93.975058 33.620597 -12.331695 8
-89.518409 32.865720 -14.075972 8
-85.199792 32.028005 -15.702156 8
-80.960008 31.171850 -17.283221 8
-76.841439 30.237936 -18.757844 8
-72.872091 29.179965 -20.080728 8
-68.925358 28.156803 -21.422301 8
-65.110637 27.016158 -22.625099 8
-58.497876 29.932459 -27.966903 9
-53.432550 30.854347 -31.195601 9
-48.607223 31.581483 -34.178024 9
-44.237143 31.759178 -36.567932 9
-40.167390 31.583292 -38.574935 9
-36.564882 30.746937 -39.909633 9
-33.014535 29.888603 -41.209115 9
-29.701016 28.684248 -42.163533 9
-26.472137 27.372129 -43.009211 9
-23.263654 26.058407 -43.849554 9
-20.112188 24.671912 -44.618572 9
-16.981832 23.273961 -45.375354 9
-13.889554 21.827705 -46.086788 9
-10.819606 20.359402 -46.778369 9
-7.803301 18.798489 -47.387373 9
-4.799464 17.224961 -47.987913 9
-1.836870 15.570608 -48.520181 9
1.124853 13.920649 -49.061267 9
4.046332 12.178420 -49.527201 9
6.933757 10.348373 -49.924240 9
9.799282 8.451436 -50.272559 9
12.645281 6.485466 -50.572097 9
15.458531 4.404508 -50.785984 9
18.261015 2.258211 -50.958359 9
21.019342 -0.063103 -51.000224 9
23.743572 -2.549949 -50.923320 9
26.436025 -5.216118 -50.720156 9
29.082805 -8.132784 -50.337394 9
31.672395 -11.374788 -49.720713 9
34.136014 -15.244171 -48.638128 9
36.432419 -19.991892 -46.905972 9
37.823329 -28.783575 -42.082497 9
-131.633521 17.150864 24.351728 7
-108.477249 35.638346 -0.266620 8
-102.809942 35.887270 -3.346074 8
-97.791716 35.545025 -5.691885 8
-92.910151 35.156068 -7.942121 8
-88.312676 34.536590 -9.894289 8
-83.834266 33.866204 -11.756744 8
-79.485254 33.124147 -13.509764 8
-75.240629 32.333322 -15.181864 8
-71.108721 31.475393 -16.756060 8
-67.065240 30.574629 -18.261459 8
-63.158419 29.557245 -19.622475 8
-55.462749 34.025495 -26.707044 9
-50.471384 34.884258 -29.924938 9
-45.743410 35.510078 -32.852166 9
-41.809253 35.055284 -34.634270 9
-38.313115 33.991550 -35.778639 9
-34.967577 32.735184 -36.719034 9
-31.401697 31.893010 -38.062188 9
-27.866547 31.063122 -39.403243 9
-24.383303 30.206098 -40.704263 9
-21.034006 29.165884 -41.816299 9
-17.834119 27.893968 -42.698437 9
-14.690735 26.548245 -43.506606 9
-11.552482 25.223346 -44.331917 9
-8.473040 23.807810 -45.070691 9
-5.406894 22.388641 -45.805776 9
-2.371593 20.924838 -46.500226 9
0.638310 19.422647 -47.161169 9
3.608696 17.843015 -47.754860 9
6.573705 16.259866 -48.349230 9
9.491940 14.566241 -48.850401 9
12.395908 12.834011 -49.324059 9
15.293825 11.079875 -49.785843 9
18.147327 9.191300 -50.139907 9
20.993816 7.261197 -50.468624 9
23.812458 5.219574 -50.714107 9
26.612808 3.081878 -50.891969 9
29.390402 0.819934 -50.981162 9
32.147127 -1.577044 -50.975712 9
