ply
format ascii 1.0
element vertex 1396
property float x
property float y
property float z
property int scalar_Label
end_header
53.915233 -48.737668 -10.786167 9
51.282542 -49.727189 -11.148175 9
48.653515 -50.559566 -11.432253 9
45.996834 -50.956744 -11.508285 9
43.311110 -51.042952 -11.433812 9
40.615546 -51.077392 -11.329753 9
37.912897 -51.099770 -11.214607 9
35.201636 -51.105765 -11.086284 9
32.484749 -51.123305 -10.957831 9
29.762220 -51.153587 -10.829782 9
27.035154 -51.204237 -10.705696 9
24.297261 -51.239513 -10.568702 9
21.550794 -51.277107 -10.427069 9
18.789904 -51.290348 -10.268129 9
16.024786 -51.334314 -10.117848 9
13.240102 -51.337990 -9.942548 9
10.451902 -51.378833 -9.778854 9
7.659209 -51.450421 -9.623718 9
4.839443 -51.462527 -9.434152 9
2.017178 -51.517622 -9.258830 9
-0.821808 -51.561534 -9.071877 9
-3.693391 -51.542794 -8.848533 9
-6.570132 -51.562510 -8.637042 9
-9.440713 -51.655221 -8.454006 9
-12.329953 -51.738340 -8.259755 9
-15.252104 -51.772309 -8.035077 9
-18.190801 -51.811657 -7.806081 9
-21.156623 -51.828367 -7.559096 9
-24.139996 -51.852732 -7.308638 9
-27.139853 -51.888983 -7.056663 9
-30.158604 -51.932017 -6.800589 9
-33.183973 -52.013702 -6.555878 9
-36.248382 -52.054886 -6.283748 9
-39.346115 -52.074425 -5.993171 9
-42.450003 -52.137842 -5.716171 9
-45.639290 -52.068790 -5.365723 9
-49.051574 -51.584573 -4.801290 9
-52.887503 -50.300789 -3.830365 9
-57.321634 -47.926715 -2.304882 9
-61.910644 -45.428568 -0.701949 9
-66.718806 -42.695268 1.034983 9
-72.932868 -37.509556 4.019735 8
-76.538460 -37.443402 4.453952 8
-80.192510 -37.361149 4.906858 8
-83.861755 -37.324650 5.347470 8
-87.574526 -37.284582 5.800885 8
-91.345883 -37.218404 6.278877 8
-95.180716 -37.122346 6.783789 8
-99.065812 -37.022026 7.302938 8
-102.918433 -37.049467 7.768708 8
-108.813973 -34.029683 9.820709 8
-118.660133 -25.317026 14.847889 7
-137.822679 -3.449536 26.766455 7
-127.951867 -24.105106 16.575636 7
-132.816326 -23.351910 17.541707 7
-138.007129 -22.266032 18.700837 7
-143.327487 -21.135786 19.903321 7
-149.244825 -19.354548 21.472010 7
149.472472 -32.296826 0.350368 6
146.403439 -32.291502 0.262697 6
143.337679 -32.332560 0.159366 6
140.295608 -32.343709 0.076804 6
137.278941 -32.311037 0.021571 6
134.263807 -32.327017 -0.050566 6
131.267578 -32.318171 -0.104567 6
128.281779 -32.317267 -0.156125 6
125.306847 -32.320130 -0.203293 6
122.341035 -32.333090 -0.249129 6
119.391493 -32.314799 -0.273966 6
116.101335 -34.354800 -1.273351 5
112.659248 -37.679184 -2.878188 5
109.488910 -39.708741 -3.859984 5
106.546877 -40.452493 -4.223413 5
103.711306 -40.539637 -4.268328 5
100.893523 -40.545221 -4.268647 5
98.084221 -40.526979 -4.251880 5
95.277472 -40.532940 -4.240918 5
92.478705 -40.501610 -4.206480 5
89.679718 -40.519442 -4.189759 5
86.884575 -40.538418 -4.167891 5
84.093641 -40.541936 -4.132966 5
81.304455 -40.562643 -4.100546 5
78.518095 -40.567066 -4.054670 5
75.733056 -40.574719 -4.004638 5
72.948827 -40.590293 -3.952684 5
70.165170 -40.563000 -3.874539 5
67.393941 -42.011876 -4.496295 9
64.654477 -43.582260 -5.171254 9
61.942003 -45.005422 -5.770985 9
59.257148 -46.424097 -6.363784 9
56.600592 -47.864458 -6.962261 9
53.975399 -49.373436 -7.589018 9
51.345246 -50.423040 -7.990724 9
48.714804 -51.251592 -8.281382 9
46.048277 -51.554864 -8.314419 9
43.365954 -51.694253 -8.263098 9
40.672242 -51.758648 -8.169995 9
37.969319 -51.789043 -8.054736 9
35.258213 -51.805179 -7.926757 9
32.540603 -51.825554 -7.794930 9
29.815952 -51.849553 -7.658911 9
27.080277 -51.856172 -7.508474 9
24.334405 -51.856505 -7.348908 9
21.575886 -51.841829 -7.175902 9
18.813783 -51.862937 -7.014075 9
16.043112 -51.893580 -6.850638 9
13.253566 -51.888688 -6.663545 9
10.464757 -51.940226 -6.497591 9
7.658895 -51.970236 -6.314661 9
4.832938 -51.972132 -6.111391 9
2.002416 -52.010297 -5.919249 9
-0.847465 -52.029440 -5.711031 9
-3.708547 -52.062435 -5.502794 9
-6.580171 -52.112252 -5.295944 9
-9.479863 -52.123040 -5.062790 9
-12.366973 -52.227146 -4.868723 9
-15.301149 -52.238741 -4.621597 9
-18.241856 -52.286464 -4.385048 9
-21.233667 -52.244339 -4.096227 9
-24.225537 -52.261282 -3.829159 9
-27.238319 -52.279281 -3.554836 9
-30.264674 -52.319038 -3.283515 9
-33.332298 -52.312405 -2.980827 9
-36.407275 -52.346787 -2.690553 9
-39.478298 -52.447121 -2.425296 9
-42.626130 -52.427267 -2.090763 9
-45.824616 -52.356710 -1.721640 9
-49.292215 -51.773911 -1.082288 9
-53.209467 -50.345304 0.000099 9
-57.766729 -47.752844 1.692381 9
-62.550164 -44.907760 3.531660 9
-70.087475 -36.957805 8.020744 8
-73.707835 -36.834557 8.498066 8
-77.387106 -36.676810 9.004478 8
-81.086151 -36.559565 9.501402 8
-84.844474 -36.413345 10.025177 8
-88.594014 -36.358848 10.513052 8
-92.454297 -36.192879 11.071587 8
-96.400637 -35.965800 11.675143 8
-100.366739 -35.789922 12.264988 8
-104.563583 -35.336038 13.015930 8
-119.539488 -18.569532 22.471915 7
-124.037908 -18.213182 23.233393 7
-128.586590 -17.880140 23.998638 7
149.899889 -31.984322 4.388543 6
146.812974 -31.991822 4.284296 6
143.745053 -31.988732 4.192244 6
140.689854 -31.995144 4.102423 6
137.652634 -31.988141 4.026044 6
134.625923 -31.994499 3.949875 6
131.603263 -32.041794 3.860328 6
128.605194 -32.037135 3.802971 6
125.614468 -32.053727 3.741800 6
122.632879 -32.082375 3.681290 6
119.666259 -32.089508 3.637863 6
116.386346 -33.988883 2.673250 5
112.870048 -37.676496 0.838950 5
110.331298 -35.405708 1.931646 5
106.696999 -40.738262 -0.695467 5
103.855088 -40.826973 -0.746529 5
101.031466 -40.831077 -0.749999 5
98.215798 -40.816579 -0.738240 5
95.407008 -40.782460 -0.710769 5
92.596072 -40.820000 -0.712329 5
89.792555 -40.824541 -0.691645 5
86.996149 -40.775901 -0.638821 5
84.196074 -40.831616 -0.631101 5
81.402693 -40.816747 -0.582707 5
78.609119 -40.854970 -0.554302 5
75.819060 -40.831552 -0.489580 5
73.029246 -40.809787 -0.419585 5
70.239086 -40.837996 -0.368051 5
67.449105 -40.860785 -0.307767 5
64.714286 -43.763997 -1.658549 9
61.996421 -45.240155 -2.302463 9
59.309999 -46.776887 -2.971125 9
56.649545 -48.238993 -3.598022 9
54.015364 -49.678067 -4.208604 9
51.382994 -50.770941 -4.643331 9
48.755339 -51.691718 -4.987872 9
46.085093 -51.996058 -5.022217 9
43.407456 -52.217511 -5.009707 9
40.697690 -52.167440 -4.856693 9
37.989145 -52.186613 -4.731804 9
35.273657 -52.202705 -4.599175 9
32.549657 -52.209576 -4.455694 9
29.821291 -52.239200 -4.317212 9
27.081489 -52.248578 -4.162273 9
24.336957 -52.282225 -4.013000 9
21.567210 -52.231036 -3.814835 9
18.805885 -52.279750 -3.660011 9
16.016915 -52.245123 -3.456802 9
13.234048 -52.294136 -3.288785 9
10.433117 -52.314107 -3.099407 9
7.618971 -52.331445 -2.901817 9
4.782767 -52.314460 -2.679931 9
1.955472 -52.386099 -2.495702 9
-0.902681 -52.394995 -2.272636 9
-3.776602 -52.403048 -2.041855 9
-6.666430 -52.412252 -1.804264 9
-9.576005 -52.412498 -1.554608 9
-12.492587 -52.446404 -1.314483 9
-15.449336 -52.413800 -1.032667 9
-18.415316 -52.412808 -0.759084 9
-21.401419 -52.412179 -0.477662 9
-24.408541 -52.411658 -0.188130 9
-27.441468 -52.400885 0.114999 9
-30.504181 -52.372867 0.435526 9
-33.578094 -52.377041 0.748060 9
-36.679006 -52.375011 1.072588 9
-39.815977 -52.348417 1.418863 9
-42.966371 -52.352529 1.758309 9
-46.208259 -52.215664 2.180849 9
-52.098107 -46.492723 5.545068 9
-53.782980 -49.874719 4.143791 9
-58.626479 -46.748656 6.177417 9
-63.520062 -43.746577 8.165237 9
-71.170998 -35.657037 12.874000 8
-74.927597 -35.338232 13.481863 8
-78.639406 -35.185265 14.013747 8
-82.391769 -35.036360 14.555809 8
-86.243934 -34.790457 15.162663 8
-90.164736 -34.509962 15.801483 8
-94.128075 -34.243296 16.446595 8
-98.180751 -33.916177 17.138627 8
-102.306501 -33.561239 17.860514 8
150.590259 -30.789189 8.926731 6
147.477548 -30.801655 8.808965 6
144.364362 -30.876784 8.666942 6
141.271935 -30.937868 8.539473 6
138.205902 -30.957309 8.440425 6
135.146549 -31.009406 8.332133 6
132.103873 -31.051572 8.236074 6
129.075016 -31.092317 8.147879 6
126.064658 -31.105121 8.080876 6
123.060717 -31.144288 8.007594 6
120.072814 -31.158137 7.954065 6
116.858160 -32.552501 7.211367 5
113.208499 -36.894811 4.989785 5
109.912687 -39.558446 3.621919 5
106.920760 -40.507997 3.124908 5
104.056054 -40.682614 3.025056 5
101.226481 -40.646604 3.037875 5
98.396468 -40.662763 3.030913 5
95.569941 -40.701688 3.018967 5
92.753229 -40.691670 3.038156 5
89.944436 -40.629569 3.090061 5
87.132200 -40.655604 3.103997 5
84.325127 -40.652839 3.138898 5
81.520088 -40.658623 3.175935 5
78.717678 -40.646365 3.228521 5
75.916949 -40.607887 3.300800 5
73.116350 -40.555755 3.386453 5
70.314696 -40.586312 3.436822 5
67.512680 -40.541520 3.531754 5
64.770786 -43.744229 1.990507 9
62.045390 -45.276317 1.299330 9
59.353472 -46.888289 0.573105 9
56.688043 -48.402656 -0.098380 9
54.053534 -49.950435 -0.781561 9
51.418215 -51.082215 -1.248399 9
48.775379 -51.882893 -1.541559 9
46.111363 -52.324280 -1.646283 9
43.409790 -52.363927 -1.540447 9
40.700901 -52.383237 -1.417780 9
37.980800 -52.360780 -1.267271 9
35.261275 -52.397489 -1.140348 9
32.529228 -52.394902 -0.986711 9
29.792570 -52.415100 -0.838015 9
27.047998 -52.437551 -0.683716 9
24.286715 -52.416016 -0.500019 9
21.528946 -52.467808 -0.347061 9
18.733527 -52.378952 -0.114786 9
15.951755 -52.416540 0.059514 9
13.146506 -52.398018 0.269881 9
10.333030 -52.399323 0.477269 9
7.506834 -52.402084 0.691235 9
4.668583 -52.411311 0.909271 9
1.808868 -52.393523 1.148861 9
-1.062794 -52.388634 1.389401 9
-3.953166 -52.374246 1.642650 9
-6.848599 -52.399120 1.883265 9
-9.773864 -52.382096 2.153748 9
-12.717155 -52.366338 2.431703 9
-15.692658 -52.311779 2.738328 9
-18.673292 -52.302492 3.029587 9
-21.676574 -52.287559 3.332362 9
-24.715534 -52.234639 3.663937 9
-27.744969 -52.267436 3.958982 9
-30.814593 -52.254568 4.287202 9
-33.922515 -52.206903 4.643147 9
-37.029548 -52.223029 4.974443 9
-40.184071 -52.187686 5.342769 9
-43.379200 -52.122828 5.736736 9
-46.678247 -51.894524 6.228813 9
-50.388758 -50.863357 7.165312 9
-54.676965 -48.750864 8.700993 9
-59.813797 -45.097453 11.090965 9
-65.268891 -41.068593 13.708184 9
-72.772926 -33.378949 18.350680 8
-76.601695 -33.010443 19.017579 8
-80.496785 -32.608272 19.716629 8
-84.448704 -32.194453 20.436205 8
-88.476050 -31.740234 21.192648 8
-92.577276 -31.253863 21.981982 8
-96.748907 -30.746179 22.798750 8
-101.059193 -30.111034 23.702875 8
151.630260 -28.428476 14.152738 6
148.456210 -28.524159 13.979725 6
145.310458 -28.584190 13.833368 6
142.180322 -28.649728 13.692114 6
139.060421 -28.740094 13.545836 6
135.964163 -28.799335 13.423562 6
132.875061 -28.892321 13.291492 6
129.809366 -28.945685 13.187674 6
126.786964 -28.852680 13.167410 6
123.736342 -28.953356 13.054146 6
120.710418 -28.989889 12.981644 6
117.695538 -29.025440 12.917075 6
115.259884 -25.541651 14.683720 5
110.290962 -38.404357 7.987457 5
107.212391 -39.811428 7.235210 5
104.334510 -39.957224 7.143452 5
101.480054 -39.987673 7.118395 5
98.640910 -39.938064 7.141725 5
95.800313 -39.948041 7.141095 5
92.964195 -39.964444 7.144020 5
90.135082 -39.949141 7.170240 5
87.308906 -39.939879 7.200194 5
84.484123 -39.957678 7.222981 5
81.665201 -39.908514 7.287330 5
78.846171 -39.888735 7.343311 5
76.027423 -39.897116 7.391549 5
73.260001 -35.973878 9.487191 5
70.392220 -39.924044 7.503344 5
67.574338 -39.882312 7.598237 5
64.821133 -43.363961 5.868498 9
62.086894 -45.041041 5.082080 9
59.383531 -46.654330 4.334547 9
56.712908 -48.290936 3.580495 9
54.067088 -49.817375 2.889385 9
51.423252 -50.971598 2.397981 9
48.777150 -51.851971 2.055344 9
46.098683 -52.234492 1.978899 9
43.403645 -52.429873 2.006826 9
40.682118 -52.408648 2.154875 9
37.955637 -52.402958 2.301742 9
35.222950 -52.404175 2.451984 9
32.475411 -52.355806 2.635334 9
29.725543 -52.351325 2.802770 9
26.960534 -52.309709 2.996959 9
24.192815 -52.310463 3.176107 9
21.410929 -52.289264 3.374180 9
18.621764 -52.287050 3.569648 9
15.820126 -52.279355 3.775513 9
12.995948 -52.224746 4.013862 9
10.170525 -52.223574 4.231571 9
7.334785 -52.234314 4.450707 9
4.471941 -52.192604 4.705662 9
1.604301 -52.190884 4.947303 9
-1.268160 -52.226729 5.176926 9
-4.176892 -52.189931 5.453628 9
-7.116043 -52.110505 5.761630 9
-10.065153 -52.060792 6.062252 9
-13.024009 -52.040641 6.355619 9
-16.008896 -52.000959 6.668310 9
-19.016211 -51.956338 6.992635 9
-22.054423 -51.886039 7.340027 9
-25.128090 -51.782533 7.714840 9
-28.219938 -51.696142 8.089922 9
-31.314825 -51.665774 8.444109 9
-34.450924 -51.595226 8.830098 9
-37.606093 -51.542834 9.216183 9
-40.801142 -51.461232 9.628588 9
-44.031658 -51.364982 10.059602 9
-47.460882 -50.901328 10.704955 9
-51.267407 -49.723068 11.759508 9
-56.171856 -46.400099 14.023866 9
-66.163095 -33.073478 21.901137 9
-71.462734 -29.696894 24.257595 8
-75.424753 -29.116540 25.065982 8
-79.558338 -28.315091 26.014106 8
-83.870388 -27.299133 27.099839 8
-88.164282 -26.436231 28.116117 8
-92.863628 -24.984883 29.484997 8
150.458562 -22.675194 21.177760 6
147.161155 -23.007984 20.871406 6
143.899160 -23.295799 20.597969 6
140.709314 -23.382544 20.440729 6
137.500591 -23.617480 20.212774 6
134.318158 -23.820874 20.010129 6
131.164773 -23.971712 19.843888 6
128.006263 -24.223862 19.631862 6
124.883250 -24.382467 19.477926 6
125.286281 -5.477140 29.490635 6
119.142476 -22.031402 20.615634 5
114.625350 -30.846066 15.875889 5
110.808885 -36.357081 12.905250 5
112.176108 -5.984169 29.043709 5
104.697197 -38.609053 11.657400 5
101.826081 -38.579164 11.659935 5
98.955624 -38.593348 11.646380 5
96.096348 -38.552622 11.669386 5
93.239316 -38.532285 11.688866 5
90.385058 -38.526238 11.708052 5
87.535051 -38.510135 11.739890 5
84.687826 -38.494098 11.778988 5
81.843755 -38.456939 11.836628 5
78.996790 -38.538358 11.838397 5
76.155679 -38.504016 11.909120 5
73.314320 -38.494370 11.973989 5
70.473107 -38.435369 12.072499 5
67.630399 -38.389859 12.171166 5
64.862255 -42.444348 10.087862 9
62.113286 -44.266916 9.201789 9
59.401243 -46.097358 8.317477 9
56.714308 -47.706865 7.557221 9
54.061785 -49.371258 6.773479 9
51.418883 -50.727644 6.160564 9
48.425117 -47.527894 7.997479 9
46.071951 -51.994339 5.728890 9
43.359631 -52.132416 5.789109 9
40.629648 -52.142106 5.925533 9
37.884375 -52.079941 6.107982 9
35.138927 -52.078350 6.265244 9
32.376224 -52.011728 6.465072 9
29.610257 -51.985959 6.650434 9
26.842272 -52.004148 6.819639 9
24.052231 -51.950066 7.035655 9
21.255154 -51.918265 7.247410 9
18.429108 -51.799369 7.514383 9
15.603208 -51.746989 7.753269 9
12.766156 -51.703646 7.995335 9
9.923104 -51.692843 8.227824 9
7.053479 -51.629218 8.497443 9
4.179544 -51.608913 8.751771 9
1.281534 -51.555459 9.032773 9
-1.632597 -51.503846 9.321427 9
-4.562148 -51.458766 9.615269 9
-7.509518 -51.414011 9.917839 9
-10.481101 -51.351606 10.239217 9
-13.486094 -51.247605 10.592884 9
-16.512531 -51.144132 10.955738 9
-19.545141 -51.087196 11.302325 9
-22.614060 -50.991135 11.680442 9
-25.707329 -50.894041 12.069107 9
-28.825313 -50.797356 12.467698 9
-31.992967 -50.640541 12.910434 9
-35.177861 -50.510422 13.348845 9
-38.380269 -50.406326 13.783405 9
-41.623380 -50.274931 14.244425 9
-47.286168 -44.797953 17.753288 9
-48.515373 -49.330898 15.588681 9
-52.767440 -47.282587 17.180548 9
-58.661068 -42.022720 20.631048 9
114.353013 -14.499915 28.760304 5
108.270662 -35.135516 17.442808 5
105.242950 -35.893890 17.002666 5
102.329436 -35.894448 16.984703 5
99.417073 -35.941370 16.949258 5
96.519092 -35.909481 16.964714 5
93.622009 -35.916363 16.966791 5
90.731558 -35.896122 16.991485 5
87.844469 -35.875803 17.024006 5
84.964352 -35.780248 17.105441 5
82.080334 -35.783168 17.140814 5
79.199239 -35.761479 17.197421 5
76.319160 -35.737210 17.263221 5
73.439887 -35.676169 17.356945 5
70.579246 -28.664344 21.265581 5
67.677637 -35.562529 17.563259 5
64.893184 -40.911490 14.714160 9
62.125027 -42.958526 13.680893 9
59.395506 -44.933505 12.693410 9
56.697071 -46.742609 11.803192 9
54.034715 -48.562939 10.912934 9
51.377612 -49.966546 10.257995 9
48.705420 -50.874798 9.882168 9
46.004215 -51.314516 9.771352 9
43.270137 -51.398865 9.863830 9
40.524764 -51.420970 9.998301 9
37.765726 -51.382613 10.173943 9
34.994651 -51.314449 10.373955 9
32.214812 -51.249402 10.580218 9
29.434483 -51.243062 10.761945 9
26.631948 -51.159089 10.994857 9
23.818428 -51.077504 11.234680 9
21.001507 -51.040975 11.457717 9
18.166349 -50.971793 11.707325 9
15.317029 -50.897241 11.968432 9
12.463392 -50.865021 12.214448 9
9.581021 -50.768162 12.505355 9
6.690365 -50.701240 12.788321 9
3.768742 -50.575035 13.113586 9
0.843103 -50.499862 13.419266 9
-2.098400 -50.429878 13.731228 9
-5.070873 -50.315267 14.077785 9
-8.057702 -50.218358 14.423886 9
-11.070496 -50.102833 14.790262 9
-14.118986 -49.943344 15.191573 9
-17.171692 -49.839892 15.571079 9
-20.273087 -49.662274 16.003219 9
-23.391448 -49.507746 16.432710 9
-26.527234 -49.375259 16.860257 9
-29.681202 -49.263153 17.286924 9
-32.884187 -49.094518 17.757249 9
-36.138360 -48.871457 18.270481 9
-39.405476 -48.691479 18.770488 9
-42.723158 -48.466904 19.308355 9
-46.191610 -47.980277 20.011489 9
-64.440168 -15.514702 39.449382 9
-55.824837 -41.577790 24.646093 9
110.243689 -22.721986 28.374148 5
106.255241 -29.681097 24.437183 5
103.230020 -29.970397 24.252466 5
100.247418 -29.987309 24.229072 5
97.273763 -29.975950 24.229976 5
94.305480 -29.959344 24.242234 5
91.342570 -29.927314 24.271542 5
88.383232 -29.890140 24.312122 5
85.429527 -29.797510 24.392204 5
82.473326 -29.774859 24.441392 5
79.522494 -29.644637 24.559362 5
76.570749 -29.498144 24.694893 5
73.618249 -29.242220 24.900366 5
70.660427 -29.024239 25.093035 5
67.697110 -28.741189 25.330849 5
64.906550 -38.335722 20.018105 9
62.118150 -40.966751 18.628752 9
59.371818 -43.294014 17.416822 9
56.653337 -45.238617 16.426965 9
53.982085 -47.328377 15.361618 9
51.299952 -48.694226 14.711318 9
48.615726 -49.731569 14.253456 9
45.897225 -50.214085 14.116541 9
43.136055 -50.238543 14.246647 9
40.358044 -50.164266 14.440856 9
37.579058 -50.147873 14.610506 9
34.784930 -50.076098 14.819923 9
31.970757 -49.932033 15.078911 9
29.158577 -49.873852 15.297592 9
26.332808 -49.796494 15.535800 9
23.494611 -49.713406 15.785984 9
20.650171 -49.661314 16.027242 9
17.785339 -49.568381 16.300755 9
14.911381 -49.496895 16.570991 9
12.011380 -49.371304 16.881426 9
9.097480 -49.253757 17.196551 9
6.159220 -49.103653 17.539883 9
3.214584 -48.997674 17.867353 9
0.252679 -48.892568 18.203994 9
-2.748139 -48.713888 18.593120 9
-5.759756 -48.568976 18.972759 9
-8.802159 -48.390878 19.381938 9
-11.864036 -48.221613 19.796429 9
-14.949614 -48.049857 20.222998 9
-18.087965 -47.792682 20.710436 9
-21.251859 -47.538754 21.207200 9
-24.445033 -47.279960 21.718262 9
-27.681454 -46.982031 22.264086 9
-30.948878 -46.682726 22.822732 9
-34.251568 -46.373997 23.399223 9
-37.598389 -46.037655 24.004670 9
-41.073389 -45.480537 24.754659 9
-44.434805 -45.277569 25.306766 9
-48.285995 -44.059226 26.480772 9
-54.281994 -38.331401 30.383682 9
64.886064 -33.768222 26.596209 9
62.066382 -37.360400 24.616065 9
59.289065 -40.128673 23.118357 9
56.567165 -42.872380 21.641268 9
53.878010 -45.240136 20.388081 9
51.186868 -46.922917 19.538207 9
48.476685 -47.988074 19.053443 9
45.733861 -48.509531 18.891761 9
42.938235 -48.467989 19.065268 9
40.137264 -48.441080 19.238931 9
36.603938 -42.644176 22.782071 9
34.484942 -48.183370 19.731376 9
31.646595 -48.079246 19.976633 9
28.791103 -47.935405 20.254172 9
25.935025 -47.861086 20.500232 9
23.059309 -47.741562 20.781998 9
20.171802 -47.629055 21.069027 9
17.261282 -47.470321 21.392714 9
14.320349 -47.241148 21.767562 9
11.388742 -47.131809 22.081670 9
8.407449 -46.878390 22.490745 9
5.403794 -46.613924 22.916630 9
2.391078 -46.394142 23.326472 9
-0.642705 -46.171815 23.748339 9
-3.749333 -45.766265 24.289943 9
-6.844581 -45.488983 24.766342 9
-9.950504 -45.255778 25.227575 9
-13.091239 -44.988207 25.720647 9
-16.250974 -44.740722 26.213207 9
-19.484549 -44.352641 26.802040 9
-22.777045 -43.883167 27.452254 9
-26.075691 -43.487906 28.070391 9
-29.492773 -42.863935 28.839922 9
-32.899840 -42.366099 29.546615 9
-36.377937 -41.783311 30.318728 9
-39.941958 -41.089829 31.172692 9
-43.564992 -40.361362 32.063022 9
-47.836492 -38.258275 33.812815 9
61.868675 -28.556317 33.841679 9
59.120225 -34.729043 30.289118 9
56.395021 -38.766074 28.008347 9
53.699346 -41.913273 26.261686 9
50.995279 -44.049232 25.122252 9
48.254044 -45.227969 24.559226 9
45.468771 -45.714508 24.416210 9
42.629177 -45.631606 24.621192 9
39.774924 -45.491052 24.869828 9
36.908178 -45.329976 25.140124 9
34.036816 -45.215512 25.392052 9
31.148671 -45.059227 25.678563 9
28.248384 -44.903110 25.974670 9
25.318260 -44.646715 26.340792 9
22.372979 -44.393352 26.715168 9
19.405416 -44.108944 27.118437 9
16.420477 -43.826223 27.531077 9
13.418107 -43.548009 27.951519 9
10.364815 -43.128296 28.468244 9
7.301043 -42.761323 28.964112 9
4.220997 -42.419642 29.455797 9
1.098961 -42.003850 30.003859 9
-2.051361 -41.576896 30.570374 9
-5.257661 -41.045058 31.212812 9
-8.493129 -40.514828 31.866609 9
-11.878847 -39.592881 32.773174 9
-15.206149 -38.982908 33.501866 9
-18.609249 -38.246834 34.321510 9
-22.153732 -37.208477 35.341667 9
-25.707709 -36.275072 36.311970 9
-35.067815 -19.563464 47.084039 9
-33.869550 -31.977053 39.810032 9
53.311290 -35.120016 34.398608 9
50.613118 -38.502968 32.473583 9
47.854374 -40.315745 31.512699 9
45.017808 -40.926784 31.293357 9
42.110642 -40.787271 31.541810 9
39.176915 -40.498814 31.891352 9
36.210943 -40.060154 32.343148 9
33.231430 -39.648843 32.788722 9
30.225175 -39.174118 33.283885 9
27.207654 -38.750929 33.758232 9
24.171500 -38.330043 34.242100 9
21.080096 -37.712757 34.858161 9
17.964474 -37.098480 35.483958 9
14.768397 -36.213996 36.288659 9
11.530837 -35.286976 37.132211 9
8.162794 -33.933536 38.253202 9
4.664957 -32.221360 39.611178 9
0.778442 -29.162300 41.823025 9
-148.602239 -13.186404 -26.949324 7
-146.480371 2.221326 -29.901836 7
-142.143703 -0.434474 -29.990001 7
-138.125395 -3.316273 -29.828246 7
-134.559893 -6.553640 -29.284749 7
-131.653465 -10.348359 -28.155616 7
-130.144728 -15.383116 -25.735124 7
-145.568920 10.351489 -28.172413 7
-140.591585 8.199146 -28.841236 7
-135.807130 5.951456 -29.385111 7
-131.251911 3.569279 -29.764837 7
-126.908205 1.055105 -29.989028 7
-122.881253 -1.691916 -29.952370 7
-119.191632 -4.708035 -29.624060 7
-106.934835 -0.112487 -37.501247 8
-102.612283 -2.357931 -37.929472 8
-99.101690 -5.318181 -37.596961 8
-95.868196 -8.536833 -37.003797 8
-93.077281 -12.193949 -35.971736 8
-91.041846 -16.632316 -34.162469 8
-90.230520 -22.384059 -31.058214 8
-146.657758 16.938049 -24.744291 7
-141.150575 15.141042 -25.882748 7
-135.829931 13.276762 -26.912812 7
-130.710177 11.325272 -27.815641 7
-125.842143 9.235853 -28.537717 7
-121.135350 7.069968 -29.155563 7
-116.872960 4.580380 -29.394425 7
-105.083527 8.624277 -36.919312 8
-100.698399 6.465288 -37.439605 8
-96.530487 4.153531 -37.783410 8
-92.562425 1.691930 -37.959858 8
-88.754962 -0.894950 -38.000920 8
-85.192733 -3.699807 -37.812849 8
-81.854472 -6.718455 -37.407386 8
-78.863890 -10.092890 -36.643656 8
-76.424117 -14.060452 -35.287881 8
-75.022573 -19.182628 -32.784139 8
-59.692576 -15.761801 -41.631911 9
-51.542235 -13.164290 -46.824164 9
-46.602442 -14.065150 -48.486699 9
-43.609698 -17.211717 -47.937870 9
-41.651082 -21.650004 -46.160068 9
-41.077187 -27.915724 -42.674677 9
-144.214057 20.245796 -20.711335 7
-138.419071 18.650018 -22.150861 7
-131.995865 17.620973 -24.237587 7
-126.609577 15.892637 -25.438729 7
-121.430810 14.073771 -26.503301 7
-116.908635 11.785800 -26.993906 7
-105.161534 15.609604 -34.542260 8
-100.409537 13.754715 -35.431296 8
-95.918106 11.729745 -36.108876 8
-91.509382 9.679833 -36.744954 8
-87.268802 7.521772 -37.249136 8
-83.164304 5.275636 -37.648132 8
-79.250958 2.879642 -37.878540 8
-75.504896 0.344667 -37.957724 8
-71.891111 -2.305502 -37.916142 8
-68.493081 -5.167248 -37.656154 8
-58.809598 -1.348350 -44.394845 9
-51.540959 0.164020 -48.620506 9
-46.436079 -0.528076 -50.509528 9
-42.680136 -2.661846 -50.903701 9
-39.465322 -5.401764 -50.686915 9
-36.383629 -8.305227 -50.318398 9
-33.517047 -11.485640 -49.690857 9
-30.916530 -15.028075 -48.728724 9
-28.677362 -19.082357 -47.296401 9
-27.200974 -24.216529 -44.861061 9
-28.530827 -33.277072 -38.737688 9
-147.710162 25.142491 -15.149714 7
-141.455349 23.776737 -16.987124 7
-135.410880 22.356833 -18.707149 7
-129.651191 20.817166 -20.233411 7
-124.027698 19.259776 -21.698478 7
-118.027149 18.087924 -23.594344 7
-106.320575 21.674161 -31.152986 8
-101.275716 20.021593 -32.329600 8
-96.472669 18.232899 -33.319474 8
-91.767118 16.421240 -34.260723 8
-87.215967 14.530738 -35.091358 8
-82.774987 12.593346 -35.851866 8
-78.476971 10.572029 -36.503377 8
-74.325304 8.454836 -37.036549 8
-70.309008 6.243261 -37.457247 8
-62.746282 7.650166 -41.826500 9
-56.251676 8.158333 -45.141055 9
-49.623996 8.968506 -48.718704 9
-44.952828 7.827052 -50.161104 9
-41.162391 5.781871 -50.631359 9
-37.563051 3.549459 -50.903536 9
-34.137793 1.134077 -50.988224 9
-30.788941 -1.362444 -50.995289 9
-27.585176 -4.031558 -50.834969 9
-24.519032 -6.877855 -50.507916 9
-21.582323 -9.904915 -50.015798 9
-18.851352 -13.227735 -49.250628 9
-16.436790 -17.019002 -48.052154 9
-14.445042 -21.462315 -46.255471 9
-13.560442 -27.582255 -42.896568 9
-146.335793 27.706544 -10.117883 7
-139.512168 26.713841 -12.528872 7
-133.145153 25.506953 -14.599263 7
-127.084014 24.177772 -16.458899 7
-121.231749 22.786919 -18.192282 7
-114.832080 21.924323 -20.538778 8
-102.663478 25.863827 -28.738682 8
-97.514604 24.313924 -30.073676 8
-93.037745 22.267570 -30.779363 8
-88.192851 20.592510 -31.910347 8
-83.460377 18.883578 -32.976365 8
-78.869571 17.108211 -33.942213 8
-74.440862 15.239257 -34.780376 8
-70.118135 13.320859 -35.545897 8
-62.365455 14.826648 -40.169208 9
-55.836471 15.312875 -43.560596 9
-49.327401 15.939950 -47.043334 9
-44.590998 14.857477 -48.585045 9
-40.617659 13.027710 -49.288723 9
-36.844627 11.017063 -49.788738 9
-33.140377 8.959625 -50.234425 9
-29.584914 6.756731 -50.523806 9
-26.089244 4.502131 -50.759898 9
-22.649370 2.195330 -50.944276 9
-19.328059 -0.247863 -50.992624 9
-16.110149 -2.819591 -50.917309 9
-13.014659 -5.555886 -50.686085 9
-10.037160 -8.464307 -50.296323 9
-7.244102 -11.651198 -49.647910 9
-4.696926 -15.226344 -48.641062 9
-2.433787 -19.276200 -47.202323 9
-0.816263 -24.381200 -44.786032 9
-1.960627 -33.889238 -38.229349 9
-149.932959 26.812066 -0.368809 7
-138.693467 28.848073 -6.993507 7
-131.867034 27.931246 -9.545863 7
-125.318758 26.931155 -11.921035 7
-119.107866 25.789815 -14.051377 7
-106.477085 29.817923 -22.727809 8
-100.249700 29.034605 -25.128406 8
-94.885368 27.654378 -26.725935 8
-89.616321 26.278827 -28.290589 8
-84.565046 24.797684 -29.689590 8
-80.006792 22.954046 -30.618699 8
-75.476910 21.141349 -31.563930 8
-70.872723 19.454892 -32.638206 8
-62.552756 21.388279 -37.926914 9
-56.308390 21.523134 -41.024343 9
-50.049940 21.818250 -44.243880 9
-44.947449 21.074243 -46.221311 9
-40.817915 19.401196 -47.118239 9
-36.851419 17.602065 -47.860562 9
-32.986968 15.732546 -48.514773 9
-29.200502 13.812451 -49.105639 9
-25.507758 11.817541 -49.609400 9
-21.902627 9.747489 -50.028789 9
-18.358878 7.626886 -50.392837 9
-14.876280 5.450494 -50.698189 9
-11.492197 3.164342 -50.890971 9
-8.192087 0.777700 -50.984455 9
-5.001432 -1.753065 -50.937479 9
-1.878042 -4.381688 -50.801274 9
1.110706 -7.212969 -50.473965 9
3.971361 -10.254213 -49.954159 9
6.645110 -13.611254 -49.143706 9
9.060173 -17.420831 -47.917971 9
11.052395 -21.980424 -46.001744 9
11.961572 -28.428503 -42.325340 9
-148.822800 29.229820 5.061496 7
-139.674005 29.716934 0.343899 7
-131.687971 29.562677 -3.377396 7
-124.561394 28.934815 -6.364661 7
-117.843111 28.134524 -9.044404 7
-104.200634 32.890818 -18.934682 8
-98.305620 31.823882 -21.049331 8
-92.691993 30.630088 -22.948366 8
-87.279546 29.362593 -24.707242 8
-82.042366 28.033668 -26.346828 8
-76.921650 26.686518 -27.925361 8
-72.017006 25.225168 -29.328033 8
-64.430801 26.335756 -33.816410 9
-57.245045 27.264788 -37.991735 9
-51.412406 27.058717 -40.733201 9
-46.016980 26.543427 -43.055766 9
-41.546979 25.188740 -44.356844 9
-37.448818 23.510064 -45.261061 9
-33.445428 21.779018 -46.090294 9
-29.492244 20.038437 -46.895672 9
-25.633501 18.235009 -47.618984 9
-21.859727 16.372652 -48.267550 9
-18.131687 14.491507 -48.888050 9
-14.499225 12.527103 -49.411984 9
-10.932982 10.507899 -49.873236 9
-7.437699 8.421735 -50.261223 9
-3.980778 6.304760 -50.616645 9
-0.633495 4.056350 -50.836009 9
2.629409 1.699746 -50.947703 9
5.841960 -0.726358 -50.994902 9
8.949226 -3.309265 -50.891418 9
11.958320 -6.052010 -50.638934 9
14.852504 -8.994398 -50.202502 9
17.574285 -12.245018 -49.480622 9
20.130599 -15.818642 -48.467257 9
22.380316 -19.979898 -46.914595 9
23.996251 -25.344763 -44.246482 9
22.403827 -36.600325 -36.033700 9
-134.448816 29.086334 5.829126 7
-125.594389 29.622877 1.071893 7
-117.728737 29.611483 -2.815797 7
-102.949873 35.161455 -14.078887 8
-96.809699 34.255103 -16.493385 8
-90.945388 33.237691 -18.700171 8
-85.418236 32.043759 -20.622325 8
-79.973695 30.874095 -22.528090 8
-74.681704 29.664145 -24.336922 8
-69.630234 28.326724 -25.943389 8
-59.982860 31.335650 -32.909822 9
-52.780925 32.316777 -37.234630 9
-47.446252 31.669146 -39.487795 9
-42.833706 30.406731 -40.954666 9
-38.595189 28.835122 -42.024094 9
-34.406380 27.268220 -43.078668 9
-30.299332 25.669014 -44.076319 9
-26.287387 24.017534 -44.996333 9
-22.355101 22.324627 -45.854024 9
-18.492319 20.596416 -46.658752 9
-14.703065 18.823002 -47.401565 9
-11.001857 16.980853 -48.058753 9
-7.346069 15.115942 -48.683834 9
-3.755386 13.199136 -49.246607 9
-0.229213 11.225191 -49.743759 9
3.228420 9.182280 -50.165085 9
6.604996 7.045738 -50.487217 9
9.929953 4.848530 -50.747992 9
13.188890 2.563141 -50.921147 9
16.361141 0.149810 -50.968832 9
19.486648 -2.341292 -50.946138 9
22.512982 -5.001284 -50.763699 9
25.416768 -7.883691 -50.372996 9
28.221826 -10.968052 -49.800578 9
30.853898 -14.401127 -48.908032 9
33.260539 -18.307376 -47.583686 9
35.266349 -23.051364 -45.488646 9
35.828173 -30.685421 -40.684720 9
-120.604626 28.846309 6.649784 7
-102.529055 36.795498 -8.303446 8
-98.917444 33.825589 -8.011241 8
-89.767594 35.383549 -13.816754 8
-83.948589 34.398400 -16.096255 8
-78.270208 33.400630 -18.301823 8
-72.915168 32.223436 -20.219861 8
-63.772216 34.554624 -26.604773 9
-55.969129 35.916697 -31.613166 9
-49.455990 36.272050 -35.243696 9
-44.521145 35.254720 -37.086290 9
-40.126524 33.787839 -38.335682 9
-35.841820 32.272800 -39.500393 9
-31.580332 30.793654 -40.685053 9
-27.457659 29.225887 -41.741112 9
-23.353894 27.691933 -42.817717 9
-19.350740 26.099239 -43.806655 9
-15.432441 24.458790 -44.723867 9
-11.563456 22.806605 -45.613332 9
-7.785255 21.088651 -46.415154 9
-4.088679 19.308855 -47.136880 9
-0.406241 17.546967 -47.870076 9
3.187102 15.703277 -48.505149 9
6.737829 13.832211 -49.104817 9
10.204131 11.871369 -49.603222 9
13.614645 9.852575 -50.037824 9
16.961090 7.757194 -50.391209 9
20.263951 5.608262 -50.690377 9
23.495895 3.357353 -50.887016 9
26.650117 0.983588 -50.963000 9
29.775076 -1.445088 -50.991591 9
32.789317 -4.072266 -50.829398 9
35.723248 -6.863371 -50.516880 9
38.565934 -9.853264 -50.024107 9
41.273546 -13.141302 -49.258806 9
43.755336 -16.927778 -48.033636 9
45.679273 -21.910798 -45.686884 9
46.560272 -29.185254 -41.200568 9
-103.073044 37.700681 -1.405717 8
-96.021916 37.388361 -4.878270 8
-89.423630 36.860302 -7.961653 8
-83.138477 36.208782 -10.796709 8
-77.047577 35.519165 -13.508294 8
-71.426386 34.541311 -15.768107 8
-60.418985 38.505050 -24.486291 9
-52.494007 39.987134 -29.770831 9
-46.701016 39.679496 -32.628872 9
-42.094869 38.350504 -34.120581 9
-37.586469 36.998013 -35.549376 9
-33.226254 35.565215 -36.847105 9
-28.946961 34.112800 -38.093502 9
-24.761137 32.622592 -39.268630 9
-20.630787 31.130398 -40.418606 9
-16.572358 29.614556 -41.518904 9
-12.580289 28.076800 -42.573688 9
-8.678778 26.483869 -43.545938 9
-4.828127 24.877208 -44.486781 9
-1.066046 23.205951 -45.339289 9
2.680361 21.556309 -46.204655 9
6.337433 19.830390 -46.972811 9
9.927389 18.049882 -47.671304 9
13.468117 16.233149 -48.322955 9
16.957067 14.371550 -48.920185 9
20.383363 12.443419 -49.441597 9
23.760237 10.461381 -49.903409 9
27.086457 8.417249 -50.299125 9
30.347342 6.280573 -50.599056 9
33.563184 4.075286 -50.831371 9
36.726423 1.781191 -50.977608 9
39.803666 -0.669208 -50.971568 9
42.839336 -3.211137 -50.883714 9
45.627358 -6.236207 -50.323131 9
48.073821 -9.969762 -49.078776 9
50.187209 -14.462038 -47.120261 9
51.833333 -20.058191 -44.129954 9
53.338240 -26.178325 -40.698784 9
52.971854 -36.629825 -33.181049 9
-97.431518 37.559300 3.073226 8
-89.841825 37.737032 -1.158115 8
-83.063001 37.421396 -4.589290 8
-76.683436 36.915091 -7.668493 8
-66.788407 39.607836 -15.041314 9
-57.457949 42.094570 -21.960427 9
-49.879624 43.257084 -26.949287 9
-44.513135 42.547584 -29.350943 9
-39.863832 41.254489 -30.934832 9
-35.256779 39.995971 -32.526886 9
-30.834585 38.626031 -33.941084 9
-26.476510 37.258205 -35.327290 9
-22.242523 35.825088 -36.602802 9
-18.082096 34.373756 -37.829979 9
-13.998763 32.895692 -39.000530 9
-9.947057 31.438425 -40.174371 9
-5.971558 29.947775 -41.287043 9
-2.077889 28.411367 -42.326296 9
1.771623 26.869998 -43.342822 9
5.539047 25.271870 -44.277618 9
9.261313 23.658642 -45.181610 9
12.904567 21.980704 -45.999683 9
16.495316 20.267371 -46.767966 9
20.037350 18.518947 -47.488762 9
23.533101 16.733973 -48.162345 9
26.963255 14.878033 -48.752835 9
30.350097 12.977882 -49.292172 9
33.688786 11.020111 -49.767888 9
36.980757 9.000327 -50.177605 9
40.223659 6.907404 -50.511936 9
43.391730 4.688065 -50.717771 9
46.327614 2.044940 -50.490989 9
49.007084 -1.107675 -49.756042 9
51.422348 -4.833357 -48.462776 9
53.569259 -9.195017 -46.563675 9
55.506877 -14.132600 -44.135973 9
57.153524 -19.874006 -40.969198 9
47.772397 -49.978548 -13.967862 9
-103.402404 34.196596 16.428391 8
-101.758826 29.409298 19.163679 8
-84.309269 37.562595 3.273893 8
-77.044107 37.712402 -0.879160 8
-65.094071 42.100286 -10.862188 9
-55.002777 45.226430 -18.858261 9
-47.857055 45.981590 -23.420320 9
-42.697794 45.064686 -25.612697 9
-37.893671 43.905516 -27.428475 9
-33.203804 42.718180 -29.164121 9
-28.698898 41.424681 -30.721038 9
-24.222645 40.175346 -32.300191 9
-19.918770 38.816560 -33.705023 9
-15.673024 37.461290 -35.084744 9
-11.517900 36.069945 -36.391204 9
-7.436763 34.655639 -37.643569 9
-3.438667 33.202695 -38.824894 9
0.504531 31.739328 -39.972188 9
4.386393 30.253793 -41.072952 9
8.196964 28.728712 -42.108483 9
11.967284 27.199195 -43.122612 9
15.661536 25.613660 -44.056395 9
19.313982 24.012776 -44.959659 9
22.914062 22.377725 -45.812317 9
26.460192 20.700954 -46.607807 9
29.954608 18.980060 -47.345595 9
33.380885 17.183400 -47.992724 9
36.787987 15.381125 -48.629402 9
40.135472 13.503814 -49.180838 9
43.428510 11.551679 -49.650167 9
46.470403 9.169922 -49.661076 9
49.291233 6.371663 -49.240758 9
51.870662 3.078697 -48.319721 9
54.296560 -0.586844 -47.039330 9
56.609865 -4.579050 -45.457418 9
58.801451 -8.947964 -43.531921 9
60.925307 -13.615038 -41.352409 9
62.989061 -18.591974 -38.914912 9
64.102712 -25.936442 -34.184469 9
-89.987491 34.102087 16.639042 8
-79.334272 36.907503 8.387941 8
-64.788946 43.396178 -4.942499 9
-53.077793 47.884981 -15.110926 9
-46.341709 48.244279 -19.245888 9
-41.117703 47.363142 -21.561566 9
-36.214694 46.277252 -23.539833 9
-31.408043 45.186531 -25.463639 9
-26.751966 44.031439 -27.255868 9
-22.204079 42.846597 -28.967452 9
-17.799157 41.588584 -30.544892 9
-13.434938 40.359616 -32.125594 9
-9.237406 39.016887 -33.527142 9
-5.117429 37.650516 -34.870100 9
-1.036674 36.300801 -36.207462 9
2.930673 34.875620 -37.425656 9
6.843211 33.439025 -38.607620 9
10.732028 32.027194 -39.799011 9
14.499182 30.509888 -40.843351 9
18.257770 29.029198 -41.914891 9
21.962994 27.523056 -42.940135 9
25.600572 25.966178 -43.891448 9
29.190643 24.381485 -44.798019 9
32.717648 22.740499 -45.629050 9
36.221176 21.098024 -46.449381 9
39.641481 19.355325 -47.148927 9
43.034612 17.594414 -47.822868 9
46.211248 15.487233 -48.110963 9
49.164527 12.987620 -47.974240 9
51.896813 10.061617 -47.388461 9
54.482135 6.806987 -46.471476 9
56.985693 3.318367 -45.333558 9
59.452608 -0.336380 -44.052851 9
61.815950 -4.311772 -42.473028 9
64.317558 -8.121387 -41.105134 9
66.553751 -12.641311 -39.048087 9
65.809497 -24.177555 -29.929939 9
66.743385 -32.409388 -24.309054 9
-76.979925 33.967352 16.868222 8
-52.117089 49.693502 -10.120179 9
-45.244184 50.132099 -14.501421 9
-42.669854 46.749541 -13.351249 9
-34.797400 48.401025 -19.283353 9
-29.867612 47.405477 -21.405356 9
-25.087300 46.353848 -23.399214 9
-20.450542 45.243193 -25.266016 9
-15.886947 44.139275 -27.098840 9
-11.460928 42.968242 -28.801629 9
-7.185894 41.705603 -30.347184 9
-2.964151 40.452720 -31.872662 9
1.161770 39.156565 -33.311296 9
5.234131 37.861598 -34.722867 9
9.198614 36.496719 -36.019498 9
13.080181 35.084992 -37.233995 9
16.897679 33.644403 -38.391566 9
20.693955 32.227940 -39.559023 9
24.431606 30.782613 -40.672714 9
28.101435 29.289953 -41.712726 9
31.742494 27.801055 -42.742144 9
35.316885 26.255931 -43.691594 9
38.859710 24.702224 -44.619114 9
42.343321 23.092061 -45.470909 9
45.655283 21.230438 -46.028059 9
48.714709 18.952742 -46.114244 9
51.584477 16.329601 -45.822136 9
54.271628 13.339880 -45.139673 9
56.946060 10.268502 -44.390110 9
59.549046 6.992954 -43.443204 9
62.131982 3.596625 -42.394626 9
64.561313 -0.210646 -40.939247 9
66.171207 -5.906619 -37.531647 5
69.066726 -8.990267 -36.926237 5
71.804295 -12.513920 -35.889186 5
74.241926 -16.866518 -34.034161 5
75.347324 -24.709049 -28.680536 5
-52.214817 50.581086 -3.686308 9
-44.670870 51.554139 -9.010366 9
-39.084582 50.924651 -11.870581 9
-33.724137 50.201362 -14.522825 9
-28.569157 49.390761 -16.984495 9
-23.665936 48.433773 -19.180148 9
-18.872432 47.459984 -21.299436 9
-14.214724 46.435741 -23.299539 9
-9.697558 45.347267 -25.166478 9
-5.274880 44.236606 -26.961734 9
-0.968869 43.072395 -28.646709 9
3.211038 41.835156 -30.200049 9
7.339983 40.606506 -31.732542 9
11.349128 39.297660 -33.131400 9
15.324549 38.009135 -34.529163 9
19.235293 36.698587 -35.873162 9
23.025133 35.284474 -37.064092 9
26.760588 33.847918 -38.207127 9
30.520239 32.497447 -39.436624 9
34.152875 31.013590 -40.485481 9
37.787445 29.578690 -41.577584 9
41.343119 28.067382 -42.563753 9
44.785917 26.414940 -43.371719 9
48.003136 24.417305 -43.770296 9
50.976645 22.008587 -43.696085 9
53.788238 19.293660 -43.282618 9
56.538183 16.426323 -42.713593 9
59.258384 13.451813 -42.044559 9
62.059338 10.576018 -41.506777 9
64.851197 7.626874 -40.908582 9
66.625257 2.481186 -37.946588 5
69.766043 0.084055 -38.007550 5
72.858546 -2.447402 -37.935703 5
75.869268 -5.207030 -37.636160 5
78.802418 -8.211053 -37.098774 5
81.606602 -11.616989 -36.167319 5
84.208137 -15.664359 -34.607037 5
86.270359 -21.343472 -31.427213 5
-44.847814 52.313804 -2.421364 9
-38.767142 52.071428 -5.978150 9
-33.120251 51.563257 -9.051920 9
-27.728504 50.934610 -11.872113 9
-22.548247 50.213181 -14.488331 9
-17.587342 49.377560 -16.878098 9
-12.791424 48.470514 -19.110015 9
-8.154975 47.487219 -21.183489 9
-3.641563 46.457431 -23.145383 9
0.785483 45.415078 -25.046125 9
5.101421 44.325752 -26.842191 9
9.302199 43.176555 -28.520486 9
13.365490 41.930664 -30.037029 9
17.417508 40.738454 -31.592985 9
21.337740 39.441800 -32.984342 9
25.248647 38.194956 -34.413093 9
29.050860 36.859922 -35.704819 9
32.757732 35.444988 -36.874578 9
36.456421 34.069602 -38.073995 9
40.117433 32.689453 -39.248559 9
43.695394 31.229725 -40.309026 9
47.040165 29.436007 -40.954619 9
50.174530 27.312574 -41.203105 9
53.139997 24.897941 -41.111820 9
56.050023 22.365393 -40.892662 9
58.825328 19.556189 -40.367063 9
61.699597 16.887765 -40.020532 9
64.500452 14.034363 -39.480523 9
67.391801 11.310714 -39.105351 9
69.676799 7.259596 -37.275373 5
72.920809 5.160137 -37.633570 5
76.110476 2.931701 -37.855727 5
79.260536 0.593008 -37.966328 5
82.360234 -1.896055 -37.926148 5
85.402019 -4.573315 -37.699854 5
88.376974 -7.485689 -37.243918 5
91.248519 -10.762978 -36.430312 5
93.964099 -14.601660 -35.067044 5
96.330800 -19.649509 -32.508564 5
-46.438346 51.827114 6.247692 9
-39.350632 52.403263 1.278567 9
-33.119307 52.365868 -2.637087 9
-27.306782 52.079711 -6.081594 9
-21.901673 51.527954 -9.048003 9
-16.659379 50.932850 -11.877166 9
-11.623038 50.239408 -14.495688 9
-6.836397 49.386302 -16.824511 9
-2.146825 48.525145 -19.087127 9
2.323011 47.509762 -21.083517 9
6.756147 46.538446 -23.095475 9
11.032159 45.464612 -24.924079 9
15.249618 44.398403 -26.723871 9
19.341340 43.250274 -28.377389 9
23.339568 42.051930 -29.931564 9
27.269290 40.829442 -31.424014 9
31.135713 39.584593 -32.859514 9
34.928312 38.296902 -34.214274 9
38.685754 37.016884 -35.554995 9
42.342303 35.641348 -36.753814 9
45.931169 34.210958 -37.865764 9
49.287541 32.448848 -38.555246 9
52.433635 30.358154 -38.839101 9
55.361515 27.891317 -38.672763 9
58.259452 25.347904 -38.425710 9
61.114677 22.695869 -38.063168 9
63.987867 20.039889 -37.710973 9
66.825913 17.273833 -37.246982 9
69.148751 13.400956 -35.536005 5
72.497723 11.577152 -36.186119 5
75.798605 9.662226 -36.731824 5
79.076943 7.702387 -37.227872 5
82.291099 5.592053 -37.559963 5
85.483417 3.416180 -37.825786 5
88.644632 1.141753 -37.992038 5
91.750542 -1.309097 -37.978647 5
94.809502 -3.936563 -37.790884 5
97.802452 -6.819487 -37.351224 5
100.731386 -9.986421 -36.637388 5
103.546093 -13.635019 -35.453459 5
105.955372 -18.795958 -32.758639 5
106.862752 -29.491687 -24.517007 5
-41.757229 51.086657 11.300924 9
-34.189556 52.175375 5.458914 9
-27.741418 52.407271 1.073853 9
-21.758739 52.350552 -2.764142 9
-11.924921 56.392052 -12.604197 4
-6.710970 55.954861 -15.621153 4
-2.755848 54.279907 -16.765217 4
0.871171 52.291917 -17.430452 4
3.662110 49.378785 -16.764387 9
8.240401 48.551170 -19.041136 9
12.604730 47.562288 -21.042658 9
16.902594 46.577644 -23.006021 9
21.077125 45.520396 -24.828682 9
25.186913 44.457608 -26.605922 9
27.526163 41.059840 -25.241986 9
33.098240 42.137809 -29.798468 9
36.966726 40.958380 -31.323446 9
40.738390 39.702033 -32.721234 9
44.437516 38.395640 -34.030531 9
48.001331 36.931830 -35.118995 9
51.283063 35.052451 -35.671187 9
54.342499 32.815690 -35.775682 9
57.269208 30.340918 -35.592549 9
60.241680 27.924922 -35.490807 9
63.160487 25.387680 -35.252425 9
66.062327 22.786575 -34.950195 9
68.272438 18.769270 -32.993578 5
71.721808 17.170114 -33.904041 5
75.108921 15.469764 -34.689252 5
78.481270 13.759915 -35.458197 5
81.773762 11.887503 -36.038262 5
85.069470 10.030009 -36.634587 5
88.330855 8.094034 -37.143284 5
91.539152 6.019618 -37.501174 5
94.727060 3.875668 -37.788205 5
97.878142 1.605575 -37.945584 5
101.008044 -0.762960 -38.007105 5
104.085339 -3.340754 -37.858177 5
106.941690 -6.697285 -36.905377 5
109.403875 -11.527432 -34.445909 5
111.299952 -18.657359 -29.666736 5
112.384108 -29.352724 -21.334018 5
-39.231468 48.284033 19.638433 9
-29.796708 51.189449 10.828219 9
-10.515300 64.201596 -13.346804 4
-1.768814 67.370075 -21.930361 1
-1.828855 61.623512 -16.882248 4
1.631738 59.495512 -17.332612 4
4.453392 56.681930 -16.761050 4
7.003218 53.540944 -15.724141 4
9.445137 50.236357 -14.473789 9
13.979616 49.421312 -16.787070 9
18.407648 48.572756 -19.001148 9
22.641754 47.570670 -20.953183 9
26.847803 46.616385 -22.929038 9
30.918983 45.564550 -24.730933 9
34.950873 44.536530 -26.528244 9
38.857227 43.405821 -28.153322 9
42.676537 42.216598 -29.670282 9
46.394195 40.937356 -31.041954 9
49.867877 39.329909 -31.966107 9
53.070882 37.315623 -32.356521 9
56.109678 35.032641 -32.404467 9
59.093361 32.643636 -32.324302 9
62.096870 30.272400 -32.273745 9
65.075456 27.836068 -32.150849 9
67.100554 23.528810 -29.765061 9
70.634612 22.088221 -30.880958 5
74.120273 20.591757 -31.916813 5
77.548520 19.011090 -32.841972 5
80.962039 17.429459 -33.757328 5
84.328290 15.768787 -34.573264 5
87.657375 14.041640 -35.307461 5
90.959633 12.263576 -35.980363 5
94.214590 10.372638 -36.524444 5
97.461711 8.459686 -37.045061 5
100.682082 6.466192 -37.478718 5
103.857439 4.325237 -37.755079 5
106.878981 1.677152 -37.488952 5
109.602158 -2.021816 -36.111409 5
111.964526 -7.140766 -33.260276 5
114.107838 -13.388317 -29.283709 5
115.994789 -21.081165 -23.881953 5
-15.641104 71.193381 -9.072534 1
-9.767739 71.228383 -13.106941 1
-4.378102 70.942356 -16.526096 1
1.219276 71.003599 -20.396380 1
4.966367 69.280401 -21.416858 1
8.424260 67.292138 -22.004499 1
7.589188 60.570039 -15.451207 4
9.914865 57.207900 -14.044450 4
12.018110 53.533283 -12.208183 4
15.034325 50.894067 -11.916465 9
19.614113 50.196152 -14.419313 9
24.069653 49.445468 -16.790763 9
28.389794 48.617563 -19.001439 9
32.499502 47.598291 -20.898567 9
36.615950 46.671016 -22.882464 9
40.589214 45.622927 -24.661468 9
44.505275 44.567217 -26.394959 9
48.162689 43.188372 -27.664740 9
45.817457 32.295761 -16.373776 9
54.730177 39.365486 -28.747461 9
57.770023 37.065579 -28.777208 9
60.829096 34.788940 -28.841085 9
62.690246 30.324536 -26.141321 9
66.907345 30.127057 -28.845911 9
69.282995 26.478923 -27.224139 5
72.775130 24.968756 -28.266708 5
76.323924 23.616958 -29.489128 5
79.854214 22.275577 -30.708475 5
83.319993 20.839259 -31.799624 5
86.723301 19.298690 -32.755688 5
90.083602 17.685912 -33.618456 5
93.425277 16.051157 -34.449255 5
96.729132 14.338539 -35.185276 5
99.999137 12.546433 -35.827786 5
103.254035 10.715753 -36.425976 5
106.410708 8.589356 -36.694401 5
109.291360 5.564102 -35.975280 5
111.883263 1.464876 -34.104241 5
114.328354 -3.379217 -31.470936 5
116.751466 -8.627878 -28.463281 5
119.740938 -12.080777 -27.439703 6
122.286185 -17.534196 -24.334248 6
-26.174893 73.574313 3.253641 1
-21.658796 72.048291 1.486992 1
-16.508418 71.187060 -1.326787 1
-6.698204 74.899370 -11.553358 1
-1.671352 74.274695 -14.495336 1
1.455911 71.839588 -14.464109 1
6.309839 71.215872 -17.285582 1
11.387701 70.946790 -20.585637 1
13.617099 67.656115 -19.148432 1
12.423823 60.412542 -11.725975 4
14.261302 56.441424 -9.395575 4
15.983374 52.241296 -6.775958 9
20.580372 51.521301 -9.328577 9
25.189457 50.924747 -12.001625 9
29.607969 50.189664 -14.415335 9
33.931174 49.428093 -16.738134 9
38.147347 48.616296 -18.940245 9
42.171299 47.621172 -20.841123 9
46.142973 46.630539 -22.709317 9
49.760305 45.173433 -23.905516 9
53.111088 43.340500 -24.573454 9
56.231255 41.150815 -24.755548 9
59.329652 38.922716 -24.887187 9
