ply
format ascii 1.0
element vertex 1353
property float x
property float y
property float z
property int scalar_Label
end_header
-18.524514 138.597634 -60.383282 3
-22.958349 139.154999 -60.133535 3
-27.344757 139.192389 -60.021452 3
-31.735273 139.173773 -59.923767 3
-36.141085 139.177585 -59.819584 3
-40.563418 139.201805 -59.709404 3
-9.004119 129.715473 -57.879553 3
-13.474980 131.669575 -57.233680 3
-17.998838 133.666649 -56.573993 3
-22.576353 135.693691 -55.904038 3
-27.181881 137.543958 -55.281267 3
-31.729250 138.647051 -54.864597 3
-36.213919 139.115555 -54.623189 3
-8.468843 123.881530 -54.474312 3
-12.889823 125.802963 -53.810641 3
-17.363187 127.767365 -53.132133 3
-21.888679 129.754331 -52.444627 3
-26.463988 131.734030 -51.756718 3
-31.092345 133.723549 -51.063399 3
-35.781837 135.766842 -50.351832 3
-7.947889 118.203291 -51.130620 3
-12.318982 120.079250 -50.453694 3
-16.736229 121.950819 -49.775214 3
-21.207253 123.873272 -49.078433 3
-25.731440 125.823110 -48.370359 3
-30.310305 127.798122 -47.651581 3
-34.940053 129.762007 -46.933017 3
-3.581716 115.906662 -46.944892 3
-7.438750 112.653673 -47.851107 3
-11.758672 114.461498 -47.169032 3
-16.128586 116.310695 -46.470618 3
-20.546241 118.165178 -45.767110 3
-25.015314 120.044073 -45.052422 3
-29.535509 121.933272 -44.330911 3
-34.113062 123.864631 -43.592455 3
-2.779418 106.276036 -45.057979 3
-6.935682 107.170763 -44.651049 3
-11.209117 108.951737 -43.951937 3
-15.527382 110.732931 -43.248923 3
-19.895014 112.543508 -42.532410 3
-24.310886 114.361182 -41.809587 3
-28.782100 116.226978 -41.066946 3
-33.306891 118.113329 -40.313394 3
-2.265950 100.136545 -42.193211 3
-6.445693 101.829982 -41.502331 3
-10.669579 103.542665 -40.800742 3
-14.940131 105.283715 -40.085261 3
-19.261406 107.071443 -39.349579 3
-23.628583 108.852033 -38.611831 3
-28.038432 110.597906 -37.881310 3
-1.827397 94.901793 -39.127212 3
-5.964072 96.580548 -38.417334 3
-10.144551 98.277710 -37.696332 3
-14.365222 99.948569 -36.979806 3
-18.635684 101.669884 -36.240718 3
-22.955182 103.417413 -35.487458 3
-27.317195 105.133694 -34.740147 3
-1.467477 90.617283 -35.809613 3
-5.516506 91.698912 -35.292149 3
-9.624881 93.067983 -34.665486 3
-13.803099 94.731173 -33.926826 3
-18.020310 96.358547 -33.195896 3
-22.291152 98.060581 -32.432377 3
-26.606029 99.748237 -31.668570 3
2.658427 88.316105 -31.940873 3
-1.292603 88.571554 -31.720699 3
-5.271935 89.003221 -31.429705 3
-9.288973 89.641727 -31.056150 3
-13.342572 90.413369 -30.627495 3
-17.460735 91.503979 -30.073514 3
-21.646462 92.855523 -29.415655 3
-25.909403 94.472145 -28.651956 3
2.715317 87.772555 -27.288013 3
-1.238781 87.991124 -27.074803 3
-5.198733 88.152038 -26.878912 3
-9.160988 88.230525 -26.709984 3
-13.156059 88.510619 -26.457531 3
-17.184752 88.941690 -26.140995 3
-21.249721 89.502267 -25.768506 3
-25.367862 90.275097 -25.307537 3
6.655508 88.086107 -22.391393 3
2.769580 87.266745 -22.592144 3
-1.182923 87.386441 -22.411611 3
-4.468102 80.227005 -25.146457 1
-9.125597 87.715334 -21.998067 3
-13.120937 87.939581 -21.758839 3
-17.126133 88.132085 -21.526655 3
-21.136982 88.262871 -21.313573 3
-25.170156 88.454503 -21.070182 3
42.997430 12.964101 -49.287375 9
39.816060 12.450439 -49.438742 9
36.648247 12.012734 -49.554590 9
33.490117 11.563768 -49.670743 9
30.341405 11.179495 -49.755967 9
27.200067 10.804405 -49.833069 9
24.065221 10.437780 -49.902339 9
20.938372 10.002612 -49.995510 9
17.818300 9.565311 -50.085244 9
14.704504 9.125136 -50.171845 9
11.595192 8.702727 -50.246783 9
8.489420 8.295180 -50.311231 9
5.388820 7.869830 -50.378683 9
2.291135 7.450404 -50.439315 9
-0.803547 7.028432 -50.496619 9
-3.887182 6.528595 -50.581837 9
-6.980913 6.135832 -50.618219 9
-10.067666 5.693947 -50.670564 9
-13.160327 5.298098 -50.699295 9
-16.240538 4.817151 -50.758980 9
-19.320259 4.335492 -50.814500 9
-22.406547 3.889654 -50.850564 9
-25.497583 3.460532 -50.875078 9
-28.589360 3.022034 -50.898908 9
-31.680910 2.567922 -50.924650 9
-34.778787 2.127393 -50.940027 9
-37.871860 1.647452 -50.967262 9
-40.981041 1.217321 -50.968802 9
-44.148153 0.993676 -50.878423 9
-47.727865 2.295126 -50.138628 9
-53.086680 9.916418 -46.717609 9
52.291026 7.924686 -47.568880 9
48.831135 2.647675 -49.758898 9
45.639946 0.374368 -50.674052 9
42.558167 -0.463375 -50.977214 9
39.517475 -0.604846 -50.980940 9
36.480191 -0.788080 -50.997729 9
33.448262 -0.895734 -50.977830 9
30.418712 -1.042908 -50.970037 9
27.392620 -1.274157 -50.993292 9
24.368237 -1.404703 -50.969134 9
21.347140 -1.607000 -50.970802 9
18.328251 -1.814911 -50.970201 9
15.311913 -2.043265 -50.973639 9
12.291768 -2.188437 -50.936956 9
9.274112 -2.381789 -50.916080 9
6.260553 -2.631849 -50.914682 9
3.244788 -2.858184 -50.898434 9
0.234051 -3.143696 -50.902743 9
-2.782250 -3.384344 -50.883114 9
-5.795603 -3.664745 -50.875726 9
-8.816111 -3.905194 -50.846407 9
-11.834767 -4.180495 -50.827199 9
-14.865222 -4.399982 -50.779130 9
-17.880385 -4.740662 -50.778282 9
-20.910459 -5.013813 -50.743459 9
-23.935711 -5.339274 -50.726233 9
-26.972251 -5.630653 -50.689313 9
-30.015524 -5.917998 -50.645598 9
-33.059827 -6.230739 -50.607786 9
-36.109518 -6.549273 -50.567364 9
-39.165254 -6.872819 -50.523952 9
-42.229151 -7.195003 -50.474728 9
-45.425367 -7.048000 -50.215692 9
-48.950827 -5.774633 -49.458856 9
-53.210097 -2.094605 -47.641756 9
-58.627721 5.145452 -44.253597 9
58.693341 7.510320 -43.842601 9
55.002147 0.973418 -46.662624 9
51.619869 -3.264470 -48.476074 9
48.425690 -5.971264 -49.617450 9
45.359690 -7.365689 -50.181744 9
42.361327 -7.900021 -50.365931 9
39.388881 -8.027035 -50.367402 9
36.421484 -8.103760 -50.341984 9
33.456007 -8.219550 -50.328716 9
30.493108 -8.325321 -50.306143 9
27.531900 -8.421819 -50.274573 9
24.573347 -8.600257 -50.273950 9
21.616049 -8.750254 -50.255940 9
18.658134 -8.861996 -50.216201 9
15.700163 -8.980994 -50.174659 9
12.745323 -9.164758 -50.156569 9
9.789713 -9.339241 -50.129419 9
6.835950 -9.546797 -50.111817 9
3.873896 -9.673555 -50.053616 9
0.915057 -9.860969 -50.017061 9
-2.046385 -10.046470 -49.974584 9
-5.008435 -10.251364 -49.935563 9
-7.969460 -10.487657 -49.905304 9
-10.941333 -10.671094 -49.846507 9
-13.906352 -10.929665 -49.815795 9
-16.882121 -11.147170 -49.761670 9
-19.864896 -11.355558 -49.698222 9
-22.847961 -11.595396 -49.643439 9
-25.834976 -11.846372 -49.588277 9
-28.820724 -12.134665 -49.544387 9
-31.825832 -12.364172 -49.468848 9
-34.840719 -12.587369 -49.384969 9
-37.850115 -12.870834 -49.322516 9
-40.868831 -13.150936 -49.252988 9
-43.917438 -13.352831 -49.142671 9
-47.187328 -12.793769 -48.683898 9
-50.804501 -11.125527 -47.717799 9
-54.957293 -7.844082 -46.013917 9
-59.464575 -3.715522 -43.914893 9
-71.365108 23.125936 -31.503270 8
-74.936812 22.966594 -31.305612 8
-74.747467 11.798473 -36.111584 8
-77.663437 10.036655 -36.639965 8
-80.694688 8.634330 -36.999756 8
-83.802357 7.453961 -37.252916 8
-86.939652 6.353873 -37.463781 8
-90.133095 5.391176 -37.605792 8
-93.339674 4.448338 -37.732639 8
-96.574966 3.558400 -37.828917 8
-99.852420 2.745815 -37.883048 8
-103.131818 1.913209 -37.939882 8
-107.000947 2.329282 -37.409012 8
61.274588 0.400105 -43.046647 9
57.799461 -3.722458 -44.877169 9
54.471767 -7.177907 -46.403148 9
51.255128 -10.165346 -47.714100 9
48.171524 -12.094164 -48.544470 9
45.172852 -13.235332 -49.015837 9
42.231785 -13.638067 -49.150057 9
39.311905 -13.700863 -49.126165 9
36.394955 -13.750247 -49.091021 9
33.478856 -13.882518 -49.088002 9
30.565744 -13.944999 -49.048329 9
27.653830 -14.038703 -49.017506 9
24.743296 -14.152775 -48.990647 9
21.834265 -14.289355 -48.968723 9
18.924198 -14.383011 -48.922165 9
16.014984 -14.508161 -48.884575 9
13.105051 -14.632688 -48.841425 9
10.194403 -14.764963 -48.796486 9
7.286158 -14.946876 -48.768735 9
4.369399 -15.050526 -48.700159 9
1.456305 -15.223055 -48.657473 9
-1.456785 -15.418465 -48.619819 9
-4.374733 -15.596676 -48.568952 9
-7.299975 -15.748077 -48.500432 9
-10.225807 -15.928631 -48.439709 9
-13.154701 -16.120458 -48.378623 9
-16.092859 -16.287927 -48.300851 9
-19.025725 -16.520768 -48.247394 9
-21.970814 -16.718202 -48.172109 9
-24.921203 -16.923837 -48.094904 9
-27.871639 -17.164422 -48.028035 9
-30.846618 -17.326859 -47.919444 9
-33.801772 -17.616273 -47.863491 9
-36.775519 -17.860028 -47.780657 9
-39.765805 -18.074735 -47.678461 9
-42.764269 -18.298128 -47.574251 9
-45.885035 -18.118311 -47.276829 9
-49.250821 -17.157696 -46.609623 9
-53.001984 -15.037113 -45.394023 9
-57.038580 -12.209342 -43.838141 9
-61.749300 -7.543562 -41.411313 9
-67.289199 -0.768004 -37.980993 8
-70.479422 -1.333852 -37.975581 8
-73.689490 -1.871056 -37.950134 8
-76.910921 -2.407530 -37.917631 8
-80.148076 -2.933951 -37.873573 8
-83.397374 -3.462464 -37.823576 8
-86.653910 -4.007112 -37.774202 8
-89.927958 -4.543796 -37.713939 8
-93.203973 -5.111593 -37.661264 8
-96.512458 -5.640536 -37.582748 8
-99.841020 -6.163216 -37.493738 8
-103.182816 -6.696881 -37.402355 8
-106.887471 -6.509772 -36.956374 8
-122.958214 18.849559 -24.355534 7
-122.342464 9.642926 -28.401616 7
-125.150744 7.464751 -29.052133 7
-128.256200 5.882038 -29.408490 7
-131.478004 4.516529 -29.652714 7
-134.794601 3.312353 -29.811130 7
-138.169779 2.192806 -29.920562 7
-141.611817 1.164503 -29.977239 7
-145.128533 0.232494 -29.978092 7
-148.652907 -0.721510 -29.981108 7
106.308888 2.856539 -37.574573 5
102.889144 2.214647 -37.939451 5
99.687602 2.382814 -37.922190 5
96.490599 2.525371 -37.910529 5
93.302667 2.663071 -37.894880 5
90.117951 2.769511 -37.887504 5
86.936626 2.843936 -37.888773 5
83.765179 2.920473 -37.882917 5
80.600952 2.987820 -37.875195 5
77.442236 3.037595 -37.869513 5
74.294741 3.109085 -37.847719 5
71.141871 3.091277 -37.861194 5
67.997751 3.078395 -37.866367 5
64.015973 -4.206908 -41.230115 9
60.619989 -7.461133 -42.723357 9
57.329186 -10.388295 -44.059837 9
54.121382 -13.119455 -45.300338 9
50.998182 -15.539983 -46.391917 9
47.983289 -17.113905 -47.086438 9
45.038857 -18.040804 -47.476133 9
42.142564 -18.354003 -47.576220 9
39.261711 -18.451246 -47.570790 9
36.385921 -18.470970 -47.523926 9
33.510379 -18.570260 -47.508458 9
30.637132 -18.632959 -47.470510 9
27.764836 -18.698860 -47.428528 9
24.893581 -18.796442 -47.395740 9
22.022769 -18.891989 -47.356478 9
19.152508 -19.003747 -47.319215 9
16.281949 -19.116389 -47.276810 9
13.410475 -19.228749 -47.228701 9
10.536718 -19.329920 -47.169775 9
7.664535 -19.477915 -47.127078 9
4.785271 -19.570059 -47.052659 9
1.908980 -19.726095 -47.002423 9
-0.972070 -19.865664 -46.938798 9
-3.852614 -20.039908 -46.885697 9
-6.734072 -20.234553 -46.836434 9
-9.632335 -20.340310 -46.739661 9
-12.527545 -20.505969 -46.665170 9
-15.425126 -20.691265 -46.594052 9
-18.321057 -20.918672 -46.536890 9
-21.230023 -21.106463 -46.455124 9
-24.154164 -21.253454 -46.348066 9
-27.076744 -21.448465 -46.257627 9
-30.000173 -21.676414 -46.176693 9
-32.940646 -21.865727 -46.071281 9
-35.893680 -22.042736 -45.953763 9
-38.843300 -22.274447 -45.855960 9
-41.801920 -22.509802 -45.753561 9
-44.827337 -22.541933 -45.547617 9
-48.056041 -21.922995 -45.023100 9
-51.560451 -20.487175 -44.098677 9
-55.414902 -18.087636 -42.701442 9
-59.882695 -14.012719 -40.485850 9
-64.994834 -8.346770 -37.487530 9
-68.373368 -8.145481 -37.112232 8
-71.558882 -8.561110 -37.027419 8
-74.767455 -8.950890 -36.922809 8
-77.996027 -9.327423 -36.804343 8
-81.195517 -9.819177 -36.734502 8
-84.460730 -10.183491 -36.594961 8
-87.719187 -10.607593 -36.476876 8
-90.988287 -11.047890 -36.358922 8
-94.276729 -11.485348 -36.231651 8
-97.612026 -11.861540 -36.066082 8
-100.921647 -12.339174 -35.942336 8
-104.275961 -12.765192 -35.784727 8
-108.286506 -11.900412 -34.976501 8
-114.990293 -5.803866 -31.546417 8
-120.083030 -3.199000 -29.835511 7
-123.553612 -3.854344 -29.741967 7
-127.039672 -4.521690 -29.645473 7
-130.535153 -5.213048 -29.551964 7
-134.079190 -5.860082 -29.426771 7
-137.660561 -6.487116 -29.281841 7
-141.269533 -7.113867 -29.126911 7
-144.892918 -7.763973 -28.973848 7
-148.567604 -8.379017 -28.792578 7
107.980041 -4.396846 -36.832217 5
104.434277 -5.707821 -37.540211 5
101.267634 -5.656347 -37.590086 5
98.138826 -5.500229 -37.583372 5
95.009948 -5.390171 -37.592096 5
91.881262 -5.328750 -37.617504 5
88.771738 -5.226614 -37.617009 5
85.660378 -5.182955 -37.637951 5
82.559321 -5.137333 -37.651542 5
79.467472 -5.091889 -37.658837 5
76.382666 -5.056096 -37.664383 5
73.303379 -5.037885 -37.671983 5
70.233716 -5.006890 -37.667199 5
67.164522 -5.026729 -37.680354 5
63.782105 -7.790703 -38.994146 9
60.228367 -12.775659 -41.359679 9
56.989563 -15.627646 -42.703578 9
53.864363 -17.908879 -43.769950 9
50.805664 -19.999201 -44.739820 9
47.840553 -21.372492 -45.362518 9
44.939612 -22.144432 -45.693037 9
42.079992 -22.392128 -45.767952 9
39.232270 -22.493044 -45.767109 9
36.389151 -22.541782 -45.735585 9
33.548125 -22.563944 -45.685567 9
30.707616 -22.683806 -45.676402 9
27.868596 -22.732802 -45.627576 9
25.030395 -22.819646 -45.591020 9
22.193211 -22.930222 -45.559994 9
19.355637 -23.025351 -45.515742 9
16.516851 -23.109602 -45.460417 9
13.678493 -23.224489 -45.413900 9
10.836926 -23.314009 -45.349314 9
7.994636 -23.424965 -45.289091 9
5.151698 -23.557055 -45.233080 9
2.303587 -23.665721 -45.159829 9
-0.551196 -23.749454 -45.068541 9
-3.398797 -23.930311 -45.018019 9
-6.255276 -24.071207 -44.942170 9
-9.115408 -24.220689 -44.864360 9
-11.979768 -24.377156 -44.783781 9
-14.851745 -24.522630 -44.691684 9
-17.728176 -24.680254 -44.599226 9
-20.602908 -24.883734 -44.522753 9
-23.496770 -25.024575 -44.409504 9
-26.387557 -25.220726 -44.316767 9
-29.274948 -25.468349 -44.242720 9
-32.194113 -25.611840 -44.111356 9
-35.116926 -25.783321 -43.987046 9
-38.047601 -25.965228 -43.861168 9
-40.968737 -26.224175 -43.766386 9
-43.944679 -26.321268 -43.585267 9
-47.068698 -25.954620 -43.168487 9
-50.417821 -24.922398 -42.415010 9
-54.120444 -22.887965 -41.156261 9
-58.268078 -19.677738 -39.303080 9
-62.810861 -15.566345 -36.988084 9
-66.830178 -13.304406 -35.577260 8
-69.989307 -13.657021 -35.457587 8
-73.167936 -13.996764 -35.323763 8
-76.356852 -14.351151 -35.189412 8
-79.589854 -14.635039 -35.011703 8
-82.795043 -15.034223 -34.883777 8
-86.023036 -15.419539 -34.740740 8
-89.293892 -15.747547 -34.560433 8
-92.547418 -16.161284 -34.415021 8
-95.865110 -16.476478 -34.211006 8
-99.166036 -16.876405 -34.041255 8
-102.498760 -17.255204 -33.851842 8
-105.988806 -17.361696 -33.513774 8
-110.794242 -14.927507 -31.859803 8
-117.368942 -9.271240 -28.527087 7
-120.842249 -9.798247 -28.362834 7
-124.362280 -10.285122 -28.168011 7
-127.889810 -10.807074 -27.981342 7
-131.444152 -11.329937 -27.784957 7
-135.043041 -11.825459 -27.563847 7
-138.667761 -12.328858 -27.336136 7
-142.313110 -12.850212 -27.106933 7
-146.001880 -13.354164 -26.857380 7
-149.728389 -13.852895 -26.593580 7
149.364737 -2.126527 -29.932822 6
146.018081 -1.752270 -29.932809 6
142.668265 -1.430095 -29.950704 6
139.324064 -1.139032 -29.976102 6
136.014709 -0.798573 -29.969138 6
132.687976 -0.551111 -30.000485 6
129.396138 -0.248692 -29.996899 6
126.114548 0.041356 -29.991812 6
122.837878 0.303278 -29.993061 6
119.582895 0.591892 -29.973638 6
116.885091 2.749695 -29.025447 6
110.490337 -8.171923 -34.513541 5
106.547814 -10.953142 -35.979874 5
103.297040 -11.354613 -36.266679 5
100.197340 -11.240965 -36.292964 5
97.102138 -11.157913 -36.327366 5
94.020995 -11.064331 -36.349715 5
90.955079 -10.949911 -36.355009 5
87.885810 -10.899383 -36.384881 5
84.827532 -10.845505 -36.406355 5
81.773645 -10.820332 -36.435194 5
78.736049 -10.755767 -36.438040 5
75.698614 -10.740550 -36.458436 5
72.672776 -10.704426 -36.461970 5
69.652516 -10.681323 -36.465302 5
66.639390 -10.657401 -36.461673 5
63.277591 -13.655796 -37.932415 9
60.054223 -16.012042 -39.082086 9
56.757838 -19.701856 -40.879031 9
53.660249 -22.039426 -42.007328 9
50.654925 -23.862370 -42.877491 9
47.727530 -25.130470 -43.469800 9
44.862953 -25.787696 -43.756684 9
42.032162 -26.043995 -43.840948 9
39.216182 -26.073128 -43.807698 9
36.401823 -26.116314 -43.775242 9
33.588932 -26.175819 -43.744696 9
30.777514 -26.219741 -43.700387 9
27.966998 -26.303216 -43.669403 9
25.156496 -26.344931 -43.611758 9
22.347479 -26.457269 -43.582728 9
19.537094 -26.528323 -43.527230 9
16.728059 -26.648267 -43.489661 9
13.915569 -26.722887 -43.423567 9
11.106592 -26.876905 -43.390457 9
8.288565 -26.934422 -43.303466 9
5.473076 -27.059019 -43.243359 9
2.651288 -27.150439 -43.160550 9
-0.170366 -27.279289 -43.089948 9
-2.995099 -27.414954 -43.016382 9
-5.832385 -27.490280 -42.906460 9
-8.657540 -27.691269 -42.852537 9
-11.505770 -27.771791 -42.732230 9
-14.350059 -27.919573 -42.638858 9
-17.195669 -28.096382 -42.553408 9
-20.052030 -28.250703 -42.450126 9
-22.914121 -28.414334 -42.344823 9
-25.790149 -28.549962 -42.218749 9
-28.663949 -28.737315 -42.111802 9
-31.546415 -28.925137 -41.998252 9
-34.445106 -29.085090 -41.863754 9
-37.344276 -29.285017 -41.742386 9
-40.259578 -29.463719 -41.603240 9
-43.180356 -29.664558 -41.468124 9
-46.233303 -29.449304 -41.114736 9
-49.647505 -28.105455 -40.179729 9
-53.314839 -26.106186 -38.900555 9
-57.082075 -23.998278 -37.553919 9
-61.155165 -21.182159 -35.832673 9
-65.589968 -17.571947 -33.690211 8
-68.730525 -17.868429 -33.536747 8
-71.886168 -18.167029 -33.376172 8
-75.066139 -18.445546 -33.196912 8
-78.234169 -18.799945 -33.048367 8
-81.454382 -19.067802 -32.846519 8
-84.665786 -19.404474 -32.671589 8
-87.913991 -19.700346 -32.466614 8
-91.155541 -20.058958 -32.285327 8
-94.441637 -20.364893 -32.067407 8
-97.732611 -20.709161 -31.860231 8
-101.057423 -21.030607 -31.631598 8
-103.800990 -22.578422 -32.040530 8
-107.959122 -21.323067 -30.959557 8
-114.584039 -15.453930 -27.414144 8
-118.884225 -14.304043 -26.351451 7
-122.394379 -14.726056 -26.112731 7
-125.893169 -15.219230 -25.901380 7
-129.493629 -15.583601 -25.610031 7
-133.084239 -16.020147 -25.346165 7
-136.703410 -16.462192 -25.073827 7
-140.354269 -16.906445 -24.790997 7
-143.767288 -17.782802 -24.731736 7
-146.515357 -19.727122 -25.246187 7
147.299786 -8.363020 -28.813196 6
143.967209 -8.109419 -28.881489 6
140.653468 -7.857151 -28.942003 6
137.346900 -7.635180 -29.009638 6
134.063043 -7.401107 -29.062809 6
130.787069 -7.193615 -29.121352 6
127.530878 -6.977811 -29.167553 6
124.276141 -6.806340 -29.228290 6
121.064709 -6.548827 -29.237338 6
117.829305 -6.414185 -29.300956 6
116.797693 1.194774 -25.565565 6
109.093886 -14.350559 -33.563559 5
105.571748 -15.779319 -34.392570 5
102.448841 -15.850981 -34.526262 5
99.385304 -15.749551 -34.564978 5
96.321479 -15.699436 -34.622376 5
93.279768 -15.605936 -34.650628 5
90.251859 -15.497848 -34.664364 5
87.214152 -15.485121 -34.719136 5
84.200960 -15.402875 -34.731744 5
81.188293 -15.366559 -34.760499 5
78.187987 -15.312081 -34.773103 5
75.198349 -15.242289 -34.771035 5
72.205847 -15.239761 -34.795952 5
69.224128 -15.217590 -34.804073 5
66.249343 -15.195874 -34.805556 5
62.985552 -17.674689 -36.060180 9
59.759999 -20.345821 -37.404910 9
56.596671 -23.016999 -38.743077 9
53.550610 -25.041779 -39.749099 9
50.545550 -27.146957 -40.789376 9
47.666936 -28.050189 -41.217591 9
44.808073 -28.996576 -41.661326 9
42.001179 -29.272573 -41.760735 9
39.209837 -29.314739 -41.735825 9
36.420988 -29.344956 -41.698476 9
33.633539 -29.375357 -41.654806 9
30.846863 -29.441057 -41.622547 9
28.061384 -29.526844 -41.594026 9
25.275454 -29.542573 -41.523649 9
22.490804 -29.640406 -41.488355 9
19.705358 -29.718027 -41.436382 9
16.919167 -29.800180 -41.380229 9
14.129474 -29.848714 -41.300526 9
11.338921 -29.923155 -41.227422 9
8.547663 -30.022311 -41.160314 9
5.752488 -30.109352 -41.080471 9
2.949956 -30.160378 -40.975670 9
0.142788 -30.214305 -40.865647 9
-2.664739 -30.309282 -40.769824 9
-5.477110 -30.406905 -40.668605 9
-8.296821 -30.493581 -40.554996 9
-11.117082 -30.618551 -40.454129 9
-13.947409 -30.721392 -40.335051 9
-16.785893 -30.820199 -40.206942 9
-19.631551 -30.924096 -40.074422 9
-22.485695 -31.028817 -39.935235 9
-25.341449 -31.169717 -39.807537 9
-28.207810 -31.303899 -39.669189 9
-31.085791 -31.430747 -39.519780 9
-33.966682 -31.589502 -39.379532 9
-36.876365 -31.677516 -39.195187 9
-39.776517 -31.849606 -39.046926 9
-42.704280 -31.964719 -38.861443 9
-45.673387 -31.984565 -38.618503 9
-49.039933 -30.740535 -37.706966 9
-52.476942 -29.419541 -36.744346 9
-56.162691 -27.483338 -35.447724 9
-59.925588 -25.509760 -34.118652 9
-63.709615 -23.667333 -32.845474 9
-67.281609 -22.595483 -31.965976 8
-70.381727 -22.923705 -31.815757 8
-73.557788 -23.094736 -31.573546 8
-76.721834 -23.347542 -31.365689 8
-79.914857 -23.576409 -31.135991 8
-83.118044 -23.830379 -30.910408 8
-86.330218 -24.112162 -30.690329 8
-89.562031 -24.397568 -30.462705 8
-92.840596 -24.629052 -30.196381 8
-96.109969 -24.932178 -29.958753 8
-99.441907 -25.154632 -29.667451 8
-102.775727 -25.427301 -29.393001 8
-106.496781 -24.990413 -28.721471 8
-112.491236 -20.282923 -25.702990 8
-116.922324 -18.800196 -24.424443 7
-119.745648 -20.392250 -24.819324 7
-123.250275 -20.765125 -24.534507 7
-126.800074 -21.112571 -24.224023 7
-130.372096 -21.477472 -23.911287 7
-134.001498 -21.802533 -23.564187 7
-137.623674 -22.197306 -23.243484 7
-141.319319 -22.531599 -22.876203 7
-145.022749 -22.913311 -22.522464 7
-148.763840 -23.296386 -22.156187 7
149.188642 -13.248614 -26.896540 6
145.865864 -13.026759 -26.999594 6
142.548735 -12.842905 -27.113661 6
139.262863 -12.632040 -27.204566 6
135.976998 -12.472513 -27.313665 6
132.738707 -12.235980 -27.373595 6
129.508028 -12.025945 -27.438881 6
126.263297 -11.906421 -27.543105 6
123.060776 -11.713129 -27.600256 6
119.866402 -11.542955 -27.661192 6
116.887510 -10.717026 -27.371475 6
112.767749 -13.769436 -29.097556 5
108.163445 -18.841852 -31.865638 5
104.841352 -19.672726 -32.412273 5
101.767621 -19.680591 -32.522087 5
98.734055 -19.587210 -32.571498 5
95.703207 -19.532701 -32.633509 5
92.693895 -19.436794 -32.666448 5
89.693058 -19.350447 -32.696863 5
86.689231 -19.327815 -32.752904 5
83.710424 -19.231963 -32.763545 5
80.729784 -19.192740 -32.796207 5
77.759079 -19.148841 -32.819125 5
74.797997 -19.097263 -32.830783 5
71.844846 -19.043361 -32.833996 5
68.890982 -19.043767 -32.858131 5
65.941404 -19.068530 -32.887694 5
62.648105 -22.048631 -34.440773 9
59.550559 -23.863351 -35.383080 9
56.479056 -25.863782 -36.414598 9
53.493528 -27.420039 -37.209236 9
50.857663 -24.879460 -35.874785 9
47.635053 -30.511498 -38.767645 9
44.790918 -31.492187 -39.244278 9
42.007501 -31.629996 -39.277462 9
39.232103 -31.673303 -39.254939 9
36.460495 -31.650732 -39.191509 9
33.688090 -31.713444 -39.165579 9
30.917200 -31.784830 -39.137419 9
28.146991 -31.798860 -39.072724 9
25.377040 -31.859212 -39.025324 9
22.605998 -31.889249 -38.955383 9
19.835638 -31.971386 -38.905745 9
17.063530 -32.036034 -38.840198 9
14.286273 -32.045948 -38.739279 9
11.513260 -32.164082 -38.687905 9
8.732930 -32.215275 -38.594723 9
5.952897 -32.310424 -38.517564 9
3.164539 -32.358413 -38.408786 9
0.376588 -32.453816 -38.317799 9
-2.414967 -32.557085 -38.223902 9
-5.217212 -32.618519 -38.100975 9
-8.013133 -32.767370 -38.016808 9
-10.826665 -32.837478 -37.884088 9
-13.640447 -32.950735 -37.766815 9
-16.470212 -33.014915 -37.616363 9
-19.292325 -33.166025 -37.504405 9
-22.127879 -33.288078 -37.369704 9
-24.975207 -33.396414 -37.220248 9
-28.581033 -30.149476 -35.282757 9
-30.679244 -33.701385 -36.945417 9
-33.541345 -33.873365 -36.806898 9
-36.406545 -34.073617 -36.675723 9
-39.287222 -34.254866 -36.526621 9
-42.178374 -34.439771 -36.371572 9
-45.129612 -34.459537 -36.119974 9
-48.218748 -34.077646 -35.644131 9
-51.554646 -32.993556 -34.780828 9
-55.091747 -31.425120 -33.645075 9
-58.746508 -29.673781 -32.397917 9
-62.490246 -27.843698 -31.094829 9
-66.518634 -25.403128 -29.446452 8
-69.638083 -25.620417 -29.228892 8
-72.783427 -25.817873 -28.991224 8
-75.917862 -26.092334 -28.786171 8
-79.097822 -26.300944 -28.535569 8
-82.297541 -26.512796 -28.276953 8
-85.535802 -26.686399 -27.987297 8
-88.764850 -26.934244 -27.728400 8
-92.053917 -27.101297 -27.414510 8
-95.313004 -27.387290 -27.156024 8
-98.639359 -27.583919 -26.837229 8
-103.286177 -25.177534 -25.052680 8
-105.465462 -27.800347 -26.067238 8
-110.529454 -24.842664 -23.940717 8
-116.971688 -19.529779 -20.462641 7
-118.617211 -23.269491 -22.075265 7
-122.077479 -23.678513 -21.797352 7
-125.641441 -23.958888 -21.434152 7
-129.220622 -24.271478 -21.076600 7
-132.830438 -24.590799 -20.709971 7
-136.472580 -24.915887 -20.333443 7
-140.156526 -25.233648 -19.939164 7
-143.869541 -25.566480 -19.539748 7
-147.613610 -25.912687 -19.133960 7
148.085576 -17.006944 -24.670868 6
144.773182 -16.839082 -24.813598 6
141.490126 -16.652854 -24.936849 6
138.225703 -16.471723 -25.053502 6
134.981763 -16.288884 -25.159994 6
131.743636 -16.141979 -25.276772 6
128.528769 -15.982748 -25.377856 6
125.325177 -15.842559 -25.480277 6
122.153022 -15.659772 -25.550945 6
118.976667 -15.539190 -25.646356 6
116.810382 -12.178384 -23.993566 6
112.430636 -16.114920 -26.249427 5
107.691435 -21.693979 -29.372970 5
104.279015 -22.929979 -30.157667 5
101.256453 -22.840331 -30.223889 5
98.239654 -22.778446 -30.296917 5
95.229162 -22.742994 -30.376079 5
92.225801 -22.731153 -30.459911 5
89.246251 -22.666504 -30.507675 5
86.279502 -22.590729 -30.541709 5
83.310607 -22.575160 -30.600099 5
80.363073 -22.499316 -30.618655 5
77.411387 -22.495283 -30.667817 5
74.480867 -22.417693 -30.670181 5
71.547607 -22.404212 -30.699109 5
68.623236 -22.382588 -30.716154 5
65.710227 -22.327012 -30.707614 5
62.398724 -25.654235 -32.491756 9
59.338205 -27.385052 -33.418790 9
56.324081 -29.075745 -34.317139 9
53.346759 -30.813465 -35.233340 9
50.433474 -32.254292 -35.984510 9
47.584447 -33.241869 -36.487493 9
44.784500 -33.778276 -36.743368 9
42.017652 -33.886277 -36.764150 9
39.257979 -33.907506 -36.731668 9
36.498681 -33.988374 -36.723904 9
33.742607 -34.013608 -36.679433 9
30.987211 -34.068146 -36.643516 9
28.232669 -34.127769 -36.603242 9
25.477652 -34.142658 -36.531998 9
22.724857 -34.272788 -36.515201 9
19.970931 -34.356169 -36.466340 9
17.216510 -34.446028 -36.413821 9
14.460630 -34.532393 -36.352290 9
11.704033 -34.635050 -36.292316 9
8.945220 -34.736390 -36.224445 9
6.184285 -34.843972 -36.152700 9
3.423470 -34.982981 -36.090587 9
0.652009 -35.055633 -35.985510 9
-2.116421 -35.192763 -35.907774 9
-4.892686 -35.303526 -35.808464 9
-7.669993 -35.443974 -35.717737 9
-10.453665 -35.578002 -35.616081 9
-13.249642 -35.675172 -35.486951 9
-16.040743 -35.841282 -35.387539 9
-18.835075 -36.025102 -35.290129 9
-21.646306 -36.158935 -35.157902 9
-24.466555 -36.290579 -35.016682 9
-27.297383 -36.416219 -34.864303 9
-30.129827 -36.577640 -34.723479 9
-32.967322 -36.758651 -34.585364 9
-35.814106 -36.942769 -34.440891 9
-38.677299 -37.105560 -34.276561 9
-41.554326 -37.261253 -34.100036 9
-44.439477 -37.432662 -33.923757 9
-47.485760 -37.114922 -33.468937 9
-50.712715 -36.302128 -32.730545 9
-54.196457 -34.816322 -31.608033 9
-57.802438 -33.128892 -30.360634 9
-61.489727 -31.380687 -29.065711 9
-66.030066 -27.445086 -26.535904 8
-69.013639 -27.992088 -26.493228 8
-72.158651 -28.146884 -26.221793 8
-75.319506 -28.313683 -25.947049 8
-78.493576 -28.500017 -25.673116 8
-81.668574 -28.735463 -25.416608 8
-84.870802 -28.957413 -25.142093 8
-88.109663 -29.148072 -24.839208 8
-91.359706 -29.367524 -24.541831 8
-94.627164 -29.602378 -24.242241 8
-97.943279 -29.789140 -23.903916 8
-101.273212 -30.003615 -23.569948 8
-104.697360 -30.088598 -23.149619 8
-109.163094 -28.250184 -21.604567 8
-115.119560 -23.799460 -18.524016 8
-117.677244 -25.797726 -19.166813 7
-121.188351 -26.082463 -18.802716 7
-124.745716 -26.343971 -18.411958 7
-128.310897 -26.650919 -18.034480 7
-131.935619 -26.917191 -17.619422 7
-135.572933 -27.223370 -17.213936 7
-139.255806 -27.517182 -16.786858 7
-142.985321 -27.800082 -16.338615 7
-146.775462 -28.054113 -15.857996 7
150.599474 -20.200121 -21.933697 6
147.275934 -20.060551 -22.114036 6
143.997118 -19.869903 -22.255691 6
140.724578 -19.716743 -22.408311 6
137.470305 -19.571478 -22.555474 6
134.250561 -19.389471 -22.672492 6
131.014448 -19.303661 -22.833361 6
127.829787 -19.129957 -22.935958 6
124.642028 -19.015954 -23.062294 6
121.479754 -18.879160 -23.166751 6
118.328617 -18.759442 -23.271502 6
115.527408 -17.556315 -22.769455 5
111.357421 -20.936498 -24.785826 5
107.376410 -23.985168 -26.607098 5
104.015046 -25.083593 -27.343628 5
100.993407 -25.041737 -27.443714 5
97.984184 -25.005345 -27.538331 5
94.998834 -24.924525 -27.600166 5
92.022726 -24.853621 -27.659150 5
89.051125 -24.812735 -27.726355 5
86.090299 -24.773119 -27.786065 5
83.136611 -24.750143 -27.846755 5
80.201989 -24.678747 -27.872854 5
77.261400 -24.689802 -27.936052 5
74.338635 -24.650193 -27.963536 5
71.420911 -24.628745 -27.993010 5
68.512118 -24.597727 -28.009345 5
65.604537 -24.608981 -28.040915 5
62.171122 -29.056065 -30.488979 9
59.151132 -30.653121 -31.371364 9
56.167611 -32.282886 -32.263937 9
53.587699 -29.776969 -30.888773 9
50.346128 -35.192149 -33.835213 9
47.521807 -36.135130 -34.330215 9
44.743463 -36.670305 -34.595020 9
41.998365 -36.778150 -34.618870 9
39.260227 -36.806517 -34.591894 9
36.523194 -36.869850 -34.576680 9
33.788383 -36.926445 -34.550416 9
31.055162 -36.925573 -34.485306 9
28.322270 -37.012100 -34.460680 9
25.590163 -37.089904 -34.423897 9
22.857447 -37.139820 -34.364419 9
20.123770 -37.189465 -34.297357 9
17.389881 -37.265077 -34.237105 9
14.654185 -37.336088 -34.166857 9
11.917011 -37.417041 -34.094580 9
9.178856 -37.516946 -34.025218 9
6.436377 -37.599478 -33.938737 9
3.688129 -37.661621 -33.833404 9
0.941225 -37.776181 -33.749358 9
-1.812750 -37.867182 -33.644628 9
-4.564534 -38.012505 -33.562236 9
-7.334981 -38.062323 -33.419185 9
-10.090529 -38.252610 -33.346186 9
-12.860941 -38.383449 -33.232376 9
-15.643788 -38.482526 -33.092967 9
-18.427040 -38.621582 -32.967794 9
-21.216465 -38.768560 -32.838987 9
-24.009726 -38.936133 -32.713572 9
-26.813887 -39.092520 -32.573729 9
-29.625307 -39.257514 -32.430442 9
-32.452159 -39.399397 -32.265827 9
-35.280053 -39.579599 -32.114289 9
-38.123820 -39.740647 -31.943444 9
-40.970853 -39.932245 -31.781201 9
-43.843980 -40.074964 -31.582598 9
-46.837630 -39.865513 -31.175368 9
-50.010950 -39.157364 -30.474884 9
-53.408214 -37.870956 -29.433861 9
-56.993339 -36.175916 -28.146706 9
-60.629569 -34.507179 -26.860309 9
-64.311844 -32.879561 -25.582903 9
-68.504638 -30.051390 -23.600715 8
-71.629335 -30.225093 -23.329253 8
-74.784781 -30.372196 -23.031967 8
-77.957597 -30.529832 -22.730058 8
-81.140939 -30.715436 -22.433502 8
-84.351013 -30.891573 -22.120439 8
-87.568449 -31.104403 -21.817563 8
-90.843648 -31.243687 -21.460306 8
-94.109058 -31.460119 -21.136549 8
-97.419825 -31.636409 -20.777386 8
-100.747354 -31.835054 -20.419279 8
-104.138777 -31.964595 -20.007902 8
-108.304272 -30.682776 -18.744641 8
-114.535715 -25.703430 -15.257307 8
-118.509614 -25.117340 -14.365086 7
-120.476489 -28.169443 -15.640689 7
-124.027967 -28.418437 -15.224918 7
-127.636206 -28.631091 -14.773046 7
-131.243372 -28.907148 -14.345046 7
-134.932371 -29.111566 -13.858705 7
-138.669508 -29.304336 -13.349854 7
-142.403520 -29.567139 -12.868187 7
-146.213168 -29.779742 -12.339672 7
149.710834 -23.367078 -19.470730 6
146.448321 -23.145016 -19.616001 6
144.336744 -20.209107 -18.193684 6
139.947253 -22.798540 -19.931238 6
136.728274 -22.625532 -20.073533 6
133.525398 -22.462517 -20.211424 6
130.343010 -22.296166 -20.337422 6
127.179642 -22.127861 -20.452450 6
124.034576 -21.957047 -20.556322 6
121.832754 -18.999848 -19.067718 6
117.749062 -21.753305 -20.813582 6
114.730736 -21.330818 -20.746220 5
110.478672 -25.078105 -23.030689 5
106.737176 -27.402686 -24.496841 5
103.559886 -27.927871 -24.934558 5
100.574984 -27.827360 -25.009502 5
97.586203 -27.791477 -25.112113 5
94.633361 -27.661320 -25.152812 5
91.675183 -27.599478 -25.223375 5
88.725452 -27.550338 -25.292485 5
85.792016 -27.474960 -25.338284 5
82.864430 -27.418587 -25.386299 5
79.946073 -27.362901 -25.426274 5
77.031533 -27.335252 -25.473624 5
74.128111 -27.292846 -25.504346 5
71.663610 -24.437177 -23.947325 5
68.742559 -24.408610 -23.969675 5
65.561375 -26.408868 -25.122250 5
62.006875 -31.913380 -28.232449 9
59.011015 -33.475016 -29.121774 9
56.062561 -34.952412 -29.955784 9
53.140663 -36.542721 -30.845251 9
50.275765 -37.893023 -31.592325 9
47.473299 -38.798109 -32.081961 9
44.725231 -39.136462 -32.245951 9
41.990243 -39.401058 -32.360908 9
39.270480 -39.447287 -32.345624 9
36.552256 -39.526085 -32.340954 9
33.881967 -36.307988 -30.475894 9
31.123274 -39.487818 -32.198486 9
28.408241 -39.505917 -32.136596 9
25.693163 -39.548857 -32.080954 9
22.978819 -39.635517 -32.042195 9
20.263596 -39.703781 -31.985344 9
17.546823 -39.763198 -31.915739 9
14.826524 -39.795192 -31.822860 9
12.109867 -39.919976 -31.774536 9
9.388621 -40.008280 -31.697786 9
6.659661 -40.045239 -31.584105 9
3.933364 -40.152195 -31.502098 9
1.202107 -40.247956 -31.405800 9
-1.528091 -40.387970 -31.326617 9
-4.269207 -40.478121 -31.211096 9
-7.011832 -40.597333 -31.103987 9
-9.759851 -40.718776 -30.990005 9
-12.508001 -40.876665 -30.888609 9
-15.270007 -40.991477 -30.754388 9
-18.036365 -41.123566 -30.621694 9
-20.805001 -41.283408 -30.496493 9
-23.595426 -41.378125 -30.325484 9
-26.387716 -41.508992 -30.166609 9
-29.183282 -41.667609 -30.015040 9
-31.989854 -41.821523 -29.852047 9
-34.807935 -41.971944 -29.678217 9
-37.619939 -42.187015 -29.532874 9
-40.466650 -42.316189 -29.328817 9
-43.327758 -42.441326 -29.113208 9
-46.286974 -42.290047 -28.727314 9
-49.399558 -41.720259 -28.087083 9
-52.776687 -40.439905 -27.019987 9
-56.290821 -38.901608 -25.788275 9
-59.893478 -37.272722 -24.488886 9
-63.565622 -35.617944 -23.159167 9
-68.109634 -31.804765 -20.540041 8
-71.231415 -31.961851 -20.247651 8
-74.365202 -32.140397 -19.957003 8
-77.546663 -32.254068 -19.616662 8
-80.722622 -32.436048 -19.305538 8
-83.930203 -32.597676 -18.970735 8
-87.166214 -32.749923 -18.618514 8
-90.431071 -32.894826 -18.249823 8
-93.706160 -33.074325 -17.889683 8
-97.016166 -33.237265 -17.507081 8
-100.357504 -33.394253 -17.108108 8
-103.765475 -33.479300 -16.652278 8
-107.753341 -32.527601 -15.549486 8
-114.077978 -27.373420 -11.852602 8
-117.002033 -28.668342 -12.085873 7
-120.030347 -29.787031 -12.200678 7
-123.592533 -30.006306 -11.747720 7
-127.223260 -30.171196 -11.246035 7
-130.860015 -30.390088 -10.762527 7
-134.543770 -30.596100 -10.255300 7
-138.287790 -30.771725 -9.712858 7
-142.123646 -30.873205 -9.106926 7
-145.970429 -31.028701 -8.517762 7
-149.814113 -31.257620 -7.957691 7
149.061876 -25.980821 -16.724961 6
145.793158 -25.817502 -16.916458 6
142.542857 -25.664821 -17.103179 6
139.333714 -25.465361 -17.251466 6
136.119392 -25.330179 -17.426865 6
132.928143 -25.188982 -17.588112 6
129.745718 -25.077354 -17.756213 6
126.581736 -24.968930 -17.915813 6
123.449706 -24.822512 -18.042973 6
120.333795 -24.678992 -18.161765 6
117.236078 -24.529748 -18.267278 6
114.051285 -24.710351 -18.554943 5
109.798965 -28.533199 -20.949975 5
106.234142 -30.331657 -22.154897 5
103.134627 -30.653657 -22.491594 5
100.167022 -30.563656 -22.579752 5
97.206103 -30.497170 -22.672353 5
94.262635 -30.410172 -22.743968 5
91.322290 -30.358648 -22.827078 5
88.400295 -30.275725 -22.883065 5
85.483384 -30.216643 -22.943937 5
82.578886 -30.145031 -22.988737 5
79.680441 -30.089210 -23.033875 5
76.788385 -30.046552 -23.077876 5
73.893738 -30.070235 -23.151434 5
71.017922 -30.031214 -23.180197 5
68.147465 -30.004859 -23.207660 5
64.874668 -33.070500 -25.007358 9
61.866067 -34.564013 -25.892636 9
58.896977 -36.047276 -26.763421 9
55.966380 -37.520216 -27.619840 9
53.072403 -38.992537 -28.467648 9
50.229981 -40.265090 -29.192338 9
47.448106 -41.100420 -29.657293 9
44.707077 -41.586700 -29.913303 9
41.996229 -41.699146 -29.946041 9
39.291974 -41.747715 -29.933982 9
36.591504 -41.740230 -29.881608 9
33.891129 -41.771136 -29.843339 9
31.191583 -41.823054 -29.809167 9
28.492750 -41.864187 -29.760748 9
25.794213 -41.921509 -29.713635 9
23.095812 -41.990752 -29.665360 9
20.395064 -42.013366 -29.582061 9
17.696297 -42.116788 -29.537397 9
14.991718 -42.139400 -29.437853 9
12.291073 -42.261579 -29.387822 9
9.583749 -42.322306 -29.294014 9
6.872518 -42.378747 -29.189486 9
4.161398 -42.476398 -29.100625 9
1.448694 -42.593834 -29.014992 9
-1.270071 -42.694899 -28.911515 9
-3.993804 -42.795765 -28.799537 9
-6.723846 -42.891358 -28.676037 9
-9.456216 -43.011641 -28.558454 9
-12.200156 -43.100792 -28.414101 9
-14.943020 -43.237946 -28.289218 9
-17.705496 -43.309949 -28.117422 9
-20.468771 -43.423421 -27.961145 9
-23.223390 -43.619054 -27.844373 9
-26.003417 -43.735971 -27.672362 9
-28.788213 -43.875477 -27.504641 9
-31.576919 -44.040597 -27.342967 9
-34.386128 -44.166404 -27.148823 9
-37.194686 -44.338616 -26.972887 9
-40.014775 -44.510764 -26.787545 9
-42.866321 -44.617275 -26.553569 9
-45.807443 -44.477362 -26.162550 9
-48.880316 -43.987416 -25.551358 9
-52.174676 -42.914217 -24.578453 9
-55.693515 -41.312491 -23.274158 9
-59.267375 -39.720137 -21.960275 9
-62.909659 -38.102803 -20.615693 9
-67.813710 -33.294447 -17.321607 8
-70.930158 -33.449496 -17.016153 8
-74.057132 -33.629894 -16.714652 8
-77.227072 -33.757011 -16.369013 8
-80.436893 -33.844951 -15.987396 8
-83.661336 -33.956934 -15.608194 8
-86.900376 -34.093209 -15.231450 8
-90.139733 -34.284768 -14.876191 8
-93.440315 -34.401475 -14.461857 8
-96.708168 -34.643381 -14.112074 8
-100.059907 -34.770884 -13.677944 8
-103.462295 -34.859356 -13.205638 8
-107.446672 -33.910365 -12.068078 8
-113.800211 -28.712598 -8.236206 8
-117.051677 -29.411032 -8.091705 7
-119.746614 -31.120912 -8.575759 7
-123.330024 -31.299528 -8.076820 7
-127.008572 -31.381698 -7.500471 7
-130.685887 -31.533695 -6.952251 7
-134.429529 -31.645462 -6.361411 7
-138.192961 -31.794607 -5.777385 7
-142.056980 -31.858120 -5.120175 7
-145.943035 -31.961064 -4.470139 7
148.564612 -28.246363 -13.794132 6
145.313608 -28.076046 -13.994224 6
142.076075 -27.927706 -14.196099 6
138.864881 -27.769439 -14.380582 6
135.661012 -27.646084 -14.574925 6
132.455427 -27.582201 -14.793982 6
129.293632 -27.458549 -14.966024 6
126.158450 -27.314532 -15.115032 6
123.015795 -27.243761 -15.297341 6
119.921313 -27.085640 -15.416719 6
116.818887 -27.001457 -15.569979 6
113.503156 -27.654912 -16.153609 5
110.788042 -26.420460 -15.599363 5
105.856100 -32.817388 -19.585785 5
102.798466 -33.049377 -19.882980 5
99.839205 -32.989599 -19.996556 5
96.903788 -32.888553 -20.076009 5
93.964462 -32.851556 -20.184037 5
91.047534 -32.771707 -20.257189 5
88.145439 -32.673607 -20.310191 5
85.243358 -32.621728 -20.381342 5
82.342246 -32.615705 -20.470439 5
79.467607 -32.524368 -20.499855 5
76.589324 -32.498401 -20.558881 5
73.720540 -32.467721 -20.606067 5
70.865451 -32.400144 -20.622441 5
68.008946 -32.387878 -20.662566 5
64.749392 -35.458119 -22.515183 9
61.777534 -36.775628 -23.322754 9
58.821442 -38.262912 -24.221656 9
55.903179 -39.748540 -25.110774 9
53.023721 -41.213515 -25.979059 9
50.192520 -42.521310 -26.746042 9
47.429143 -43.301046 -27.192774 9
44.706421 -43.718266 -27.417063 9
42.005817 -43.907083 -27.498109 9
39.317792 -43.912210 -27.462282 9
36.631063 -43.924292 -27.422215 9
33.944933 -43.968515 -27.392806 9
31.260106 -43.984261 -27.338201 9
28.575603 -44.042580 -27.300429 9
25.890986 -44.072745 -27.237618 9
23.207075 -44.155027 -27.197300 9
20.522009 -44.213349 -27.134388 9
17.835194 -44.262493 -27.057605 9
15.147503 -44.330912 -26.983808 9
12.457050 -44.391418 -26.896827 9
9.767770 -44.501770 -26.830979 9
7.074362 -44.593783 -26.745698 9
4.366448 -44.578913 -26.588120 9
1.658713 -44.620280 -26.455346 9
-1.049637 -44.701630 -26.337711 9
-3.754312 -44.849044 -26.250837 9
-6.473064 -44.931592 -26.116392 9
-9.197723 -45.017950 -25.975349 9
-11.925947 -45.124717 -25.837610 9
-14.660846 -45.234299 -25.692570 9
-17.404626 -45.337893 -25.534855 9
-20.154234 -45.454576 -25.375868 9
-22.911330 -45.577482 -25.211408 9
-25.671173 -45.729526 -25.055263 9
-28.447259 -45.852240 -24.871987 9
-31.212477 -46.061564 -24.731780 9
-34.011851 -46.175108 -24.523870 9
-36.814555 -46.321244 -24.326057 9
-39.634865 -46.447876 -24.106521 9
-42.457689 -46.611005 -23.899330 9
-45.381814 -46.485626 -23.505195 9
-48.409129 -46.100040 -22.940226 9
-51.712760 -44.958806 -21.898033 9
-55.166834 -43.512459 -20.653308 9
-58.778992 -41.773446 -19.212086 9
-62.418350 -40.132469 -17.814996 9
-67.579629 -34.621454 -13.994653 8
-70.718629 -34.708059 -13.634308 8
-73.875665 -34.805612 -13.268591 8
-77.056382 -34.901747 -12.889586 8
-80.240837 -35.045552 -12.527908 8
-83.501117 -35.071064 -12.078971 8
-86.746259 -35.191673 -11.676769 8
-89.995983 -35.359345 -11.291117 8
-93.280752 -35.508714 -10.880451 8
-96.636234 -35.570773 -10.400366 8
-100.008374 -35.661784 -9.924448 8
-103.373741 -35.827039 -9.481656 8
-107.407475 -34.791855 -8.250789 8
-113.954778 -29.260979 -4.092699 8
-117.024522 -30.297940 -4.155048 7
-119.763664 -31.932287 -4.594603 7
-123.418603 -31.997410 -3.999165 7
-127.082338 -32.115920 -3.421657 7
-130.833879 -32.158055 -2.776579 7
-134.639769 -32.184662 -2.103142 7
-138.465716 -32.252521 -1.438460 7
-142.369403 -32.273906 -0.723882 7
-146.331979 -32.282445 0.018971 7
151.584751 -30.117847 -10.300082 6
148.291559 -30.005982 -10.562305 6
145.036107 -29.865233 -10.794170 6
141.780859 -29.779725 -11.048267 6
138.563347 -29.660410 -11.269351 6
135.357056 -29.568560 -11.495665 6
132.162456 -29.503183 -11.726687 6
129.001359 -29.405913 -11.926471 6
125.862388 -29.302655 -12.111242 6
122.760202 -29.148310 -12.253407 6
119.643491 -29.087272 -12.441998 6
116.558563 -28.984792 -12.594200 6
113.104820 -30.111402 -13.489212 5
108.989343 -33.576762 -15.803997 5
105.569491 -34.981538 -16.842968 5
102.522144 -35.224566 -17.159896 5
99.584865 -35.134491 -17.263016 5
96.659017 -35.049153 -17.359068 5
93.733944 -35.009900 -17.473327 5
90.835516 -34.909613 -17.540593 5
87.958996 -34.757270 -17.566496 5
85.073852 -34.686138 -17.632194 5
82.200309 -34.605336 -17.682436 5
79.322696 -34.592711 -17.764567 5
76.462264 -34.537799 -17.811541 5
73.611112 -34.475741 -17.844771 5
70.742580 -34.572192 -17.964764 5
67.901726 -34.547548 -18.001975 5
64.672414 -37.477195 -19.820309 9
61.702258 -38.873425 -20.699534 9
58.767157 -40.282500 -21.577173 9
55.856551 -41.806103 -22.514999 9
52.981970 -43.350397 -23.456337 9
50.181794 -44.432808 -24.109058 9
47.429518 -45.211782 -24.569261 9
44.713302 -45.711497 -24.851645 9
42.030601 -45.781733 -24.865173 9
39.353064 -45.804686 -24.841365 9
36.677351 -45.829236 -24.809842 9
34.002815 -45.864837 -24.776333 9
31.329464 -45.859743 -24.709442 9
28.656368 -45.953854 -24.694054 9
25.983045 -45.968329 -24.621616 9
23.310286 -46.041897 -24.576344 9
20.635958 -46.085313 -24.504006 9
17.960280 -46.133764 -24.425954 9
15.282951 -46.188863 -24.343144 9
12.604542 -46.263453 -24.263381 9
9.921623 -46.315058 -24.160739 9
7.237948 -46.398082 -24.068361 9
4.553549 -46.508473 -23.983779 9
1.860044 -46.570560 -23.860685 9
-0.836988 -46.645788 -23.736573 9
-3.536556 -46.742538 -23.616548 9
-6.246676 -46.805770 -23.466791 9
-8.957744 -46.906654 -23.330918 9
-11.676366 -47.002500 -23.182657 9
-14.402526 -47.097679 -23.024611 9
-17.132785 -47.213393 -22.869789 9
-20.495556 -44.259487 -20.806789 9
-22.627793 -47.401758 -22.504843 9
-25.391511 -47.488871 -22.303410 9
-28.160390 -47.599608 -22.106794 9
-30.939899 -47.711388 -21.900895 9
-33.715334 -47.883178 -21.722391 9
-36.524489 -47.970678 -21.481169 9
-39.341012 -48.079692 -21.243065 9
-42.158340 -48.232340 -21.021905 9
-45.043834 -48.206161 -20.677797 9
-48.081376 -47.759690 -20.057646 9
-51.286287 -46.894123 -19.160238 9
-54.753333 -45.378835 -17.837439 9
-58.361779 -43.623863 -16.346263 9
-61.990829 -41.986227 -14.912354 9
-67.476456 -35.604747 -10.434638 8
-70.631335 -35.651291 -10.034634 8
-73.799564 -35.723111 -9.637950 8
-76.997309 -35.781299 -9.219459 8
-80.194673 -35.899162 -8.826122 8
-83.409783 -36.032679 -8.429543 8
-86.676594 -36.107847 -7.981552 8
-89.974213 -36.176519 -7.515274 8
-93.284947 -36.278373 -7.056282 8
-96.642352 -36.344876 -6.559607 8
-100.036830 -36.400026 -6.040480 8
-103.451942 -36.478635 -5.521445 8
-107.558507 -35.322024 -4.169757 8
-114.418329 -29.252090 0.465118 8
-116.936785 -31.299083 -0.261531 7
-120.078855 -32.231100 -0.235152 7
-123.779439 -32.240035 0.423959 7
-127.505969 -32.276980 1.082409 7
-131.343642 -32.204417 1.833462 7
-135.182540 -32.206427 2.553457 7
-139.169419 -32.053570 3.398776 7
-143.189876 -31.931876 4.243863 7
-147.219625 -31.877882 5.063884 7
151.439791 -31.582744 -6.861347 6
148.162407 -31.445536 -7.122686 6
144.888213 -31.357587 -7.402653 6
141.649155 -31.245486 -7.654441 6
138.424281 -31.155644 -7.907894 6
135.215724 -31.082403 -8.159532 6
132.042644 -30.975367 -8.377508 6
128.890889 -30.866619 -8.582434 6
125.726516 -30.847247 -8.832093 6
122.605744 -30.763493 -9.029284 6
120.443758 -27.902222 -7.463301 6
116.418799 -30.597619 -9.390256 6
114.231265 -27.720477 -7.796330 5
108.766315 -35.489096 -12.883248 5
105.394654 -36.758906 -13.869783 5
102.385629 -36.896941 -14.134422 5
99.442836 -36.857829 -14.277363 5
96.521120 -36.790582 -14.392267 5
93.618008 -36.698470 -14.481327 5
90.693689 -36.744675 -14.646565 5
87.803698 -36.698351 -14.743832 5
84.927205 -36.639787 -14.823403 5
82.062418 -36.572548 -14.887590 5
79.202517 -36.527601 -14.955756 5
76.346878 -36.508966 -15.030442 5
73.502714 -36.474993 -15.085776 5
70.664513 -36.453590 -15.139181 5
67.835248 -36.422863 -15.177089 5
64.630007 -39.236162 -16.972590 9
61.664583 -40.662728 -17.896152 9
58.739970 -42.057955 -18.790461 9
55.840015 -43.563623 -19.743770 9
52.979818 -45.045898 -20.673135 9
50.180685 -46.220955 -21.402484 9
47.437951 -47.002526 -21.878383 9
44.735093 -47.444010 -22.134059 9
42.057640 -47.605105 -22.206576 9
39.391081 -47.617447 -22.177662 9
36.726165 -47.629945 -22.139812 9
34.062022 -47.663339 -22.105917 9
31.398937 -47.679619 -22.052341 9
28.736028 -47.714374 -22.001207 9
26.073322 -47.766856 -21.952050 9
23.409173 -47.777846 -21.867973 9
20.745457 -47.844571 -21.809522 9
18.078722 -47.872484 -21.717748 9
15.409528 -47.900941 -21.617139 9
12.738612 -47.947922 -21.518893 9
10.065655 -48.009104 -21.420293 9
7.389286 -48.070921 -21.312822 9
4.710159 -48.144952 -21.203690 9
2.024383 -48.198925 -21.072618 9
-0.660634 -48.301439 -20.962591 9
-3.358828 -48.343399 -20.805049 9
-6.053155 -48.457426 -20.683285 9
-8.753502 -48.570123 -20.551125 9
-11.466857 -48.644217 -20.384961 9
-14.186144 -48.729175 -20.215882 9
-16.914291 -48.811099 -20.035028 9
-19.646048 -48.919321 -19.860895 9
-22.399469 -48.968699 -19.639384 9
-25.150985 -49.074994 -19.443854 9
