ply
format ascii 1.0
element vertex 1406
property float x
property float y
property float z
property int scalar_Label
end_header
76.270179 21.423591 31.355361 5
77.968301 18.470690 33.191060 5
79.338836 15.496478 34.676645 5
80.460167 12.502556 35.896193 5
81.304955 9.471697 36.820446 5
81.888028 6.394942 37.465359 5
82.225859 3.264533 37.848656 5
82.337444 0.074261 37.990765 5
82.175296 -3.199531 37.840887 5
81.761408 -6.563014 37.422682 5
81.026882 -10.049103 36.662454 5
79.857546 -13.709445 35.438060 5
78.165296 -17.593787 33.655343 5
75.787884 -21.783365 31.140822 5
70.921731 -26.971065 25.963841 5
66.017077 -32.334899 20.748565 5
56.517358 -39.685713 10.618044 9
48.906324 121.277090 8.231332 3
48.926844 117.626852 8.219462 3
48.955746 113.985875 8.218422 3
47.188548 110.720577 6.336855 3
44.972845 107.499150 3.986778 3
42.729756 104.228424 1.609564 3
40.446594 100.908826 -0.808052 3
38.155089 97.533539 -3.232773 3
35.800377 94.109009 -5.722085 3
32.769818 90.704774 -8.918412 3
46.623487 45.952554 5.551066 9
51.376169 42.658994 10.543725 9
54.986082 39.407700 14.339412 9
58.024838 36.202149 17.537672 9
60.654813 33.034914 20.308807 9
60.459626 29.601640 20.118856 9
65.993123 26.917992 25.937863 5
68.730690 23.973930 28.826315 5
71.363127 21.083924 31.605925 5
73.063241 18.098458 33.409484 5
74.446075 15.093918 34.881932 5
75.540015 12.062161 36.053095 5
76.353550 8.992270 36.931946 5
76.876964 5.869538 37.508394 5
77.225093 2.709275 37.902866 5
77.279390 -0.527451 37.991245 5
77.060421 -3.848229 37.795207 5
76.548358 -7.271230 37.294126 5
75.661170 -10.834750 36.402268 5
74.379322 -14.562080 35.099405 5
72.496529 -18.539928 33.169846 5
68.974316 -23.156323 29.527091 5
60.750098 -29.593539 20.967406 9
59.979029 -33.480780 20.210790 9
55.063987 -39.031046 15.122014 9
43.892957 114.405435 8.959514 3
43.930188 110.746934 8.960159 3
43.967289 107.098556 8.963255 3
43.302975 103.580842 8.249840 3
41.037019 100.306862 5.896654 3
38.776223 96.976239 3.550820 3
36.473417 93.594906 1.164022 3
33.175074 90.272424 -2.241620 3
21.986581 87.679877 -13.737816 3
44.360663 45.993215 9.156252 9
49.440596 42.728079 14.377246 9
52.631810 39.457235 17.662806 9
55.397246 36.233080 20.513696 9
57.787852 33.042771 22.982168 9
59.966596 29.889397 25.235376 9
59.050979 26.385793 24.317309 9
60.921553 23.255234 26.258744 9
66.344526 20.735056 31.844432 5
68.053645 17.717504 33.623856 5
69.394098 14.671733 35.027274 5
70.501944 11.609157 36.194250 5
71.281248 8.498925 37.026544 5
71.833047 5.349826 37.627816 5
72.095222 2.136631 37.934531 5
72.108573 -1.142995 37.988635 5
71.799690 -4.520142 37.715093 5
71.206132 -7.998465 37.152569 5
70.184606 -11.633815 36.154580 5
68.741769 -15.443247 34.728257 5
66.600820 -19.536749 32.590697 5
61.004639 -24.891506 26.921861 9
60.243326 -28.694342 26.203351 9
57.121322 -33.413747 23.074021 9
53.024509 -38.618222 18.952550 9
38.815630 103.812265 9.653644 3
38.849876 100.154723 9.651668 3
38.856521 96.509116 9.625102 3
37.103130 93.098118 7.836417 3
33.489496 89.860401 4.184549 3
21.107165 87.425038 -8.260965 3
20.702595 79.729372 -8.708522 1
21.495555 75.817963 -7.928954 1
21.501886 71.968525 -7.935380 1
21.447419 68.123578 -7.999611 1
13.845595 44.687544 -15.617461 9
46.819698 42.753766 17.479349 9
50.178719 39.498450 20.863894 9
52.682186 36.255830 23.392615 9
54.985186 33.057344 25.722740 9
56.900294 29.872596 27.666253 9
58.645223 26.713404 29.441554 9
60.148514 23.562070 30.976985 9
61.425903 20.410649 32.288368 9
60.360306 16.887798 31.253272 9
61.252206 13.689830 32.183525 9
65.336547 11.142281 36.315951 5
66.115057 7.998057 37.137164 5
66.617581 4.804409 37.684423 5
66.873364 1.556320 37.987173 5
66.793534 -1.779672 37.956567 5
66.416824 -5.207867 37.631623 5
65.724428 -8.746721 36.993747 5
60.908898 -13.538361 32.232775 9
61.026072 -16.947366 32.412552 9
61.042753 -20.398843 32.494804 9
59.290892 -24.463126 30.811632 9
57.055029 -28.763138 28.648762 9
54.232249 -33.358641 25.903892 9
50.526784 -38.389269 22.282224 9
33.679136 93.131426 10.371506 3
33.704187 89.468940 10.364161 3
20.241443 87.174317 -2.872133 3
19.125026 83.440599 -3.993524 1
21.913406 79.391895 -1.279795 1
22.550891 75.551987 -0.672657 1
22.542796 71.762437 -0.695304 1
22.529191 67.975031 -0.719678 1
6.932784 44.523508 -16.014381 9
43.233589 42.720677 19.623483 9
47.237592 39.502887 23.569429 9
49.854370 36.268535 26.157071 9
51.998742 33.053421 28.284149 9
53.809904 29.853883 30.087263 9
55.502636 26.683441 31.777126 9
56.918307 23.514362 33.198151 9
58.073226 20.337438 34.366397 9
59.106556 17.165054 35.418383 9
61.028426 14.176013 37.344318 9
61.454426 10.938752 37.806818 9
61.610167 7.648509 38.007644 9
64.481156 4.960861 40.871724 9
64.008826 1.549930 40.463327 9
64.195249 -1.718225 40.703528 9
64.396158 -4.987558 40.961179 9
61.455726 -9.137929 38.147800 9
60.492021 -12.802954 37.273483 9
58.873163 -16.708037 35.762430 9
57.788320 -20.500080 34.778059 9
55.922649 -24.597738 33.034768 9
53.831132 -28.841297 31.075712 9
51.239357 -33.341080 28.633223 9
47.583067 -38.332639 25.157065 9
12.202645 103.274860 -4.298909 2
14.838344 98.989184 -1.818623 2
28.407346 89.709731 11.117946 3
19.367266 86.929709 2.411354 3
20.485992 83.034444 3.455475 1
20.379254 79.262619 3.327945 1
20.434129 75.481633 3.359708 1
20.442578 71.707007 3.351108 1
20.428722 67.935476 3.325283 1
15.945924 64.254181 -0.986118 4
15.964495 60.424736 -0.972530 4
15.959290 56.595935 -0.977526 4
15.971141 52.767028 -0.961911 4
29.606465 45.740057 12.146880 9
30.396537 42.135143 12.921337 9
43.354010 39.438634 25.376753 9
46.588148 36.243446 28.503331 9
48.980502 33.046885 30.825414 9
50.725315 29.836790 32.529520 9
52.283081 26.645022 34.057546 9
53.642950 23.462091 35.399104 9
54.765287 20.273497 36.516228 9
57.391910 17.359754 39.078994 9
59.766689 14.464589 41.403121 9
60.380638 11.285054 42.042512 9
60.524320 8.016880 42.234801 9
61.119018 4.843921 42.862816 9
61.219188 1.562317 43.020736 9
61.172183 -1.762489 43.041508 9
60.921033 -5.152017 42.870757 9
60.424376 -8.626663 42.469124 9
59.512227 -12.246373 41.674306 9
57.170674 -16.336397 39.517343 9
56.795829 -19.880392 39.245755 9
52.526868 -24.736702 35.258028 9
50.480064 -28.959805 33.399916 9
47.748572 -33.500909 30.894052 9
42.973098 -38.897110 26.444395 9
4.797890 107.859320 -5.003169 2
12.782857 102.671985 2.425744 2
12.811380 98.804403 2.399821 2
15.661294 94.591062 5.025549 3
23.033229 89.952986 11.899787 3
17.562806 86.781898 6.729572 3
17.041399 83.047869 6.207419 1
10.147571 79.764780 -0.291303 1
10.175007 75.894126 -0.289550 1
12.391803 71.926253 1.772280 1
15.284776 67.996596 4.473927 1
7.812078 64.348757 -2.551104 4
-6.287857 60.548999 -15.793640 4
15.299693 56.613502 4.473804 4
15.297383 52.819456 4.476343 4
23.919656 45.624658 12.594062 9
32.475094 42.445561 20.643219 9
38.211016 39.285187 26.049157 9
37.616589 35.731687 25.517355 9
45.313051 32.976978 32.770162 9
47.389524 29.792593 34.752333 9
49.066773 26.608565 36.363656 9
51.662646 23.590918 38.840313 9
54.144713 20.619245 41.213561 9
55.708489 17.555997 42.729093 9
56.466226 14.384146 43.492617 9
57.008288 11.184095 44.057877 9
57.399043 7.959903 44.485327 9
57.690373 4.716311 44.823677 9
57.817018 1.433669 45.011914 9
57.713885 -1.911175 44.989272 9
57.490519 -5.299748 44.858495 9
57.089213 -8.753243 44.565768 9
56.522725 -12.275888 44.123253 9
55.662283 -15.913671 43.410836 9
54.594052 -19.652366 42.509431 9
52.805640 -23.668862 40.940880 9
46.789989 -29.189184 35.432611 9
43.164429 -34.042810 32.164280 9
32.838318 -41.482834 22.655719 9
5.832018 107.127833 2.156482 2
10.854620 102.457734 6.697952 2
10.885507 98.609040 6.668320 2
13.388013 94.461766 8.911527 3
17.532821 90.203938 12.667791 3
15.310999 86.680409 10.587759 3
13.380883 83.078656 8.780075 1
11.110617 79.454749 6.664930 1
11.080997 75.643967 6.611583 1
11.070390 71.834217 6.580932 1
13.654053 67.942016 8.937471 1
7.421512 64.290192 3.204423 4
13.167930 60.399549 8.475572 4
13.170491 56.621173 8.477924 4
13.178707 52.842680 8.490654 4
18.082229 45.505330 13.018546 9
26.735285 42.292139 20.982767 9
32.533749 39.097480 26.330201 9
36.988130 35.937182 30.447714 9
40.503171 32.797820 33.706949 9
43.126855 29.647565 36.152110 9
49.102241 26.975856 41.676073 9
50.476005 23.826190 42.981885 9
51.526085 20.658568 43.994972 9
52.408919 17.485299 44.858914 9
53.116348 14.297887 45.566316 9
53.666627 11.092385 46.134011 9
54.052710 7.860659 46.555661 9
54.270584 4.594824 46.827732 9
54.372201 1.299571 46.997945 9
54.301549 -2.043852 47.015179 9
54.071226 -5.439674 46.891164 9
53.631344 -8.908316 46.580498 9
53.060498 -12.436617 46.155314 9
52.236933 -16.066571 45.504597 9
51.169703 -19.806305 44.637017 9
49.700223 -23.717737 43.408242 9
46.479407 -28.272590 40.588187 9
35.557377 -35.629590 30.754406 9
4.084256 106.859925 6.654129 2
8.649344 102.288209 10.677654 2
8.679609 98.454887 10.641650 2
9.688811 94.508794 11.489707 3
11.938913 90.458632 13.457371 3
10.061164 86.869629 11.726936 3
9.830291 83.098919 11.479904 1
8.378384 79.412333 10.142408 1
8.454746 75.603205 10.182417 1
8.566207 71.797076 10.259677 1
11.134848 67.916942 12.549052 1
10.163233 64.172449 11.665270 4
10.164770 60.397612 11.660984 4
10.194001 56.623281 11.687233 4
10.212775 52.849211 11.709757 4
-22.723692 43.816807 -17.834830 9
20.806369 42.131655 21.271713 9
26.709827 38.904135 26.598619 9
31.265568 35.712975 30.719956 9
34.950429 32.551717 34.063877 9
39.640613 29.591471 38.314049 9
44.965151 26.825487 43.136942 9
46.541560 23.685516 44.601150 9
47.788685 20.532223 45.774516 9
48.778829 17.364013 46.722018 9
49.548154 14.176723 47.476209 9
50.141667 10.969692 48.077562 9
50.556159 7.734923 48.523339 9
50.792612 4.465111 48.814584 9
50.881439 1.159636 48.978700 9
50.791792 -2.195244 48.988268 9
50.502851 -5.612402 48.824899 9
50.033936 -9.095179 48.506146 9
49.335429 -12.665208 47.987961 9
48.378311 -16.340796 47.244804 9
47.039162 -20.170772 46.166962 9
45.150218 -24.224854 44.605433 9
42.223670 -28.688509 42.126260 9
26.688649 -37.614378 28.420841 9
-1.653085 107.232389 7.603996 2
3.094976 102.611923 11.690580 2
3.153815 98.746917 11.673225 2
5.732996 94.584759 13.873196 3
6.237611 90.718334 14.260180 3
4.623103 87.071763 12.793857 3
6.044556 83.137450 13.998066 1
2.658535 79.579086 10.988569 1
2.710029 75.741154 11.002586 1
4.860251 71.813809 12.865648 1
7.721283 67.920552 15.359391 1
7.555534 64.159066 15.201587 4
7.595374 60.392910 15.230446 4
7.570606 56.627638 15.208695 4
7.571022 52.861935 15.215188 4
7.566393 49.095235 15.223380 4
6.521683 45.280764 14.324466 9
14.793603 41.970422 21.611547 9
20.774761 38.707892 26.892116 9
25.413372 35.483711 30.998807 9
29.134028 32.286703 34.304465 9
37.267729 29.657858 41.486833 9
39.535393 26.523092 43.526001 9
41.516254 23.403137 45.318302 9
43.114197 20.272498 46.779537 9
44.332571 17.116572 47.912829 9
45.266314 13.936656 48.801603 9
45.947035 10.727171 49.473746 9
46.405518 7.483962 49.956426 9
46.699689 4.210154 50.300559 9
46.728944 0.876331 50.418302 9
46.603436 -2.502250 50.406311 9
46.262992 -5.947230 50.212211 9
45.635336 -9.486624 49.773170 9
44.709464 -13.135379 49.080033 9
43.385516 -16.934819 48.046143 9
41.443520 -20.967988 46.480307 9
38.773291 -25.295051 44.287560 9
26.363587 -32.912390 33.617673 9
15.976565 -40.182339 24.729196 9
-2.831746 102.981023 12.487123 2
-2.728449 99.078346 12.500885 2
0.269478 94.838188 15.004429 3
0.413595 90.984402 15.067634 3
-0.894065 87.275994 13.891871 3
0.812634 83.292534 15.309590 1
-3.211255 79.751859 11.815368 1
-3.137868 75.881351 11.844533 1
-0.875255 71.918992 13.760166 1
2.653092 67.975746 16.769713 1
2.705492 64.188045 16.801450 4
2.711674 60.402785 16.800132 4
2.687277 56.617767 16.779181 4
2.694063 52.832446 16.791636 4
2.677820 49.045736 16.790946 4
0.362811 45.156150 14.823170 9
8.632233 41.804864 21.949319 9
14.711526 38.507745 27.200337 9
19.420615 35.248748 31.280276 9
23.161936 32.013687 34.534718 9
31.444193 29.354675 41.690017 9
33.784758 26.190028 43.751852 9
35.765335 23.032175 45.510055 9
37.381543 19.866413 46.960999 9
38.707953 16.690231 48.168774 9
39.796406 13.500996 49.177965 9
40.610722 10.282573 49.957748 9
41.125810 7.019116 50.486876 9
41.458724 3.723103 50.865814 9
41.441666 0.349889 50.951249 9
41.257203 -3.071752 50.899702 9
40.728340 -6.592590 50.560190 9
39.887753 -10.218050 49.961145 9
38.658842 -13.981798 49.037710 9
36.980462 -17.917156 47.738420 9
34.734727 -22.077730 45.963616 9
31.688786 -26.559356 43.516021 9
3.303525 -39.380985 19.503798 9
-5.470296 91.249864 15.937764 3
-7.729724 87.597767 13.984261 3
-9.272016 83.835576 12.639097 1
-21.080348 80.740472 2.684407 1
-16.023993 76.411484 6.890984 1
-16.128326 72.435307 6.773587 1
-3.191319 68.053520 17.613026 1
-4.693099 64.263683 16.337780 4
-4.669668 60.427892 16.350273 4
-4.682976 56.592731 16.339099 4
-4.689714 52.757085 16.340622 4
-4.711533 48.919972 16.336668 4
-6.627091 44.998576 14.750073 9
2.318082 41.634952 22.287830 9
8.508256 38.303086 27.518458 9
13.293293 35.008847 31.575260 9
17.064567 31.735868 34.786874 9
25.431342 29.039110 41.858718 9
27.834247 25.841738 43.932442 9
29.840369 22.647809 45.678981 9
31.500889 19.449365 47.141390 9
32.845534 16.237637 48.344752 9
33.864724 12.998695 49.281244 9
34.680908 9.741990 50.053637 9
35.195668 6.440338 50.579746 9
35.472512 3.094951 50.913014 9
35.432564 -0.320974 50.987784 9
35.131017 -3.807231 50.850606 9
34.486858 -7.394168 50.434222 9
33.529603 -11.087904 49.763830 9
32.154772 -14.929321 48.752843 9
30.267718 -18.961982 47.323144 9
27.791817 -23.229129 45.411908 9
24.331406 -27.876646 42.690955 9
8.054577 -36.751353 29.318856 9
-20.597689 76.469657 9.133981 1
-20.513698 72.472442 9.171114 1
-5.825683 68.030647 21.204169 1
-13.364713 44.855767 15.038948 9
-4.259060 41.454798 22.543007 9
2.095009 38.089410 27.794757 9
6.994608 34.761318 31.858941 9
10.830146 31.452422 35.056089 9
19.382038 28.727675 42.126753 9
21.809329 25.493522 44.179740 9
23.793604 22.257378 45.875526 9
25.445741 19.018112 47.305160 9
26.805176 15.769045 48.501115 9
27.834293 12.492592 49.432786 9
28.600329 9.188032 50.155468 9
29.085818 5.841734 50.655129 9
29.289691 2.442499 50.931210 9
29.209231 -1.021334 50.981851 9
28.861898 -4.556989 50.821728 9
28.106012 -8.209347 50.335629 9
26.987608 -11.982761 49.561802 9
25.435485 -15.910660 48.442889 9
23.338453 -20.041382 46.889179 9
20.510400 -24.450982 44.750303 9
16.603978 -29.274441 41.745274 9
-2.287895 -38.979644 26.572461 9
-20.251039 44.710239 15.351334 9
-10.931419 41.273981 22.861736 9
-4.466673 37.871207 28.087991 9
0.435525 34.499463 32.067181 9
4.385655 31.156976 35.289171 9
13.110662 28.401147 42.345089 9
15.569899 25.129301 44.383360 9
17.603694 21.858493 46.087104 9
19.293659 18.584147 47.521879 9
20.601213 15.287332 48.656991 9
21.602027 11.966011 49.553277 9
22.359026 8.619573 50.261334 9
22.809490 5.226673 50.731264 9
22.938463 1.772465 50.951482 9
22.794909 -1.744998 50.961524 9
22.302060 -5.353787 50.700543 9
21.489373 -9.060455 50.192618 9
20.230098 -12.909467 49.337314 9
18.461453 -16.934823 48.085489 9
16.117520 -21.174665 46.385726 9
12.930016 -25.729148 44.025908 9
-1.392272 -33.738958 32.829245 9
-18.359564 -42.957700 19.559705 9
-27.330599 44.560261 15.657986 9
-17.774074 41.088528 23.187963 9
-11.143908 37.650883 28.429728 9
-6.196654 34.238492 32.358719 9
-2.215287 30.854868 35.537334 9
6.687175 28.067298 42.578457 9
9.132904 24.751667 44.566073 9
11.164368 21.438128 46.236077 9
12.863816 18.122647 47.653045 9
14.184908 14.785753 48.780908 9
15.198692 11.424824 49.675524 9
15.958671 8.037584 50.378989 9
16.320131 4.587189 50.778513 9
16.440275 1.089943 50.997342 9
16.166926 -2.495757 50.917074 9
15.620227 -6.157994 50.632024 9
14.634834 -9.946525 50.013835 9
13.231764 -13.872964 49.079696 9
11.244447 -17.996994 47.700847 9
8.612255 -22.357694 45.831389 9
4.989588 -27.078863 43.204265 9
-11.315178 -35.690527 30.745215 9
-34.477859 44.411262 16.063067 9
-24.742234 40.901059 23.562808 9
-18.102788 37.417719 28.696581 9
-13.063739 33.965957 32.611157 9
-8.935503 30.549748 35.835133 9
0.105167 27.725841 42.827848 9
2.552928 24.367373 44.777993 9
4.685132 21.023361 46.493886 9
6.284366 17.652248 47.809342 9
7.649374 14.279024 48.953159 9
8.610416 10.867465 49.795780 9
9.296514 7.424913 50.436150 9
9.648582 3.930021 50.829474 9
9.662584 0.369413 50.973110 9
9.366102 -3.263910 50.888594 9
8.648177 -7.006388 50.491909 9
7.569830 -10.859699 49.830279 9
5.933953 -14.886169 48.754478 9
3.740185 -19.107030 47.265392 9
0.788208 -23.597795 45.212128 9
-3.355997 -28.510150 42.267059 9
-22.518120 -37.973598 27.949550 9
-42.159574 44.244038 16.218076 9
-31.919109 40.707304 23.928229 9
-25.231243 37.179472 28.985013 9
-20.081252 33.688799 32.897812 9
-15.905241 30.230322 36.089068 9
-6.724394 27.368230 43.032745 9
-4.171660 23.976597 45.023145 9
-2.129006 20.577634 46.639771 9
-0.426527 17.175879 48.009903 9
0.904706 13.754233 49.110541 9
1.873245 10.300412 49.948379 9
2.494093 6.803604 50.534979 9
2.791642 3.255391 50.888949 9
2.704092 -0.368365 50.964671 9
2.343994 -4.058665 50.846580 9
1.519421 -7.867960 50.392315 9
0.227845 -11.814177 49.600866 9
-1.528717 -15.914354 48.474696 9
-4.058343 -20.264807 46.786094 9
-7.410647 -24.907727 44.499998 9
-22.312607 -32.877474 33.667379 9
-36.926819 -41.139594 23.079053 9
-39.213965 40.512296 24.359131 9
-32.555534 36.934714 29.282222 9
-27.303823 33.403135 33.184171 9
-23.031471 29.905302 36.377813 9
-13.722184 27.002979 43.261699 9
-11.178899 23.564398 45.205875 9
-9.071019 20.127472 46.840078 9
-7.366780 16.680764 48.187736 9
-6.067885 13.209410 49.247884 9
-5.125625 9.706387 50.056412 9
-4.515223 6.162865 50.631757 9
-4.336837 2.548477 50.901359 9
-4.422258 -1.120065 50.988305 9
-4.972903 -4.893960 50.746498 9
-5.910061 -8.773233 50.233991 9
-7.368673 -12.803164 49.353540 9
-9.405949 -17.016835 48.064732 9
-12.184221 -21.476769 46.251172 9
-16.030633 -26.297093 43.677613 9
-51.401623 -39.953208 18.302705 9
-63.426865 39.444598 12.848074 8
-40.084270 36.683200 29.589666 9
-34.759673 33.107230 33.458185 9
-35.821418 29.098454 32.772698 9
-20.944407 26.624958 43.480832 9
-18.334062 23.146386 45.434492 9
-16.241444 19.660998 47.027245 9
-14.519655 16.169912 48.364181 9
-13.248674 12.648248 49.388542 9
-12.322427 9.096426 50.176323 9
-11.788804 5.493928 50.693800 9
-11.605538 1.834141 50.971557 9
-11.811058 -1.903052 50.982795 9
-12.511735 -5.753417 50.652592 9
-13.581797 -9.707936 50.071157 9
-15.239464 -13.829680 49.084486 9
-17.561696 -18.158439 47.639316 9
-20.693529 -22.754812 45.634506 9
-25.051511 -27.757604 42.777396 9
-71.052880 39.251631 13.633868 8
-63.470832 35.442847 18.986669 8
-42.735926 32.780222 33.528790 9
-31.556861 29.770293 41.405846 9
-28.371574 26.236610 43.712680 9
-25.743836 22.711331 45.639699 9
-23.590075 19.184933 47.245402 9
-21.888772 15.643541 48.545059 9
-20.682093 12.065124 49.509664 9
-19.743544 8.467191 50.297293 9
-19.304845 4.801555 50.747120 9
-19.193606 1.081069 50.979602 9
-19.522809 -2.727493 50.916811 9
-20.289417 -6.639350 50.561622 9
-21.576968 -10.688046 49.856982 9
-23.487282 -14.915201 48.733475 9
-26.035931 -19.346955 47.181735 9
-29.613437 -24.103132 44.933387 9
-34.662977 -29.335715 41.684953 9
-79.220165 39.036224 14.206270 8
-68.204150 35.387954 21.779035 8
-63.433750 31.527397 25.103068 8
-39.281204 29.413899 41.643298 9
-36.001362 25.838635 43.966603 9
-33.374571 22.263552 45.854657 9
-31.206922 18.689078 47.439759 9
-29.527120 15.095448 48.702660 9
-28.271257 11.474666 49.687199 9
-27.444069 7.811107 50.390576 9
-27.014767 4.094733 50.834207 9
-27.024617 0.304196 50.990657 9
-27.465250 -3.574502 50.866302 9
-28.415429 -7.572352 50.408587 9
-29.854468 -11.703132 49.632527 9
-31.961301 -16.024029 48.418243 9
-34.943813 -20.607357 46.626887 9
-38.952258 -25.521088 44.159216 9
-87.493235 38.821057 14.879392 8
-76.430887 35.120798 22.308233 8
-69.044794 31.398160 27.299366 8
-63.426084 27.689439 31.124097 8
-43.989825 25.416658 44.146343 9
-41.221933 21.804086 46.090632 9
-39.026868 18.181900 47.664280 9
-37.391348 14.532112 48.876494 9
-36.150464 10.858530 49.837193 9
-35.406817 7.131870 50.478738 9
-35.033417 3.355514 50.885901 9
-35.151483 -0.504638 50.978959 9
-35.725309 -4.459156 50.782347 9
-36.805482 -8.534026 50.263489 9
-38.467222 -12.762734 49.373759 9
-40.876496 -17.202207 48.004968 9
-44.519077 -21.990922 45.838725 9
-78.657371 -34.265188 23.612488 8
-96.255455 38.587144 15.406835 8
-85.116926 34.832586 22.712362 8
-77.517920 31.067383 27.727913 8
-71.974832 27.296708 31.418233 8
-71.857825 23.134698 31.596879 8
-70.185618 19.134694 32.797311 8
-49.178387 17.416359 46.546235 9
-46.147553 13.869331 48.643334 9
-44.548578 10.186037 49.822944 9
-43.692788 6.421330 50.532395 9
-43.433199 2.573540 50.867694 9
-43.649408 -1.357071 50.907530 9
-44.495532 -5.415254 50.553226 9
-46.261313 -9.679155 49.619089 9
-72.606569 -19.052096 32.860721 8
-75.792071 -23.998601 31.058470 8
-77.509753 -28.691738 30.218156 8
-103.145633 -39.171688 14.031337 8
-105.169113 38.351792 16.023579 8
-94.113074 34.533067 23.105338 8
-86.223731 30.728519 28.189460 8
-80.690021 26.900284 31.791053 8
-81.295086 22.618120 31.515203 8
-78.977768 18.622768 33.103265 8
-76.169664 14.730234 35.013819 8
-74.177711 10.791461 36.419707 8
-72.922709 6.789918 37.371753 8
-72.345390 2.709557 37.908229 8
-72.539520 -1.487497 37.970896 8
-73.549830 -5.834993 37.532775 8
-75.443380 -10.372816 36.553097 8
-78.559934 -15.196474 34.819836 8
-82.517806 -20.269747 32.575544 8
-84.439288 -25.003021 31.629371 8
-90.652429 -30.759805 28.008367 8
-103.367914 34.225782 23.530912 8
-95.306749 30.371783 28.603064 8
-89.827118 26.479681 32.089897 8
-91.226891 22.068810 31.337145 8
-88.058387 18.094143 33.420684 8
-85.304639 14.136559 35.260194 8
-83.332191 10.136343 36.629772 8
-82.191481 6.060670 37.499085 8
-81.752063 1.900988 37.949477 8
-82.117324 -2.382489 37.918312 8
-83.322689 -6.822697 37.385121 8
-85.602256 -11.489910 36.207652 8
-89.186629 -16.464161 34.246564 8
-93.920291 -21.757940 31.600072 8
-93.446948 -26.057942 32.163417 8
-105.064233 -33.063429 25.345935 8
-104.970219 29.983700 28.861026 8
-99.093718 26.059350 32.507960 8
-100.609058 21.583262 31.711740 8
-97.533735 17.538718 33.696297 8
-94.717659 13.526587 35.537403 8
-92.904796 9.446146 36.787541 8
-91.804032 5.303616 37.622760 8
-91.561472 1.054243 37.956170 8
-92.068747 -3.313407 37.854060 8
-93.587653 -7.867943 37.160733 8
-96.204343 -12.658219 35.826492 8
-100.403833 -17.812236 33.563417 8
-105.446319 -23.234846 30.817219 8
-109.384779 -28.544584 28.752630 8
-143.918735 27.583848 12.104427 7
-131.434766 23.811382 19.559377 7
-110.906211 21.027480 31.750575 8
-108.911688 16.805278 33.059913 8
-104.630387 12.876331 35.725366 8
-102.773571 8.737151 36.980857 8
-101.831166 4.510502 37.714166 8
-101.700843 0.181298 37.986382 8
-102.462092 -4.289323 37.752223 8
-104.259492 -8.954476 36.928733 8
-114.208922 -15.100406 31.363064 8
-112.107741 -19.218343 32.854238 8
-141.789001 23.345249 20.091702 7
-133.872243 19.352904 24.759921 7
-131.927633 14.926317 26.021141 7
-128.709423 10.676818 28.026058 7
-126.733008 6.339762 29.335069 7
-126.030190 1.871139 29.931385 7
-126.525616 -2.759258 29.859714 7
-128.432761 -7.622713 29.000232 7
-132.199593 -12.838054 27.100320 7
-136.887036 -18.301751 24.697970 7
-144.418793 18.814144 25.295658 7
-142.765784 14.293433 26.371677 7
-139.630898 9.964686 28.289655 7
-137.846984 5.534400 29.469859 7
-137.315443 0.972572 29.968713 7
-138.114944 -3.771734 29.744206 7
-140.400664 -8.764448 28.712296 7
-144.976589 -14.183191 26.429619 7
-148.927229 -19.598332 24.516668 7
-149.352517 4.702883 29.636026 7
-149.107411 0.031174 29.980298 7
-150.000717 11.652612 -27.116096 7
-149.377904 -1.088565 -26.972053 7
-146.607543 1.092756 -26.975952 7
-149.612270 23.526948 -19.941617 7
-146.310124 22.982800 -20.844550 7
-142.852933 22.038234 -21.899282 7
-139.359347 21.112680 -22.960260 7
-135.761963 20.001740 -24.100703 7
-132.097251 18.834557 -25.275871 7
-118.527592 9.252771 -31.130372 8
-117.334198 15.246492 -29.730927 8
-115.624906 19.659955 -28.899089 8
-113.786173 23.575662 -28.240535 8
-111.915289 27.266915 -27.655720 8
-109.519241 29.608601 -27.575935 8
-106.552984 30.608552 -28.009730 8
-102.692508 29.663132 -29.202852 8
-98.531904 28.197346 -30.616311 8
-94.236281 26.598586 -32.102805 8
-52.823113 13.754703 -45.894411 9
-51.641381 18.615109 -44.871883 9
-49.465142 21.753221 -44.572337 9
-46.045558 22.893699 -45.133470 9
-149.987449 -9.762802 -25.176703 7
-146.849592 -8.645297 -25.563222 7
-143.724196 -7.494596 -25.941177 7
-149.867648 26.107247 -15.453741 7
-146.644306 25.721316 -16.276785 7
-143.376145 25.283877 -17.126700 7
-138.490953 19.862169 -19.692165 7
-136.674292 24.191698 -18.931289 7
-133.254474 23.597475 -19.866560 7
-129.759697 22.896492 -20.850629 7
-126.156298 22.008851 -21.912767 7
-121.283248 17.852416 -24.148801 7
-118.507826 19.451391 -24.357850 8
-116.928700 24.039732 -23.490961 8
-114.833755 27.176624 -23.135935 8
-112.770517 30.284294 -22.784369 8
-110.515874 32.849593 -22.625561 8
-107.730388 34.153144 -22.931169 8
-104.384614 34.231317 -23.698394 8
-97.598799 27.041050 -27.216683 8
-96.706943 32.535820 -25.967895 8
-92.688477 31.495071 -27.201116 8
-88.563024 30.367764 -28.485873 8
-84.218868 28.948370 -29.903410 8
-79.682790 27.311827 -31.427577 8
-63.907671 5.210943 -41.064641 9
-60.789163 6.901744 -41.375770 9
-60.719630 13.931547 -39.546145 9
-58.154341 16.455936 -39.510498 9
-55.792115 19.287571 -39.348065 9
-50.568381 17.403907 -41.123978 9
-50.758106 24.327178 -39.272228 9
-48.282695 26.870038 -39.223035 9
-45.818698 29.402902 -39.176935 9
-41.885504 29.716602 -40.075132 9
-37.704484 29.739678 -41.113719 9
-31.075720 26.349045 -43.650090 9
-147.764290 -16.322545 -23.273168 7
-144.460084 -15.596333 -23.799470 7
-141.111034 -15.012666 -24.375464 7
-149.917641 27.932319 -11.295927 7
-146.723058 27.562664 -12.091336 7
-143.530811 27.292733 -12.862881 7
-140.288080 26.949881 -13.666983 7
-137.025602 26.636978 -14.470241 7
-133.684899 26.182794 -15.329962 7
-130.326384 25.774502 -16.184363 7
-126.915692 25.316298 -17.065895 7
-121.566662 19.796094 -19.689990 7
-119.904283 24.191943 -18.933047 7
-115.929720 22.605832 -20.239855 8
-115.472736 29.749927 -18.508903 8
-113.305193 32.515621 -18.293212 8
-111.086042 35.080933 -18.143253 8
-108.432721 36.604679 -18.361905 8
-103.062002 32.186116 -20.726499 8
-101.643973 36.470228 -19.960909 8
-97.996987 35.988911 -20.928291 8
-94.245902 35.392400 -21.951778 8
-87.505879 29.010190 -25.144432 8
-86.429600 33.894745 -24.157318 8
-82.401303 33.083234 -25.308125 8
-78.228075 32.119285 -26.534284 8
-73.802354 30.824552 -27.906285 8
-69.392687 29.694244 -29.235781 8
-64.527625 27.916512 -30.839152 8
-57.146599 22.104339 -34.058360 9
-54.666160 24.618586 -34.021003 9
-52.059495 26.902167 -34.074555 9
-49.464883 29.186424 -34.127938 9
-46.416558 30.762427 -34.470296 9
-42.303884 30.766861 -35.464257 9
-37.312201 29.573069 -36.972101 9
-33.085754 29.607803 -37.992004 9
-28.815334 29.666323 -39.019699 9
-24.483920 29.726833 -40.064800 9
-20.064681 29.756312 -41.142092 9
-12.588761 25.867475 -43.938470 9
-149.791851 -19.923155 -19.590322 7
-146.405828 -19.441934 -20.189204 7
-142.999360 -18.999394 -20.804556 7
-139.642246 -18.337373 -21.357344 7
-149.713850 28.848216 -7.486281 7
-146.609374 28.732431 -8.182654 7
-143.456803 28.535302 -8.911722 7
-140.309453 28.433582 -9.618208 7
-137.089319 28.185698 -10.378832 7
-133.822325 27.883789 -11.165203 7
-130.533890 27.607213 -11.952203 7
-127.211295 27.321487 -12.751156 7
-123.865298 27.058541 -13.551862 7
-120.435092 26.662530 -14.406127 7
-118.350818 29.720529 -14.115546 8
-115.822754 31.597418 -14.215806 8
-113.617619 34.201383 -14.068037 8
-111.357652 36.606628 -13.983441 8
-108.760901 38.199379 -14.175358 8
-103.827781 34.692714 -16.140912 8
-102.215339 38.475829 -15.580715 8
-98.693227 38.191314 -16.446135 8
-95.075963 37.799322 -17.361526 8
-91.347125 37.278118 -18.335948 8
-87.623097 36.862893 -19.285799 8
-83.767839 36.294330 -20.305115 8
-79.875045 35.757197 -21.327721 8
-75.819755 35.029328 -22.436119 8
-71.665910 34.238285 -23.584822 8
-67.473431 33.493519 -24.733649 8
-59.907407 27.246653 -27.991328 9
-57.155216 29.187301 -28.164683 9
-54.444932 31.189003 -28.316080 9
-51.703783 33.135620 -28.490344 9
-48.908176 34.995886 -28.700478 9
-45.604247 36.100923 -29.212804 9
-36.438239 28.702669 -33.135076 9
-36.488103 34.839910 -31.663004 9
-31.144203 33.277896 -33.299082 9
-25.371322 31.281389 -35.142495 9
-19.685987 29.572919 -36.899455 9
-15.229318 29.633966 -37.947954 9
-10.680527 29.665604 -39.028028 9
-6.072330 29.713941 -40.121046 9
-1.389476 29.762482 -41.234608 9
7.514963 24.816084 -44.538287 9
-148.643608 -22.272324 -16.231056 7
-145.210912 -21.900268 -16.859608 7
-141.781324 -21.470038 -17.475840 7
-138.329293 -21.076819 -18.107675 7
-149.440184 29.504119 -3.796520 7
-146.382940 29.506594 -4.441635 7
-143.265137 29.379728 -5.131958 7
-140.114497 29.224913 -5.837675 7
-136.934014 29.056378 -6.554814 7
-133.735441 28.912018 -7.271952 7
-130.549484 28.878268 -7.962179 7
-127.260630 28.633080 -8.726112 7
-123.970025 28.464854 -9.474185 7
-120.646610 28.289760 -10.232823 7
-118.550773 31.248327 -9.992189 8
-116.025701 33.070422 -10.113051 8
-113.768399 35.490047 -10.037566 8
-111.482365 37.781012 -10.000323 8
-108.932096 39.429419 -10.172928 8
-105.958601 40.141320 -10.658856 8
-102.543672 39.951570 -11.453978 8
-99.106869 39.794889 -12.248076 8
-95.605084 39.584653 -13.070864 8
-91.940767 39.136089 -13.986928 8
-88.281733 38.789917 -14.879942 8
-84.599283 38.487934 -15.769828 8
-80.789450 38.040217 -16.723805 8
-76.925159 37.589410 -17.692611 8
-73.018773 37.160026 -18.667853 8
-69.005410 36.643205 -19.689268 8
-64.879998 36.039311 -20.757961 8
-58.867787 32.475805 -22.935531 9
-56.023202 34.176664 -23.188857 9
-53.213007 35.935987 -23.423015 9
-50.330924 37.589763 -23.699741 9
-47.412505 39.198858 -23.997012 9
-43.821741 39.842385 -24.670408 9
-39.565129 39.592468 -25.702002 9
-34.730586 38.630402 -27.030383 9
-29.712220 37.541765 -28.431879 9
-24.509085 36.337030 -29.904401 9
-19.122711 35.029442 -31.444668 9
-13.382418 33.410902 -33.139325 9
-7.203269 31.398377 -35.026900 9
-1.042325 29.582742 -36.868070 9
3.718316 29.621900 -37.968002 9
8.563423 29.656385 -39.090968 9
13.493149 29.689806 -40.236251 9
18.447338 29.793962 -41.373746 9
30.135789 22.520058 -45.742901 9
-147.609214 -24.145908 -12.705093 7
-144.140459 -23.860199 -13.353184 7
-140.670555 -23.525276 -13.992150 7
-137.170687 -23.246271 -14.651639 7
-149.029373 29.674583 -0.280304 7
-145.984412 29.696030 -0.906907 7
-142.893217 29.633020 -1.563593 7
-139.790969 29.604865 -2.216229 7
-136.692853 29.655844 -2.851715 7
-133.521656 29.557999 -3.537392 7
-130.335016 29.488680 -4.221408 7
-127.086235 29.321132 -4.942007 7
-123.839299 29.234774 -5.645546 7
-120.549625 29.111143 -6.367967 7
-118.561066 32.289005 -6.078388 8
-115.979536 33.927202 -6.260064 8
-113.710910 36.276616 -6.218000 8
-111.498764 38.695815 -6.149859 8
-108.879697 40.150526 -6.384996 8
-105.950033 40.924961 -6.839519 8
-102.603710 40.849004 -7.574001 8
-99.181783 40.689487 -8.344800 8
-95.706572 40.499700 -9.135307 8
-92.174683 40.277646 -9.946725 8
-88.637092 40.125366 -10.745455 8
-85.005758 39.876440 -11.587424 8
-81.409390 39.774192 -12.390936 8
-77.659730 39.476640 -13.272480 8
-73.820849 39.110914 -14.190081 8
-69.954247 38.788632 -15.105751 8
-65.971122 38.362444 -16.071382 8
-59.930863 34.697022 -18.201619 9
-57.073386 36.314355 -18.474562 9
-54.211679 37.933059 -18.749786 9
-51.419550 39.666270 -18.986241 9
-48.463350 41.161140 -19.312730 9
-45.178570 42.195171 -19.814273 9
-38.101570 37.874833 -22.326576 9
-36.822604 41.887411 -21.736844 9
-32.214001 41.278951 -22.895387 9
-27.378469 40.476875 -24.148297 9
-22.508706 39.748522 -25.394568 9
-17.374344 38.798250 -26.749870 9
-12.090830 37.788215 -28.153289 9
-6.528295 36.566644 -29.666844 9
-0.681192 35.143985 -31.289593 9
5.450303 33.537211 -33.017908 9
12.116926 31.472660 -34.967331 9
18.821246 29.546292 -36.897468 9
23.891205 29.610676 -38.032420 9
29.072161 29.654577 -39.198862 9
34.325702 29.723971 -40.378287 9
40.411309 29.028183 -41.912363 9
52.511288 136.826428 -22.215496 3
54.262586 139.694962 -22.045647 3
56.608722 142.209735 -22.089704 3
60.327698 143.944455 -22.617862 3
66.740977 144.205837 -24.082869 3
-150.115115 -25.993789 -8.434657 7
-145.974730 -28.393126 -9.783591 7
-143.197550 -25.319096 -9.686515 7
-139.705791 -25.030082 -10.331483 7
-136.176115 -24.821049 -11.002601 7
-148.543162 29.578363 3.141011 7
-145.514050 29.639783 2.537537 7
-142.443911 29.630873 1.909531 7
-139.370078 29.675514 1.291055 7
-136.276205 29.722368 0.667798 7
-133.143561 29.719743 0.024887 7
-129.978408 29.691976 -0.631219 7
-126.796333 29.685756 -1.287381 7
-123.573453 29.638942 -1.961763 7
-120.308084 29.553094 -2.654393 7
-118.355650 32.783783 -2.371690 8
-115.859390 34.595233 -2.504307 8
-113.577820 36.876431 -2.493828 8
-111.313769 39.142109 -2.484169 8
-107.367118 37.629246 -3.626986 8
-105.821171 41.440241 -3.142563 8
-102.487907 41.367628 -3.854712 8
-99.140549 41.337243 -4.562049 8
-95.737649 41.265430 -5.290958 8
-92.241792 41.084558 -6.063594 8
-88.739958 40.970368 -6.824608 8
-85.202346 40.865200 -7.592452 8
-81.565915 40.656472 -8.404160 8
-77.908802 40.492297 -9.212075 8
-74.203037 40.323739 -10.032428 8
-70.424289 40.112460 -10.878454 8
-66.587083 39.887955 -11.740904 8
-60.619801 36.302310 -13.762297 9
-57.800876 37.931570 -14.022055 9
-54.965812 39.542649 -14.290331 9
-52.110650 41.131967 -14.568720 9
-49.219205 42.678208 -14.865141 9
-46.036581 43.815704 -15.310507 9
-42.417540 44.365470 -15.973296 9
-38.216067 44.163215 -16.919110 9
-33.847944 43.824140 -17.930543 9
-29.162167 43.158485 -19.079596 9
-24.507980 42.645573 -20.191455 9
-19.816295 42.191265 -21.300607 9
-14.869866 41.523361 -22.510474 9
-9.687508 40.681508 -23.808819 9
-4.461559 39.911379 -25.103189 9
0.906898 39.096205 -26.439223 9
6.693485 37.924625 -27.941126 9
12.569400 36.794364 -29.455424 9
18.898067 35.304762 -31.143853 9
25.556416 33.615934 -32.946704 9
32.804849 31.467842 -34.974347 9
3.100897 68.082966 -20.968686 1
5.010647 71.005126 -20.790965 1
-12.095730 92.975297 -12.546692 3
-7.886627 93.217939 -13.423850 3
-6.428809 96.190078 -13.140336 3
-1.862812 96.199812 -14.146010 3
37.342663 110.274526 -20.024688 3
39.090980 113.188128 -19.834073 3
40.815122 116.110581 -19.637598 3
42.541373 119.023139 -19.444880 3
44.289815 121.912926 -19.262982 3
45.995876 124.825657 -19.068326 3
47.702900 127.731585 -18.876547 3
49.452176 130.604804 -18.702055 3
51.148113 133.508710 -18.510801 3
52.867494 136.394151 -18.329782 3
54.554906 139.296585 -18.139514 3
56.754161 141.892394 -18.126392 3
60.229333 143.759351 -18.545943 3
66.318520 144.189688 -19.839483 3
73.392682 144.189251 -21.441574 3
80.700632 144.201766 -23.095463 3
88.326567 144.190172 -24.827538 3
96.184905 144.209126 -26.607820 3
104.415792 144.195254 -28.480523 3
112.940751 144.199329 -30.418053 3
123.766403 143.270757 -33.060866 0
126.799582 146.196479 -33.186939 0
135.294173 146.674097 -35.030643 0
145.897511 146.382128 -37.504728 0
-149.443110 -26.403368 -4.500893 7
-145.927512 -26.322559 -5.182078 7
-142.386587 -26.269266 -5.874831 7
-138.872218 -26.048000 -6.529227 7
-135.325559 -25.881288 -7.202069 7
-147.941989 29.086291 6.444346 7
-144.931483 29.210193 5.868017 7
-141.913398 29.365463 5.295703 7
-138.837083 29.396696 4.685826 7
-135.748565 29.454095 4.077971 7
-132.634156 29.498360 3.461442 7
-129.514806 29.591061 2.852876 7
-126.368614 29.671223 2.235547 7
-123.166665 29.666729 1.589065 7
-119.943414 29.674461 0.939916 7
-116.814492 29.980442 0.369113 8
-115.576692 34.864672 1.102562 8
-113.326662 37.192693 1.115336 8
-109.678635 36.293322 0.194121 8
-108.460095 40.871492 0.867364 8
-105.489287 41.511811 0.391759 8
-102.197621 41.513696 -0.278281 8
-98.852138 41.472576 -0.968757 8
-95.518254 41.524274 -1.639073 8
-92.125041 41.526359 -2.332300 8
-88.656730 41.454693 -3.056519 8
-85.155677 41.395308 -3.785831 8
-81.603793 41.316971 -4.530214 8
-77.998792 41.219337 -5.290221 8
-74.337539 41.100735 -6.066846 8
-70.644513 41.006407 -6.846029 8
-66.888076 40.884995 -7.644558 8
-61.026749 37.443920 -9.540427 9
-58.207145 39.033445 -9.806164 9
-55.314868 40.518711 -10.108592 9
-52.535164 42.187805 -10.352028 9
-49.611882 43.651258 -10.667018 9
-46.540956 44.917461 -11.052741 9
-43.112109 45.702089 -11.609334 9
-38.963523 45.534589 -12.505403 9
-34.703555 45.303378 -13.438199 9
-30.259200 44.918153 -14.440843 9
-25.840701 44.665661 -15.412749 9
-21.251606 44.290088 -16.445553 9
-16.639481 43.986857 -17.469821 9
-11.722127 43.408963 -18.613134 9
-6.721146 42.842704 -19.772630 9
-1.687660 42.351358 -20.925151 9
3.565849 41.717941 -22.152806 9
9.122537 40.860831 -23.489154 9
14.741859 40.064116 -24.827809 9
-8.874092 71.150904 -13.753091 1
-4.367214 71.163358 -14.700599 1
-9.490573 81.314134 -11.631079 1
-13.467086 89.981120 -9.095071 3
-10.870543 91.804419 -9.287434 3
-8.650106 94.012793 -9.325874 3
-9.976894 99.638991 -7.947084 2
-9.473625 103.403895 -7.319878 2
-5.719449 104.100236 -7.980740 2
-1.022032 104.002830 -8.997138 2
3.522125 104.136544 -9.936910 2
21.487244 92.667075 -15.984608 3
25.949232 93.279000 -16.815883 3
28.933483 95.205014 -17.078699 3
30.713865 98.144741 -16.889602 3
32.488865 101.075988 -16.701938 3
34.194688 104.049798 -16.492223 3
35.951900 106.971004 -16.304578 3
37.703799 109.885940 -16.117943 3
39.418143 112.819214 -15.920678 3
41.149592 115.730518 -15.732237 3
42.886755 118.629686 -15.548286 3
44.603679 121.535920 -15.359571 3
46.338901 124.423065 -15.179376 3
48.061121 127.313612 -14.996670 3
49.755171 130.217722 -14.806246 3
51.463122 133.108276 -14.622333 3
53.130186 136.020777 -14.426362 3
54.879953 138.879132 -14.259452 3
56.971372 141.533462 -14.205933 3
60.179321 143.547690 -14.515808 3
65.853835 144.199722 -15.617515 3
72.880881 144.205063 -17.134865 3
80.182860 144.199486 -18.714671 3
87.760024 144.191868 -20.355362 3
95.617131 144.188630 -22.056809 3
103.717171 144.217346 -23.805857 3
112.228995 144.202419 -25.653378 3
121.072162 144.195956 -27.572200 3
127.021364 145.715076 -28.577936 0
136.349272 145.798696 -30.587207 0
146.262024 145.805360 -32.739002 0
156.723546 145.769694 -35.019080 0
167.655714 145.741999 -37.401143 0
179.126420 145.709145 -39.902485 0
189.751051 146.236753 -42.116583 0
201.089627 146.693289 -44.500568 0
-148.782531 -26.771260 -0.565909 7
-145.250857 -26.760455 -1.253208 7
-141.723840 -26.658381 -1.922708 7
-138.169702 -26.587726 -2.604095 7
-150.112381 27.690901 10.113607 7
-147.274410 28.368733 9.687419 7
-144.267963 28.515034 9.126117 7
-141.257500 28.702296 8.571367 7
-138.195689 28.784973 7.986066 7
-135.143920 28.955838 7.419092 7
-132.043828 29.042660 6.826077 7
-128.927250 29.143235 6.231949 7
-125.784359 29.232253 5.629939 7
-122.636430 29.368243 5.035400 7
-119.431437 29.418022 4.412664 7
-117.574393 32.839079 4.698301 8
-115.254945 35.034582 4.658491 8
-112.972796 37.264097 4.632039 8
-110.678279 39.413341 4.587354 8
-108.057648 40.798606 4.332134 8
-105.053069 41.355388 3.842645 8
-101.781065 41.391309 3.200525 8
-98.455364 41.382743 2.538791 8
-95.136259 41.455054 1.893248 8
-91.786019 41.531410 1.241784 8
-86.626615 38.246055 -0.408678 8
-84.886598 41.508618 -0.135570 8
-81.358174 41.459538 -0.847838 8
-77.856582 41.530697 -1.532453 8
-74.251922 41.492235 -2.258934 8
-70.581409 41.416606 -3.006123 8
-66.888214 41.379897 -3.750989 8
-61.153157 38.126790 -5.513782 9
-58.372033 39.748621 -5.763233 9
-55.504680 41.243709 -6.054466 9
-52.687175 42.826860 -6.319591 9
-49.831336 44.363477 -6.601734 9
-46.833216 45.707417 -6.949364 9
-43.388239 46.440793 -7.502551 9
-39.502115 46.611171 -8.251170 9
-35.333601 46.471154 -9.115660 9
-30.944124 46.124216 -10.064162 9
-26.603739 45.937841 -10.973071 9
-22.174536 45.729430 -11.904575 9
-17.608797 45.443790 -12.878698 9
-13.003185 45.207246 -13.852188 9
-8.260408 44.903409 -14.866585 9
-8.248118 50.266535 -13.861164 4
-9.264933 56.692967 -12.448635 4
-11.535311 64.370616 -10.548315 4
-13.239359 71.205789 -8.921200 1
-9.021005 71.429053 -9.733399 1
-17.675999 85.430224 -5.356460 1
-15.438724 87.605324 -5.402640 3
-14.639201 91.250227 -4.882646 3
-10.743813 91.734742 -5.582570 3
-12.019228 97.366999 -4.270797 2
-12.356008 101.960946 -3.344212 2
-9.926277 103.849348 -3.485626 2
-6.066628 104.427520 -4.162840 2
-5.946451 108.462967 -3.434928 2
-2.132569 109.144954 -4.084485 2
2.522571 109.157395 -5.030612 2
25.985591 93.203082 -12.782142 3
29.249314 94.883378 -13.135365 3
31.074123 97.779938 -12.969518 3
32.802207 100.743008 -12.772137 3
34.555856 103.672688 -12.586736 3
36.314845 106.586909 -12.405856 3
38.046923 109.511336 -12.218142 3
39.763503 112.437282 -12.027537 3
41.462146 115.366800 -11.833160 3
43.202788 118.257541 -11.655112 3
44.908491 121.165760 -11.467235 3
46.630551 124.055951 -11.286596 3
48.340021 126.948977 -11.103411 3
50.048178 129.837813 -10.921285 3
51.773492 132.711480 -10.746032 3
53.446781 135.614612 -10.555229 3
55.177723 138.479027 -10.383946 3
57.121680 141.215314 -10.280543 3
60.199617 143.296498 -10.531133 3
65.401251 144.205051 -11.434242 3
72.400523 144.205752 -12.874240 3
79.669512 144.197272 -14.372002 3
87.175824 144.205587 -15.916133 3
94.985579 144.203909 -17.525184 3
103.065392 144.218912 -19.187433 3
111.547249 144.193997 -20.940458 3
120.319067 144.196175 -22.748954 3
126.210910 145.718497 -23.686818 0
135.514959 145.784994 -25.594678 0
143.799134 146.486013 -27.177164 0
155.487685 145.870552 -29.702730 0
166.302626 145.856741 -31.939191 0
177.668254 145.829231 -34.292621 0
189.615901 145.792723 -36.768693 0
202.179236 145.752241 -39.373508 0
215.226166 145.776265 -42.067401 0
229.184385 145.723574 -44.964460 0
-148.260274 -26.581870 3.487049 7
-144.713347 -26.659483 2.792112 7
-141.170208 -26.642833 2.114685 7
-137.563550 -26.782301 1.396759 7
-149.487482 27.116030 13.390121 7
-146.503436 27.305758 12.850735 7
-143.508011 27.508664 12.311370 7
-140.489118 27.687883 11.763067 7
-137.444672 27.841658 11.205108 7
-134.400210 28.049377 10.656688 7
-131.349886 28.291631 10.113189 7
-128.245262 28.434250 9.541149 7
-125.127028 28.596793 8.969908 7
-121.981204 28.743482 8.390335 7
-118.802146 28.863633 7.799421 7
-117.023233 32.467054 8.104518 8
-114.781360 34.837960 8.098605 8
-112.566707 37.210116 8.098000 8
-110.210684 39.204096 8.001987 8
-107.509115 40.401807 7.696034 8
-104.517533 40.983864 7.223317 8
-101.260447 41.049179 6.606338 8
-97.993151 41.156993 5.994859 8
-94.667460 41.210784 5.362233 8
-91.321731 41.290852 4.730290 8
-87.945397 41.377554 4.093458 8
-84.505297 41.411439 3.434650 8
-81.036044 41.460783 2.772814 8
-77.521265 41.497969 2.099823 8
-73.960572 41.525448 1.416039 8
-70.383251 41.595485 0.736503 8
-66.660083 41.494983 -0.002026 8
-61.114479 38.539267 -1.605680 9
-58.308550 40.099653 -1.869069 9
-55.478544 41.631625 -2.142394 9
-52.668377 43.204457 -2.404726 9
-49.826006 44.740032 -2.680155 9
-46.856077 46.104224 -3.011199 9
-43.495938 46.937609 -3.513185 9
-39.635656 47.122460 -4.228521 9
-35.525816 47.040757 -5.040184 9
-31.311105 46.903707 -5.882282 9
-27.048378 46.791569 -6.729417 9
-22.726596 46.691742 -7.585991 9
-18.314401 46.567339 -8.464698 9
-13.772186 46.374442 -9.381093 9
-12.982609 50.778034 -8.746444 4
-13.806068 56.990616 -7.475040 4
-22.976027 72.661503 -2.890491 1
-22.790683 77.232282 -2.109102 1
-21.702421 80.706278 -1.699479 1
-19.918365 83.371570 -1.569856 1
-17.455064 85.293041 -1.705415 1
-16.391865 88.683069 -1.306443 3
-14.631294 91.311975 -1.179269 3
-11.638143 92.687877 -1.515873 3
-14.061584 99.416366 0.157225 2
-13.415519 103.011399 0.673294 2
-9.912163 103.854028 0.141672 2
-5.647873 104.046049 -0.654382 2
-5.540911 108.089266 0.046133 2
-1.168789 108.270511 -0.773180 2
2.558273 109.096812 -1.351957 2
25.955772 93.183932 -8.748272 3
29.510998 94.607258 -9.187479 3
31.433585 97.416003 -9.061733 3
33.158024 100.376172 -8.870565 3
34.920806 103.292881 -8.694801 3
36.650113 106.224478 -8.510044 3
38.375906 109.147778 -8.326265 3
40.096566 112.064843 -8.142779 3
41.813879 114.975136 -7.960032 3
43.522595 117.883199 -7.776189 3
45.234793 120.781190 -7.595002 3
46.951601 123.669408 -7.416638 3
48.688551 126.538594 -7.245775 3
50.369469 129.440103 -7.058410 3
52.067044 132.326044 -6.877250 3
53.793663 135.190209 -6.705815 3
55.461136 138.088390 -6.516969 3
57.356762 140.847569 -6.397568 3
60.188896 143.064617 -6.557599 3
64.968688 144.201049 -7.290255 3
71.930708 144.202791 -8.650986 3
79.181407 144.183700 -10.072042 3
86.640714 144.195831 -11.528546 3
94.415409 144.190152 -13.050083 3
102.462626 144.198610 -14.622617 3
110.858896 144.191938 -16.266316 3
119.578041 144.193943 -17.971853 3
125.726446 145.572528 -18.930865 0
134.701751 145.765393 -20.653165 0
144.280386 145.862976 -22.510625 0
154.635989 145.809756 -24.547065 0
162.789891 146.887829 -25.952660 0
176.579684 145.803394 -28.844217 0
188.326428 145.811759 -31.142828 0
200.768164 145.779834 -33.584896 0
213.593139 145.846529 -36.084849 0
227.284401 145.846522 -38.766509 0
239.356462 146.685990 -40.983059 0
-147.889558 -25.792469 7.648598 7
-144.332883 -25.960036 6.948840 7
-140.752944 -26.127951 6.244821 7
-137.150207 -26.291445 5.537436 7
-148.609008 25.664953 16.470528 7
-145.655488 25.991258 15.968649 7
-142.674432 26.269545 15.453634 7
-139.658249 26.483168 14.921240 7
-136.620242 26.680639 14.382169 7
-133.585209 26.937931 13.853925 7
-130.523463 27.167831 13.316188 7
-127.411747 27.311257 12.754597 7
-124.313703 27.547109 12.211361 7
-121.185450 27.756303 11.658101 7
-118.571172 29.307392 11.428474 8
-116.452338 32.045346 11.492793 8
-114.199305 34.381525 11.464129 8
-112.013835 36.814029 11.464615 8
-109.634496 38.748547 11.344632 8
-106.882279 39.832495 11.010927 8
-103.834001 40.295458 10.516754 8
-100.592025 40.398353 9.925468 8
-97.331091 40.524033 9.334644 8
-94.029358 40.629750 8.732949 8
-90.712393 40.768435 8.134142 8
-87.368419 40.917697 7.532225 8
-83.975137 41.037884 6.916307 8
-80.498701 41.072289 6.270446 8
-77.011051 41.155429 5.630904 8
-73.511667 41.285408 4.997266 8
-69.953159 41.381767 4.347028 8
-66.346737 41.467416 3.686175 8
-60.851943 38.588468 2.169612 9
-58.144498 40.289350 1.951109 9
-55.316299 41.806974 1.679122 9
-52.516061 43.378023 1.421600 9
-49.680291 44.906833 1.150446 9
-46.687572 46.222161 0.813916 9
-43.385191 47.122932 0.349352 9
