ply
format ascii 1.0
element vertex 1384
property float x
property float y
property float z
property int scalar_Label
end_header
141.439510 -26.971407 -16.194353 6
138.499630 -27.031413 -16.074547 6
135.560504 -27.148642 -15.966621 6
132.638002 -27.253217 -15.859976 6
129.748290 -27.259753 -15.741533 6
126.856914 -27.330292 -15.635906 6
123.981331 -27.375757 -15.529479 6
121.107141 -27.472723 -15.433954 6
118.247477 -27.545650 -15.337716 6
116.299434 -21.644694 -14.321902 6
112.624205 -27.211572 -15.079737 5
109.385683 -30.342441 -15.466410 5
106.412606 -31.848416 -15.605376 5
103.610204 -32.143669 -15.559451 5
100.848472 -32.149790 -15.471281 5
98.084538 -32.234736 -15.398119 5
95.330062 -32.278718 -15.321241 5
92.580681 -32.318427 -15.246349 5
89.836240 -32.346373 -15.172240 5
87.096710 -32.347325 -15.096485 5
84.357743 -32.391975 -15.030200 5
81.623239 -32.387675 -14.958759 5
78.888697 -32.442316 -14.899188 5
76.156260 -32.491687 -14.841336 5
73.425469 -32.495919 -14.778855 5
70.694794 -32.507944 -14.720117 5
67.963793 -32.515539 -14.663171 5
65.233090 -32.569358 -14.616078 5
56.935535 130.091214 11.391217 3
59.253643 -20.922647 -12.651727 9
57.484638 -41.085204 -15.825696 9
54.936812 -42.814909 -16.058159 9
52.412117 -44.445532 -16.277657 9
49.917138 -46.096487 -16.503249 9
47.458958 -47.842137 -16.746834 9
44.980435 -49.101405 -16.915064 9
42.475869 -49.954424 -17.020602 9
39.935497 -50.422682 -17.066736 9
37.350832 -50.531282 -17.057373 9
34.751014 -50.564070 -17.038118 9
32.131288 -50.507735 -17.006810 9
29.517113 -50.539245 -16.991966 9
26.887152 -50.521935 -16.971567 9
24.254935 -50.541136 -16.959380 9
21.613413 -50.557041 -16.948996 9
18.956875 -50.544393 -16.936346 9
16.303009 -50.593277 -16.935985 9
13.623502 -50.570123 -16.926359 9
10.941700 -50.587297 -16.925625 9
8.244223 -50.586775 -16.924427 9
5.537295 -50.597575 -16.927468 9
2.802989 -50.552368 -16.923891 9
0.073297 -50.576680 -16.933987 9
-2.684115 -50.551030 -16.938482 9
-5.439781 -50.582914 -16.954752 9
-8.241843 -50.510480 -16.956697 9
-11.023982 -50.556447 -16.980279 9
-13.836237 -50.557770 -16.999217 9
-16.674808 -50.531908 -17.016359 9
-19.531399 -50.507185 -17.036303 9
-22.402222 -50.495977 -17.061070 9
-25.288454 -50.495806 -17.090288 9
-28.199475 -50.482949 -17.120176 9
-31.138699 -50.451638 -17.149846 9
-34.087586 -50.451308 -17.187274 9
-37.053179 -50.464298 -17.229653 9
-40.117496 -50.298605 -17.246275 9
-43.427961 -49.632658 -17.185845 9
-47.315411 -47.769211 -16.937304 9
-51.744655 -44.877893 -16.528494 9
-56.356620 -41.799567 -16.094158 9
-64.762707 -31.084073 -14.449066 8
-67.657811 -32.064832 -14.670639 8
-71.101075 -31.980785 -14.726231 8
-74.544752 -31.961920 -14.795665 8
-78.049461 -31.891881 -14.860558 8
-81.575349 -31.849430 -14.933451 8
-85.134719 -31.812730 -15.010953 8
-88.708642 -31.816747 -15.098629 8
-92.341444 -31.784829 -15.184490 8
-96.035531 -31.717405 -15.268717 8
-99.747271 -31.690644 -15.363331 8
-103.532262 -31.614754 -15.454380 8
-107.837272 -30.791628 -15.433466 8
-116.055920 -24.038658 -14.497784 8
-117.742421 -27.497160 -15.151542 7
-121.776574 -27.414902 -15.260745 7
-125.881186 -27.306722 -15.370664 7
-130.018498 -27.230255 -15.490288 7
-134.211729 -27.153827 -15.614854 7
-138.467499 -27.070958 -15.743499 7
-142.807438 -26.955725 -15.872430 7
-147.186261 -26.872002 -16.011502 7
150.184263 -28.483187 -13.472155 6
147.211142 -28.533510 -13.350269 6
144.261609 -28.550210 -13.225918 6
141.321884 -28.583279 -13.107133 6
138.397457 -28.608565 -12.989960 6
135.478335 -28.667287 -12.881078 6
132.581364 -28.681868 -12.767791 6
129.680552 -28.771638 -12.669585 6
126.806313 -28.786671 -12.561856 6
123.942419 -28.800773 -12.456648 6
121.074120 -28.896474 -12.367561 6
118.236159 -28.870440 -12.260986 6
115.852044 -25.902741 -11.668912 5
112.617447 -28.573731 -12.014787 5
109.407435 -31.513242 -12.409703 5
106.447986 -32.928445 -12.554592 5
103.624541 -33.433142 -12.550554 5
100.860363 -33.509126 -12.477407 5
98.109710 -33.508589 -12.393839 5
95.364116 -33.500527 -12.311359 5
92.620851 -33.512441 -12.234572 5
89.881310 -33.523623 -12.159982 5
87.143709 -33.557751 -12.091571 5
84.409016 -33.596675 -12.026269 5
81.678909 -33.580700 -11.953948 5
78.949198 -33.596160 -11.889202 5
76.220741 -33.613355 -11.826993 5
73.493174 -33.617078 -11.764723 5
70.765673 -33.619405 -11.704427 5
68.037635 -33.615327 -11.645240 5
65.309449 -33.648600 -11.594619 5
56.879166 133.711672 17.069486 3
59.254228 -20.109816 -9.171622 9
57.565480 -42.104932 -12.887455 9
54.761307 -39.748061 -12.437120 9
52.499066 -45.482957 -13.377007 9
49.999434 -47.045051 -13.603895 9
47.541132 -48.768612 -13.861063 9
45.064358 -50.027639 -14.040818 9
42.565027 -50.911229 -14.158280 9
40.018796 -51.314341 -14.195177 9
37.430361 -51.383633 -14.176615 9
34.831852 -51.418535 -14.154148 9
32.221757 -51.419056 -14.127770 9
29.615060 -51.487170 -14.115089 9
26.986045 -51.464388 -14.088735 9
24.348586 -51.444788 -14.064957 9
21.705905 -51.447365 -14.047051 9
19.062429 -51.493298 -14.038693 9
16.394619 -51.467936 -14.020052 9
13.726165 -51.490008 -14.011685 9
11.042142 -51.491453 -14.001821 9
8.351553 -51.514233 -13.997737 9
5.634790 -51.480513 -13.985964 9
2.919595 -51.504400 -13.986282 9
0.187675 -51.514697 -13.986372 9
-2.549902 -51.553902 -13.993613 9
-5.313325 -51.552508 -13.995979 9
-8.110102 -51.492162 -13.990309 9
-10.903005 -51.498570 -13.998402 9
-13.712991 -51.503054 -14.008378 9
-16.549115 -51.480919 -14.015985 9
-19.384271 -51.514367 -14.035478 9
-22.264975 -51.470817 -14.043932 9
-25.139463 -51.498767 -14.067071 9
-28.054637 -51.470937 -14.082903 9
-30.979729 -51.472314 -14.106156 9
-33.929107 -51.466764 -14.130612 9
-36.898509 -51.466982 -14.158496 9
-39.930909 -51.373597 -14.172701 9
-43.266087 -50.648307 -14.080528 9
-47.082974 -48.943794 -13.822461 9
-51.514192 -46.049181 -13.362702 9
-55.954367 -43.336285 -12.937713 9
-64.738381 -31.854667 -11.010387 8
-67.437398 -33.233547 -11.296272 8
-70.836012 -33.234041 -11.348369 8
-74.272189 -33.224541 -11.401743 8
-77.753188 -33.194178 -11.454594 8
-81.273354 -33.156800 -11.509358 8
-84.811786 -33.152403 -11.572920 8
-88.407809 -33.112058 -11.633579 8
-91.991771 -33.159507 -11.712469 8
-95.681593 -33.093683 -11.775450 8
-99.360833 -33.114849 -11.856630 8
-103.126882 -33.063477 -11.929014 8
-107.257962 -32.509541 -11.920106 8
-115.153985 -26.260531 -10.955029 8
-116.890837 -29.612313 -11.613283 7
-120.883070 -29.573619 -11.703806 7
-124.952113 -29.498241 -11.792161 7
-129.072725 -29.426561 -11.885237 7
-133.220065 -29.395308 -11.989259 7
-137.426935 -29.360030 -12.096888 7
-141.655204 -29.374319 -12.217136 7
-145.994943 -29.320235 -12.330525 7
150.157254 -29.676232 -10.311122 6
147.194852 -29.697352 -10.193205 6
144.243817 -29.731020 -10.080078 6
141.314200 -29.734918 -9.964346 6
138.385696 -29.789596 -9.859994 6
135.486603 -29.772288 -9.745570 6
132.593520 -29.779893 -9.637940 6
129.706806 -29.811475 -9.536936 6
126.832763 -29.835041 -9.436918 6
123.963443 -29.889697 -9.344744 6
121.111207 -29.905849 -9.248113 6
118.269561 -29.912927 -9.152169 6
115.886343 -26.965975 -8.534327 5
112.666401 -29.537223 -8.897729 5
109.465930 -32.400813 -9.317055 5
106.514695 -33.747701 -9.469771 5
103.699368 -34.178525 -9.461742 5
100.936813 -34.232427 -9.388605 5
98.184006 -34.246515 -9.310440 5
95.434207 -34.281520 -9.238097 5
92.689141 -34.315473 -9.167624 5
89.951098 -34.304026 -9.091014 5
87.212990 -34.344687 -9.025799 5
84.477696 -34.395577 -8.964442 5
81.749875 -34.315427 -8.881382 5
79.018302 -34.384426 -8.827251 5
76.290257 -34.373254 -8.760561 5
73.562443 -34.371671 -8.697539 5
70.834727 -34.396044 -8.641155 5
68.107016 -34.421394 -8.586868 5
65.377590 -34.395620 -8.525178 5
56.824282 137.328114 22.848940 3
59.251874 -19.221941 -5.646577 9
57.633369 -42.884140 -9.916802 9
55.083506 -44.543798 -10.172424 9
52.560095 -46.166099 -10.423577 9
50.065153 -47.793671 -10.678018 9
47.598082 -49.422802 -10.935032 9
45.124388 -50.720475 -11.133452 9
42.623783 -51.596958 -11.256615 9
40.082563 -52.045655 -11.303109 9
37.500664 -52.165525 -11.290954 9
34.900748 -52.188216 -11.262668 9
32.283387 -52.139776 -11.223014 9
29.671194 -52.175961 -11.200681 9
27.047610 -52.188733 -11.175772 9
24.415040 -52.197969 -11.151952 9
21.777455 -52.227576 -11.133637 9
19.121290 -52.210057 -11.108370 9
16.459343 -52.214880 -11.088982 9
13.778424 -52.182199 -11.064421 9
11.108789 -52.249176 -11.060054 9
8.414470 -52.257628 -11.046644 9
5.695977 -52.218925 -11.026295 9
2.981490 -52.247547 -11.020198 9
0.240807 -52.227934 -11.006981 9
-2.514536 -52.207976 -10.995519 9
-5.277812 -52.212551 -10.990430 9
-8.055756 -52.219143 -10.987560 9
-10.845355 -52.239058 -10.989020 9
-13.668282 -52.206790 -10.982693 9
-16.494277 -52.218712 -10.986444 9
-19.346832 -52.205377 -10.987431 9
-22.212796 -52.207517 -10.993216 9
-25.100758 -52.202519 -10.999631 9
-28.000963 -52.218413 -11.011888 9
-30.922892 -52.231209 -11.025567 9
-33.880024 -52.209724 -11.034924 9
-36.851826 -52.207975 -11.049979 9
-39.880232 -52.128164 -11.052677 9
-43.162418 -51.529165 -10.961546 9
-46.940683 -49.915352 -10.685199 9
-51.402964 -46.959631 -10.163573 9
-55.929635 -44.072038 -9.657318 9
-64.704344 -32.644464 -7.579094 8
-67.331099 -34.170349 -7.893113 8
-70.731389 -34.169599 -7.928063 8
-74.176964 -34.144444 -7.961021 8
-77.636966 -34.156319 -8.003339 8
-81.146687 -34.140297 -8.043116 8
-84.691119 -34.127140 -8.086061 8
-88.276781 -34.107385 -8.130485 8
-91.868391 -34.143841 -8.187954 8
-95.539865 -34.111539 -8.235617 8
-99.261928 -34.064905 -8.283520 8
-102.997023 -34.067138 -8.343276 8
-107.126779 -33.519948 -8.305787 8
-116.807466 -24.556783 -6.738508 8
-116.908479 -30.414534 -7.874921 7
-120.403070 -31.115895 -8.074893 7
-124.407197 -31.127752 -8.152706 7
-128.509410 -31.074391 -8.222057 7
-132.647540 -31.048141 -8.299781 7
-136.839476 -31.025676 -8.381729 7
-141.088098 -31.005507 -8.467718 7
-145.395412 -30.987494 -8.557815 7
-149.782566 -30.947173 -8.647723 7
150.203131 -30.600012 -7.114359 6
147.244792 -30.606814 -7.002387 6
144.296041 -30.632201 -6.896117 6
141.370300 -30.620987 -6.785274 6
138.437156 -30.695697 -6.692606 6
135.533279 -30.701463 -6.589269 6
132.635599 -30.733628 -6.492985 6
129.768879 -30.671433 -6.381125 6
126.892279 -30.708417 -6.289887 6
124.031190 -30.719196 -6.195770 6
121.175744 -30.752942 -6.107979 6
118.330215 -30.784223 -6.021712 6
115.977121 -27.655895 -5.340196 5
112.753883 -30.227914 -5.737869 5
109.559400 -33.022713 -6.181271 5
106.598562 -34.425270 -6.363787 5
103.774778 -34.916981 -6.375694 5
101.021464 -34.874824 -6.287980 5
98.268882 -34.869509 -6.209053 5
95.522460 -34.843151 -6.127865 5
92.773487 -34.898354 -6.064013 5
90.031727 -34.912400 -5.994033 5
87.296095 -34.873729 -5.915659 5
84.559234 -34.901593 -5.851742 5
81.825941 -34.899836 -5.783823 5
79.093257 -34.932295 -5.724160 5
76.363667 -34.868539 -5.647616 5
73.632780 -34.908912 -5.592784 5
70.902674 -34.944187 -5.538616 5
68.172809 -34.981623 -5.486501 5
65.442180 -34.997259 -5.431789 5
56.841023 138.863326 28.328619 3
59.249794 -18.331895 -2.087134 9
57.689659 -43.446798 -6.909407 9
55.137472 -45.102500 -7.181488 9
52.613010 -46.738224 -7.451794 9
50.113998 -48.338657 -7.717299 9
47.648405 -50.005450 -7.997769 9
45.175486 -51.326100 -8.212721 9
42.667513 -52.148895 -8.332341 9
40.128505 -52.630990 -8.387087 9
37.543953 -52.742783 -8.371007 9
34.946111 -52.791984 -8.344154 9
32.329919 -52.760906 -8.303037 9
29.716390 -52.796963 -8.276512 9
27.093185 -52.819779 -8.248844 9
24.459468 -52.829781 -8.220112 9
21.811574 -52.812642 -8.187501 9
19.162515 -52.839244 -8.164928 9
16.485103 -52.778121 -8.126572 9
13.819541 -52.823947 -8.110689 9
11.140284 -52.855542 -8.093477 9
8.442289 -52.856307 -8.071668 9
5.720976 -52.814220 -8.042896 9
3.008121 -52.856654 -8.032242 9
0.265642 -52.837650 -8.010976 9
-2.483385 -52.846895 -7.996770 9
-5.242774 -52.870569 -7.986913 9
-8.036336 -52.831577 -7.966215 9
-10.818718 -52.881106 -7.964496 9
-13.639607 -52.861081 -7.950596 9
-16.469094 -52.868302 -7.943618 9
-19.313772 -52.883339 -7.939744 9
-22.189357 -52.863859 -7.930634 9
-25.069440 -52.885827 -7.931292 9
-27.980402 -52.878688 -7.927813 9
-30.925170 -52.839377 -7.919606 9
-33.858762 -52.883352 -7.929477 9
-36.835378 -52.875736 -7.930826 9
-39.882873 -52.757515 -7.912029 9
-43.201293 -52.084724 -7.785520 9
-46.961449 -50.524131 -7.485636 9
-51.435238 -47.558985 -6.910593 9
-55.962716 -44.685602 -6.355690 9
-64.769461 -33.230098 -4.111031 8
-67.374372 -34.806187 -4.437872 8
-70.794197 -34.776433 -4.450120 8
-74.219393 -34.800239 -4.474932 8
-77.692702 -34.796266 -4.496315 8
-81.203318 -34.788165 -4.518965 8
-84.753034 -34.775121 -4.542759 8
-88.327354 -34.784817 -4.573180 8
-91.986804 -34.714837 -4.590138 8
-95.629647 -34.741988 -4.628420 8
-99.335357 -34.732698 -4.661823 8
-103.101705 -34.695045 -4.691991 8
-107.256907 -34.120707 -4.619379 8
-114.747883 -28.541876 -3.569482 8
-116.874538 -31.293515 -4.153627 7
-120.330337 -32.056461 -4.350695 7
-124.329875 -32.080613 -4.405828 7
-128.400935 -32.077012 -4.458208 7
-132.527027 -32.072507 -4.513148 7
-136.711534 -32.065096 -4.570324 7
-140.971666 -32.034721 -4.625907 7
-145.306070 -31.987107 -4.681096 7
-149.685782 -31.962794 -4.743846 7
150.371262 -31.079243 -3.837063 6
147.402750 -31.107939 -3.737698 6
144.454764 -31.114479 -3.635887 6
141.508521 -31.170061 -3.545651 6
138.597547 -31.135731 -3.439489 6
135.687077 -31.151193 -3.344994 6
132.793097 -31.146198 -3.248228 6
129.902434 -31.179291 -3.160795 6
127.030054 -31.176279 -3.067914 6
124.170211 -31.159303 -2.973943 6
121.305259 -31.224187 -2.898013 6
118.462860 -31.213632 -2.808663 6
116.120964 -28.000001 -2.078267 5
112.931184 -30.292979 -2.454055 5
109.699983 -33.292250 -2.974908 5
106.727169 -34.740771 -3.186545 5
103.906474 -35.159835 -3.192788 5
101.138410 -35.206194 -3.125454 5
98.378405 -35.230319 -3.055132 5
95.624494 -35.241591 -2.983685 5
92.878437 -35.204376 -2.903858 5
90.132922 -35.201936 -2.832510 5
87.388564 -35.232577 -2.769307 5
84.646995 -35.270468 -2.709000 5
81.910804 -35.233530 -2.634846 5
79.173887 -35.256585 -2.574295 5
76.438996 -35.243407 -2.507715 5
73.704257 -35.249314 -2.446383 5
70.969687 -35.263112 -2.388010 5
68.234395 -35.239800 -2.323365 5
65.498698 -35.259583 -2.268871 5
56.898690 139.203355 33.620464 3
59.249293 -17.469493 1.501700 9
57.738163 -43.863184 -3.871501 9
55.177435 -45.439253 -4.144407 9
52.650793 -47.102938 -4.437200 9
50.160273 -48.852613 -4.749565 9
47.682267 -50.410540 -5.024161 9
45.202203 -51.694083 -5.243779 9
42.698937 -52.591487 -5.385135 9
40.147450 -52.995865 -5.425890 9
37.553345 -53.064084 -5.398292 9
34.944088 -53.062996 -5.357505 9
32.331549 -53.087383 -5.323161 9
29.711138 -53.107385 -5.289068 9
27.084644 -53.137094 -5.258151 9
24.442322 -53.124389 -5.219576 9
21.095086 -49.505503 -4.431876 9
19.138859 -53.148704 -5.156219 9
16.464588 -53.124425 -5.118682 9
13.790512 -53.151656 -5.093027 9
11.095573 -53.135924 -5.059572 9
8.396363 -53.152931 -5.034101 9
5.677425 -53.140222 -5.003589 9
2.949841 -53.145312 -4.977953 9
0.212235 -53.163335 -4.956185 9
-2.536892 -53.189735 -4.937342 9
-5.323022 -53.139808 -4.903715 9
-8.109275 -53.143503 -4.882478 9
-10.899152 -53.186429 -4.870640 9
-13.722121 -53.177138 -4.849067 9
-16.568636 -53.150668 -4.825096 9
-19.413956 -53.181121 -4.814255 9
-22.284505 -53.192202 -4.800576 9
-25.181616 -53.183974 -4.784077 9
-28.079083 -53.228252 -4.779823 9
-31.036315 -53.172172 -4.755772 9
-33.986373 -53.190603 -4.748606 9
-36.957131 -53.212687 -4.743479 9
-39.995192 -53.131511 -4.717969 9
-43.298960 -52.507372 -4.579800 9
-47.136903 -50.791465 -4.213760 9
-51.566722 -47.945060 -3.611685 9
-56.116705 -45.045672 -2.999776 9
-64.735851 -34.018325 -0.682897 8
-67.626247 -35.025666 -0.893892 8
-71.044620 -35.017937 -0.893290 8
-74.478187 -35.044341 -0.901372 8
-77.980742 -35.004541 -0.897100 8
-81.483083 -35.030899 -0.908281 8
-85.056850 -34.993831 -0.907742 8
-88.632731 -35.020038 -0.922101 8
-92.275298 -34.997864 -0.927954 8
-95.956066 -34.979935 -0.936374 8
-99.662116 -34.989181 -0.952201 8
-103.418035 -34.986989 -0.967366 8
-107.693248 -34.245639 -0.829391 8
-115.669315 -27.965589 0.467090 8
-116.842231 -32.169376 -0.434907 7
-120.579319 -32.525842 -0.532694 7
-124.635980 -32.483526 -0.548910 7
-128.717607 -32.482056 -0.575660 7
-132.874004 -32.453037 -0.598677 7
-137.088199 -32.423506 -0.623668 7
-141.342921 -32.418878 -0.655990 7
-145.683497 -32.381683 -0.683690 7
-150.043111 -32.401251 -0.725469 7
150.623892 -31.255377 -0.492020 6
147.657967 -31.246022 -0.393218 6
144.705549 -31.239281 -0.296518 6
141.752211 -31.291506 -0.213707 6
138.822439 -31.303944 -0.124085 6
135.913162 -31.281997 -0.028723 6
132.995083 -31.354036 0.045412 6
130.109708 -31.328740 0.138595 6
127.235202 -31.299856 0.231146 6
124.368929 -31.277930 0.320861 6
121.507813 -31.278525 0.404462 6
118.668523 -31.200992 0.503291 6
116.189460 -28.834863 1.086764 6
113.105048 -30.387188 0.837202 5
109.869853 -33.347353 0.285789 5
106.889914 -34.784996 0.056030 5
104.048454 -35.316783 0.017598 5
101.280874 -35.296606 0.095626 5
98.512417 -35.335275 0.159889 5
95.752012 -35.341915 0.229822 5
92.997316 -35.328273 0.302948 5
90.241211 -35.386817 0.359442 5
87.493919 -35.361554 0.432798 5
84.750797 -35.289168 0.515195 5
82.005495 -35.295495 0.579574 5
79.261044 -35.333235 0.636092 5
76.519386 -35.306002 0.705547 5
73.777727 -35.277718 0.774184 5
71.035704 -35.290939 0.832806 5
68.293238 -35.287465 0.894001 5
65.550537 -35.318091 0.946781 5
56.967974 139.208616 38.871307 3
59.248186 -16.584198 5.131015 9
57.774688 -44.053506 -0.779882 9
55.208330 -45.631527 -1.069544 9
52.679305 -47.340217 -1.389227 9
50.172439 -48.954616 -1.689949 9
47.694672 -50.584265 -1.995528 9
45.209736 -51.875375 -2.228706 9
42.708044 -52.836087 -2.391055 9
40.160835 -53.315756 -2.449433 9
37.558778 -53.356046 -2.412694 9
34.942739 -53.339448 -2.364381 9
32.330353 -53.396005 -2.332965 9
29.700286 -53.384161 -2.287427 9
27.063719 -53.383560 -2.245213 9
24.424884 -53.418323 -2.211623 9
21.771814 -53.423632 -2.172421 9
19.088147 -53.326093 -2.111445 9
16.429842 -53.404996 -2.090131 9
13.746733 -53.414482 -2.054393 9
11.040010 -53.371175 -2.007864 9
8.328109 -53.359467 -1.969136 9
5.611912 -53.381231 -1.938635 9
2.876506 -53.378563 -1.903585 9
0.128955 -53.382001 -1.870725 9
-2.628684 -53.400171 -1.841965 9
-5.405483 -53.403067 -1.810673 9
-8.199976 -53.399090 -1.778704 9
-11.015736 -53.379754 -1.744179 9
-13.836749 -53.397146 -1.718634 9
-16.681986 -53.394037 -1.689398 9
-19.539344 -53.408715 -1.664959 9
-22.424675 -53.397788 -1.635698 9
-25.324978 -53.400248 -1.610266 9
-28.252658 -53.384626 -1.581684 9
-31.189809 -53.399560 -1.560755 9
-34.145182 -53.422940 -1.542581 9
-37.151162 -53.378678 -1.510250 9
-40.171529 -53.358210 -1.484090 9
-43.554200 -52.574896 -1.289082 9
-47.405870 -50.854811 -0.886344 9
-51.919973 -47.856545 -0.199674 9
-56.553799 -44.814876 0.496152 9
-64.868250 -34.467302 2.819116 8
-68.063651 -34.878169 2.744852 8
-71.473499 -34.914976 2.752909 8
-74.925767 -34.932561 2.764224 8
-78.431606 -34.913649 2.782641 8
-81.956773 -34.924891 2.793284 8
-85.513291 -34.945081 2.800867 8
-89.122205 -34.939314 2.813163 8
-92.768845 -34.936296 2.823753 8
-96.476236 -34.899904 2.840683 8
-100.190899 -34.921172 2.843617 8
-103.950914 -34.938275 2.846334 8
-108.438470 -33.894916 3.084670 8
-116.622403 -27.349192 4.550519 8
-117.370510 -32.210722 3.467963 7
-121.370795 -32.206727 3.470628 7
-125.389610 -32.250139 3.461444 7
-129.500431 -32.237799 3.463422 7
-133.688211 -32.196169 3.470627 7
-137.879584 -32.228059 3.460074 7
-142.163093 -32.215202 3.458143 7
-146.538882 -32.162694 3.463664 7
150.948735 -31.176289 2.921993 6
147.980299 -31.138032 3.019123 6
145.004966 -31.179719 3.097376 6
142.051094 -31.194114 3.180457 6
139.119306 -31.172293 3.270392 6
136.196833 -31.162939 3.356427 6
133.274009 -31.209746 3.428855 6
130.385143 -31.151493 3.523548 6
128.132014 -27.892374 4.330841 6
124.635337 -31.036343 3.709513 6
121.754612 -31.085900 3.777029 6
118.894922 -31.068936 3.858385 6
116.172635 -30.218552 4.125482 6
113.377005 -29.810536 4.292817 5
110.097758 -32.978477 3.656281 5
107.087542 -34.556275 3.374686 5
104.232317 -35.114790 3.320801 5
101.438585 -35.247944 3.361588 5
98.667702 -35.222764 3.437144 5
95.897808 -35.234258 3.503558 5
93.135621 -35.200835 3.579267 5
90.374472 -35.196210 3.647632 5
87.618421 -35.153430 3.723816 5
84.863081 -35.132682 3.794209 5
82.108378 -35.140135 3.857407 5
79.357051 -35.082662 3.934569 5
76.604442 -35.099537 3.994066 5
73.852820 -35.097882 4.057010 5
71.101095 -35.067822 4.125677 5
68.349071 -35.094010 4.180781 5
65.528900 -32.230569 4.895094 5
59.246170 -15.668521 8.804422 9
57.791893 -43.878031 2.406155 9
55.227219 -45.632098 2.059788 9
52.686111 -47.279143 1.736600 9
50.173064 -48.917053 1.414200 9
47.691874 -50.594189 1.081498 9
45.213782 -52.023082 0.804617 9
42.691899 -52.857043 0.663535 9
40.140413 -53.360562 0.597671 9
37.534478 -53.424602 0.632369 9
34.918178 -53.454068 0.674439 9
32.287832 -53.435017 0.727128 9
29.648791 -53.412433 0.780071 9
27.008666 -53.433939 0.822258 9
24.363510 -53.473520 0.859695 9
21.702415 -53.474671 0.905469 9
19.025805 -53.447903 0.957170 9
16.341159 -53.434736 1.005182 9
13.651196 -53.447913 1.046546 9
10.948525 -53.454853 1.088822 9
8.236715 -53.473234 1.127908 9
5.493634 -53.417339 1.183750 9
2.760909 -53.454615 1.217394 9
0.004292 -53.452818 1.259617 9
-2.773571 -53.427601 1.306790 9
-5.546462 -53.471574 1.337319 9
-8.361214 -53.427900 1.387795 9
-11.174543 -53.442939 1.424065 9
-14.006857 -53.451171 1.461422 9
-16.871974 -53.414754 1.508728 9
-19.744354 -53.412319 1.547595 9
-22.623159 -53.445040 1.577736 9
-25.546181 -53.410835 1.623065 9
-28.463760 -53.446162 1.651608 9
-31.423826 -53.426339 1.692598 9
-34.408774 -53.400967 1.734410 9
-37.397874 -53.421768 1.764898 9
-40.482985 -53.274147 1.834488 9
-43.894429 -52.453813 2.061863 9
-47.861939 -50.510248 2.553309 9
-52.539208 -47.202529 3.365983 9
-57.176767 -44.200898 4.106892 9
-65.202984 -34.505854 6.425814 8
-68.638888 -34.461527 6.470581 8
-72.076710 -34.478459 6.500385 8
-75.548877 -34.493040 6.530218 8
-79.094525 -34.435138 6.576646 8
-82.627313 -34.467894 6.601139 8
-86.231184 -34.439055 6.639661 8
-89.858954 -34.436374 6.671472 8
-93.521267 -34.442343 6.700704 8
-97.241061 -34.420715 6.735934 8
-100.996841 -34.410244 6.767987 8
-104.860969 -34.298066 6.823599 8
-116.783331 -21.789725 9.817400 8
-116.897687 -27.768166 8.428707 7
-118.566023 -31.266916 7.626604 7
-122.599164 -31.259778 7.655411 7
-126.665645 -31.279856 7.677182 7
-130.781180 -31.306083 7.696907 7
-134.958250 -31.323552 7.718121 7
-139.224946 -31.297755 7.749021 7
-143.553464 -31.270360 7.779701 7
-147.930812 -31.260860 7.805517 7
148.386475 -30.724955 6.522895 6
145.421747 -30.672402 6.614801 6
142.451651 -30.693405 6.688715 6
139.518000 -30.619041 6.784082 6
136.592081 -30.559803 6.875143 6
133.662786 -30.566237 6.950060 6
130.764449 -30.479113 7.046148 6
127.848523 -30.527867 7.109624 6
124.958841 -30.496341 7.191213 6
122.072822 -30.495530 7.264873 6
119.198228 -30.480817 7.341109 6
116.329832 -30.479401 7.413533 6
113.712694 -28.808391 7.879492 5
110.386662 -32.170114 7.156120 5
107.318823 -34.068748 6.776618 5
104.433827 -34.769251 6.679343 5
101.637621 -34.815896 6.736152 5
98.853362 -34.801601 6.806820 5
96.072930 -34.793721 6.875403 5
93.294899 -34.806726 6.938468 5
90.526987 -34.724932 7.023551 5
87.753315 -34.772687 7.077276 5
84.990071 -34.670666 7.166185 5
82.222343 -34.694467 7.224600 5
79.458069 -34.664312 7.295407 5
76.693913 -34.655334 7.360683 5
73.930199 -34.635573 7.428077 5
71.166231 -34.643171 7.488468 5
68.401777 -34.637965 7.551483 5
65.635910 -34.618364 7.617523 5
59.244198 -14.744069 12.518920 9
57.807113 -43.661891 5.622041 9
55.225791 -45.308082 5.283192 9
52.680802 -47.050874 4.919980 9
50.169035 -48.823025 4.548592 9
47.672480 -50.425384 4.217134 9
45.181333 -51.815982 3.935876 9
42.654746 -52.692482 3.778126 9
40.096792 -53.217412 3.704852 9
37.475478 -53.233066 3.754511 9
34.844390 -53.225437 3.809520 9
32.212067 -53.258288 3.854422 9
29.561311 -53.221840 3.915877 9
26.907740 -53.221393 3.968325 9
24.244445 -53.216203 4.021671 9
21.577060 -53.238874 4.067983 9
18.894061 -53.231382 4.121400 9
16.203067 -53.236184 4.171587 9
13.492852 -53.204117 4.230551 9
10.775406 -53.193487 4.284073 9
8.052426 -53.210832 4.330548 9
5.309708 -53.199551 4.383822 9
2.559229 -53.210184 4.431541 9
-0.207691 -53.211115 4.481448 9
-2.977392 -53.253011 4.521128 9
-5.779418 -53.234638 4.575422 9
-8.599998 -53.208864 4.631379 9
-11.416067 -53.250530 4.670608 9
-14.280111 -53.196509 4.733225 9
-17.142166 -53.204040 4.780565 9
-20.020558 -53.217469 4.826317 9
-22.910254 -53.252037 4.866727 9
-25.837783 -53.237145 4.919219 9
-28.785592 -53.224424 4.971073 9
-31.752636 -53.218262 5.021212 9
-34.739116 -53.219547 5.069419 9
-39.383358 -49.339073 6.078707 9
-40.883191 -52.988935 5.223371 9
-44.366282 -52.040781 5.506837 9
-48.608561 -49.534300 6.177318 9
-53.253912 -46.351692 7.016590 9
-58.056674 -43.058904 7.884377 9
-67.586332 -30.387579 11.085967 8
-69.430039 -33.623325 10.332871 8
-72.907747 -33.607770 10.388423 8
-76.393961 -33.640895 10.431837 8
-79.966720 -33.577480 10.499321 8
-83.551318 -33.560945 10.555135 8
-87.187142 -33.520928 10.616841 8
-90.837887 -33.523718 10.667888 8
-94.535307 -33.515234 10.721794 8
-98.271714 -33.511107 10.774662 8
-102.062882 -33.487900 10.832372 8
-111.237650 -25.047481 13.000764 8
-114.464178 -26.215400 12.761310 8
-116.849261 -28.678813 12.196194 7
-120.434882 -29.337888 12.083707 7
-124.536145 -29.297313 12.147049 7
-128.700463 -29.244261 12.213676 7
-132.902665 -29.217033 12.273960 7
-137.137018 -29.224484 12.325668 7
-141.474097 -29.172999 12.392407 7
-145.874116 -29.120794 12.459530 7
148.978371 -29.633461 10.221660 6
145.994088 -29.575730 10.307703 6
143.014970 -29.549198 10.385617 6
140.045067 -29.538306 10.459218 6
137.089219 -29.521208 10.533885 6
134.139100 -29.532367 10.601153 6
131.211085 -29.494136 10.680156 6
128.293356 -29.455615 10.758830 6
125.385686 -29.414788 10.837688 6
122.479411 -29.416942 10.905551 6
119.591600 -29.364036 10.986663 6
116.700463 -29.380921 11.050152 6
114.139506 -27.199909 11.658257 5
110.735879 -30.933911 10.799032 5
107.605404 -33.155090 10.313551 5
104.685796 -34.000358 10.168857 5
101.881204 -33.976506 10.239793 5
99.082238 -33.943749 10.312684 5
96.284614 -33.942541 10.377461 5
93.493462 -33.911082 10.449539 5
90.704546 -33.891718 10.518372 5
87.919316 -33.855897 10.591104 5
85.134050 -33.862105 10.653121 5
82.352200 -33.835788 10.723082 5
79.571391 -33.810541 10.792596 5
76.790280 -33.838175 10.848676 5
74.010859 -33.779502 10.926253 5
71.230445 -33.758587 10.994212 5
68.448840 -33.713918 11.068014 5
65.666101 -33.700900 11.133734 5
59.243318 -13.834885 16.269922 9
57.801363 -43.045559 8.960929 9
55.213836 -44.814139 8.573950 9
52.659850 -46.606566 8.180087 9
50.131842 -48.328027 7.803337 9
47.640355 -50.119598 7.408015 9
45.144351 -51.565525 7.099520 9
42.600848 -52.380580 6.950487 9
40.042034 -52.985005 6.854587 9
37.402279 -52.936466 6.924436 9
34.755678 -52.894545 6.992627 9
32.112226 -52.926565 7.042020 9
29.455372 -52.920621 7.101102 9
26.784787 -52.884541 7.167914 9
24.120092 -52.933013 7.213197 9
21.425027 -52.868587 7.287373 9
18.739492 -52.906228 7.335538 9
16.026118 -52.859772 7.405298 9
13.320773 -52.902684 7.452271 9
10.585055 -52.862515 7.520635 9
7.853572 -52.892894 7.571024 9
5.087842 -52.837473 7.643568 9
1.275538 -48.919309 8.709532 9
-0.490129 -52.719644 7.790957 9
-3.274503 -52.758706 7.839690 9
-6.088773 -52.746394 7.901826 9
-8.922326 -52.724385 7.966656 9
-11.785542 -52.663395 8.041763 9
-14.623304 -52.735420 8.082726 9
-17.513395 -52.702848 8.150943 9
-20.419977 -52.678712 8.217229 9
-23.338878 -52.675665 8.278313 9
-26.286295 -52.650770 8.345331 9
-29.242535 -52.658698 8.404119 9
-32.217660 -52.673388 8.461440 9
-35.249221 -52.604748 8.540739 9
-38.273439 -52.612650 8.600466 9
-41.382512 -52.480361 8.697060 9
-44.998216 -51.274308 9.074141 9
-49.379466 -48.514038 9.857930 9
-54.259434 -44.889593 10.869260 9
-64.845038 -29.655079 14.919418 8
-67.113922 -32.079928 14.354282 8
-70.591203 -32.062537 14.428403 8
-74.115947 -32.018494 14.510018 8
-77.631915 -32.057770 14.570294 8
-81.256992 -31.959851 14.667139 8
-84.887774 -31.922203 14.748736 8
-88.547576 -31.902029 14.826329 8
-92.274574 -31.834830 14.916928 8
-96.005642 -31.831983 14.991209 8
-99.805790 -31.784795 15.077851 8
-103.656382 -31.728379 15.167631 8
-108.211449 -30.637483 15.531885 8
-116.837076 -23.401401 17.525254 7
-119.060187 -26.186500 16.866082 7
-123.142881 -26.188211 16.944999 7
-127.381175 -26.040753 17.064380 7
-131.654509 -25.926388 17.175901 7
-136.002146 -25.791385 17.293873 7
-140.384918 -25.692883 17.403119 7
-144.820731 -25.607637 17.509845 7
-149.285603 -25.568917 17.605189 7
149.676785 -28.163921 14.064034 6
146.660440 -28.133212 14.135982 6
143.667207 -28.064804 14.217514 6
140.678282 -28.029529 14.290403 6
137.698678 -28.007256 14.359835 6
134.728367 -27.997085 14.426047 6
131.779995 -27.937146 14.505038 6
128.830298 -27.934019 14.569275 6
125.897297 -27.897868 14.641998 6
122.966915 -27.898888 14.705047 6
120.065996 -27.779986 14.799162 6
117.155925 -27.759796 14.867668 6
114.665626 -24.938228 15.664138 5
111.153789 -29.215152 14.615644 5
107.947754 -31.818241 14.000972 5
104.995942 -32.748817 13.820896 5
102.142730 -32.985869 13.821271 5
99.324226 -32.968134 13.888069 5
96.514103 -32.904688 13.966864 5
93.701810 -32.908303 14.028217 5
90.897543 -32.848330 14.106278 5
88.094275 -32.805791 14.179883 5
85.290651 -32.809612 14.241453 5
82.489710 -32.800718 14.306463 5
79.690542 -32.779347 14.374871 5
76.893024 -32.700138 14.458615 5
74.094111 -32.677657 14.527617 5
71.294779 -32.645417 14.599352 5
68.494700 -32.640749 14.664002 5
65.692260 -32.579858 14.743655 5
59.242497 -12.916637 20.064512 9
57.783161 -42.188041 12.395961 9
55.180371 -43.974570 11.985564 9
52.612143 -45.793056 11.566113 9
50.084422 -47.709003 11.120234 9
47.583802 -49.550847 10.693374 9
45.071603 -50.968059 10.378650 9
40.489368 -33.843127 14.990454 9
39.938004 -52.353500 10.133393 9
37.298318 -52.410734 10.179867 9
34.647980 -52.433457 10.235813 9
31.362700 -48.361974 11.383827 9
29.308519 -52.372072 10.377152 9
26.621565 -52.319080 10.454311 9
23.938504 -52.341989 10.511558 9
21.241424 -52.339411 10.575986 9
18.539149 -52.361012 10.634323 9
15.809044 -52.300664 10.715021 9
13.082247 -52.310326 10.777374 9
10.327517 -52.250781 10.858741 9
7.573793 -52.250669 10.924601 9
4.807715 -52.253050 10.990250 9
2.014468 -52.204557 11.070076 9
-0.761432 -52.273199 11.118834 9
-3.596105 -52.184826 11.210440 9
-6.415069 -52.206877 11.272784 9
-9.258923 -52.199285 11.343674 9
-12.128018 -52.166056 11.422066 9
-15.014960 -52.134016 11.500729 9
-17.912229 -52.126993 11.573220 9
-20.828577 -52.120001 11.646320 9
-23.774529 -52.086284 11.727320 9
-26.742503 -52.050327 11.809601 9
-29.740205 -51.994490 11.897989 9
-32.736593 -52.000070 11.970362 9
-35.770028 -51.970690 12.052988 9
-38.842263 -51.907040 12.145732 9
-42.132109 -51.402682 12.359790 9
-45.872798 -49.972407 12.828402 9
-50.528178 -46.679139 13.809227 9
-55.677317 -42.562869 15.018655 9
-64.977261 -30.113673 18.520112 8
-68.523674 -29.965201 18.647923 8
-72.066505 -29.895264 18.755199 8
-75.619609 -29.873814 18.850177 8
-79.254290 -29.765681 18.970138 8
-82.897232 -29.713650 19.075758 8
-86.591676 -29.638614 19.188894 8
-90.330320 -29.557194 19.305002 8
-94.092952 -29.506732 19.413773 8
-97.915513 -29.427312 19.531845 8
-101.761375 -29.383159 19.641439 8
-105.823668 -29.064953 19.828623 8
-116.794133 -18.003113 23.010373 7
-119.494874 -20.172287 22.510749 7
-123.836529 -19.861874 22.703603 7
-128.244687 -19.543335 22.900489 7
-132.714397 -19.227120 23.098544 7
-137.200460 -18.979683 23.279187 7
-141.741725 -18.746062 23.457832 7
-146.367119 -18.489180 23.644949 7
150.627798 -25.784490 18.208483 6
147.586662 -25.715275 18.283341 6
144.547874 -25.688922 18.346883 6
141.525859 -25.648338 18.414510 6
138.533146 -25.534290 18.502246 6
135.532979 -25.500755 18.568504 6
132.541548 -25.479378 18.631743 6
129.571117 -25.407272 18.708998 6
126.612820 -25.319875 18.790704 6
123.650317 -25.302792 18.853661 6
120.702664 -25.251985 18.926074 6
117.765787 -25.182974 19.003759 6
115.431573 -21.081723 20.177931 5
112.898524 -17.877144 21.110179 5
108.379032 -29.804683 17.924251 5
105.343937 -31.195579 17.604588 5
102.481578 -31.293413 17.637278 5
99.637241 -31.281564 17.700216 5
96.803366 -31.202571 17.781864 5
93.969848 -31.154194 17.855556 5
91.136907 -31.138923 17.920602 5
88.310229 -31.065324 18.002021 5
85.482004 -31.050635 18.067743 5
82.655464 -31.041193 18.132454 5
79.833163 -30.929446 18.225674 5
77.007995 -30.919621 18.291398 5
74.183422 -30.882190 18.365169 5
71.358240 -30.870947 18.432220 5
68.531876 -30.820688 18.510497 5
65.703962 -30.789883 18.583928 5
59.240938 -11.970285 23.909501 9
57.735260 -40.760325 16.027706 9
55.128565 -42.838624 15.517807 9
52.556353 -44.866473 15.021414 9
50.015758 -46.832736 14.541646 9
47.486651 -48.544984 14.131890 9
44.973352 -50.123819 13.758874 9
42.417475 -51.091761 13.555287 9
39.808303 -51.515733 13.502988 9
37.149434 -51.550319 13.559394 9
34.480937 -51.561231 13.622985 9
31.797005 -51.518770 13.702071 9
29.102380 -51.465130 13.784938 9
26.406420 -51.459169 13.855178 9
23.704792 -51.472374 13.920738 9
20.992711 -51.479964 13.988550 9
18.253858 -51.405928 14.079921 9
15.518921 -51.407155 14.150961 9
12.768665 -51.390650 14.227717 9
9.996187 -51.332058 14.317061 9
7.221690 -51.320988 14.393857 9
4.422781 -51.267016 14.483529 9
1.629400 -51.289190 14.552601 9
-1.192182 -51.260088 14.636957 9
-4.025495 -51.244480 14.718379 9
-6.889953 -51.178485 14.814929 9
-9.766532 -51.130630 14.907289 9
-12.641211 -51.144705 14.983067 9
-15.541799 -51.133262 15.067018 9
-18.481711 -51.061855 15.168966 9
-21.423068 -51.044708 15.256542 9
-24.364236 -51.083357 15.329282 9
-27.355926 -51.040693 15.426199 9
-30.368790 -51.001170 15.523326 9
-33.403147 -50.965739 15.620415 9
-36.464711 -50.922209 15.720976 9
-39.593688 -50.778466 15.851396 9
-42.984006 -50.099780 16.136325 9
-47.043716 -48.019445 16.824891 9
-52.074178 -43.993669 18.074754 9
-57.546890 -39.295079 19.522222 9
-66.874807 -26.926961 23.182028 8
-70.441073 -26.843262 23.311950 8
-74.075851 -26.694251 23.462310 8
-77.746036 -26.550407 23.612859 8
-81.416203 -26.480048 23.743872 8
-85.166066 -26.334494 23.898387 8
-88.920582 -26.255388 24.035447 8
-92.769217 -26.084272 24.201059 8
-96.631296 -25.967461 24.352818 8
-100.594961 -25.756606 24.533936 8
-104.451772 -25.800707 24.642756 8
210.459335 138.594257 67.861861 0
204.759737 135.861304 67.164823 0
200.155359 136.685554 67.469566 0
195.326907 136.662597 67.536767 0
148.905404 -21.828790 22.926182 6
145.841188 -21.701681 23.011007 6
142.767087 -21.663230 23.071456 6
139.710903 -21.602348 23.138866 6
141.898716 2.183947 29.912268 6
138.574724 2.038365 29.926747 6
130.598534 -21.474385 23.329478 6
127.598556 -21.344822 23.418919 6
124.600094 -21.249676 23.499297 6
121.613131 -21.132547 23.586592 6
118.629038 -21.039813 23.667667 6
116.550440 -14.891002 25.468765 5
112.628127 -21.231083 23.724894 5
108.941245 -26.796876 22.199380 5
105.807653 -28.685556 21.718443 5
102.882489 -29.052122 21.670756 5
100.013970 -28.971037 21.751136 5
97.154841 -28.820416 21.852067 5
94.290710 -28.751606 21.930425 5
91.428495 -28.690714 22.007266 5
88.568586 -28.625755 22.086019 5
85.707680 -28.612289 22.150811 5
82.851178 -28.533292 22.235105 5
79.992832 -28.524873 22.299979 5
77.137021 -28.427266 22.391184 5
74.278996 -28.445451 22.450002 5
71.421149 -28.359718 22.539430 5
68.561828 -28.330162 22.613563 5
65.700736 -28.292523 22.690850 5
59.229532 -10.781057 27.869013 9
57.675161 -39.091873 19.782848 9
55.048410 -41.245326 19.228913 9
52.468618 -43.498119 18.646086 9
49.908755 -45.492398 18.137685 9
47.384274 -47.483379 17.630093 9
44.856319 -49.098456 17.231163 9
42.276596 -50.014914 17.034681 9
39.646253 -50.418054 16.987466 9
36.972994 -50.486547 17.038076 9
34.281040 -50.463897 17.116051 9
31.583779 -50.458770 17.189884 9
28.867195 -50.385732 17.284444 9
26.148078 -50.356252 17.367331 9
23.418532 -50.323287 17.452247 9
20.690967 -50.353917 17.519631 9
17.928561 -50.261987 17.623846 9
15.162872 -50.214138 17.716277 9
12.387725 -50.179591 17.805919 9
9.602405 -50.156086 17.893443 9
6.796488 -50.102524 17.990923 9
3.990961 -50.106340 18.072727 9
1.165592 -50.087759 18.162282 9
-1.684483 -50.034230 18.263332 9
-4.545587 -49.999007 18.360241 9
-7.429887 -49.941933 18.464865 9
-10.317656 -49.930696 18.557261 9
-13.226921 -49.906978 18.654656 9
-16.158347 -49.872137 18.756691 9
-19.113404 -49.825080 18.863731 9
-22.097899 -49.752749 18.979696 9
-25.089157 -49.721213 19.085014 9
-28.111484 -49.664751 19.199227 9
-31.139307 -49.653089 19.301626 9
-34.209539 -49.592587 19.420126 9
-37.310626 -49.517307 19.544648 9
-40.501810 -49.291192 19.715936 9
-44.122620 -48.151624 20.162577 9
-48.690304 -45.021135 21.208807 9
-54.247068 -39.966280 22.837159 9
-65.959601 -22.215928 28.288852 8
-69.480544 -22.302192 28.386732 8
-73.076725 -22.299074 28.513534 8
-76.685748 -22.337642 28.629846 8
-80.336999 -22.360899 28.752904 8
-84.021585 -22.388781 28.876745 8
-87.733415 -22.434340 28.997463 8
-91.524299 -22.406265 29.142832 8
-95.336390 -22.412646 29.280129 8
-99.189129 -22.420406 29.419451 8
-103.084895 -22.427850 29.561381 8
-108.278471 -20.394225 30.329984 8
219.955368 135.724816 72.572109 0
215.326301 136.689162 72.908771 0
210.404633 136.674542 72.959571 0
205.508516 136.651980 73.009551 0
200.638362 136.626031 73.060045 0
195.804155 136.636793 73.122848 0
190.975445 136.577409 73.166523 0
186.191416 136.598161 73.235293 0
181.411537 136.546775 73.284334 0
176.678100 136.600243 73.365783 0
171.950729 136.595794 73.431689 0
167.240984 136.584366 73.497058 0
162.555670 136.603735 73.573043 0
157.885484 136.615201 73.648233 0
153.235023 136.648294 73.731355 0
148.592704 136.644288 73.805063 0
143.975618 136.709145 73.900694 0
139.237133 135.879897 73.733221 0
109.769134 -21.763125 27.169750 5
106.375803 -25.328972 26.165871 5
103.408119 -25.693313 26.111776 5
100.492768 -25.657224 26.177479 5
97.606618 -25.338782 26.328132 5
94.700167 -25.255200 26.410121 5
91.786730 -25.307104 26.452884 5
88.889006 -25.164055 26.554735 5
85.985430 -25.141798 26.621727 5
83.085345 -25.075366 26.702983 5
80.184655 -25.044501 26.774748 5
77.285703 -24.947091 26.867501 5
74.384835 -24.925265 26.938828 5
71.483502 -24.854431 27.025948 5
68.580271 -24.782519 27.114565 5
65.675444 -24.748998 27.192871 5
59.265278 -10.690603 31.550628 9
57.582923 -36.800965 23.786026 9
54.936975 -39.146077 23.151281 9
52.344575 -41.627046 22.475648 9
49.766698 -43.727459 21.914462 9
47.245053 -46.025435 21.293826 9
44.688679 -47.583134 20.896388 9
42.095738 -48.587080 20.666443 9
39.453886 -49.077698 20.592237 9
36.744603 -49.037353 20.679544 9
34.026893 -48.993446 20.769196 9
31.299098 -48.939426 20.863201 9
28.566875 -48.914994 20.949548 9
25.814998 -48.830868 21.055337 9
23.060721 -48.793409 21.148322 9
20.297241 -48.763296 21.240444 9
17.512255 -48.682416 21.349418 9
14.725757 -48.653337 21.444048 9
11.921818 -48.601242 21.547144 9
9.106599 -48.557723 21.649100 9
6.270186 -48.484183 21.761742 9
3.422708 -48.425933 21.871255 9
0.565348 -48.387931 21.976131 9
-2.306546 -48.353571 22.081476 9
-5.212900 -48.256222 22.207790 9
-8.128459 -48.188628 22.326644 9
-11.067092 -48.105561 22.451969 9
-15.600716 -43.155296 24.080020 9
-16.923074 -48.177979 22.634251 9
-19.921749 -48.087291 22.767202 9
-22.925508 -48.043061 22.887640 9
-25.972773 -47.938882 23.028531 9
-29.013761 -47.913267 23.146997 9
-32.114334 -47.793135 23.296779 9
-35.237517 -47.680432 23.446309 9
-38.376406 -47.593297 23.589973 9
-41.713578 -47.103440 23.861464 9
-45.719504 -45.171770 24.586178 9
-51.274718 -39.958853 26.341984 9
-58.342650 -31.803457 29.027391 9
-68.387769 -17.849043 33.543715 8
-72.375787 -17.111641 33.919655 8
-76.471469 -16.262413 34.334168 8
-80.749683 -15.165920 34.830237 8
-85.412069 -13.458039 35.523391 8
225.461705 135.598733 78.196121 0
220.798262 136.560438 78.525243 0
215.851065 136.604133 78.575497 0
210.923652 136.621082 78.619717 0
206.024098 136.639467 78.666524 0
201.131886 136.591763 78.695206 0
196.254603 136.501860 78.713063 0
191.437685 136.540493 78.772449 0
186.634568 136.544883 78.823445 0
181.852719 136.545598 78.875419 0
177.097396 136.569212 78.936526 0
172.368358 136.622541 79.008865 0
167.660345 136.689945 79.087639 0
162.952057 136.672821 79.142531 0
158.268114 136.691346 79.210479 0
153.542744 136.393057 79.183013 0
148.844944 136.130957 79.168700 0
107.062240 -21.023053 31.011185 5
104.004633 -21.729163 30.844486 5
101.033663 -21.761709 30.887120 5
98.071665 -21.758495 30.942194 5
95.113100 -21.768900 30.994452 5
92.158665 -21.780510 31.047737 5
89.209223 -21.769494 31.109443 5
86.264147 -21.723041 31.183563 5
83.326076 -21.529517 31.304767 5
80.384969 -21.367848 31.417606 5
77.441887 -21.202035 31.533256 5
74.496646 -20.970346 31.670930 5
71.546923 -20.782343 31.796594 5
68.593174 -20.612883 31.918066 5
65.633494 -20.375757 32.062213 5
61.858841 4.978061 40.041614 9
59.219996 -8.676524 35.859190 9
57.433043 -33.396657 28.214684 9
54.782986 -36.358450 27.361769 9
52.183295 -39.239490 26.534068 9
49.584988 -41.482061 25.906284 9
47.058182 -44.054964 25.175232 9
44.495871 -45.825510 24.695993 9
41.873598 -46.797498 24.468042 9
39.178335 -47.066877 24.461914 9
36.461224 -47.181275 24.505941 9
33.707699 -47.076209 24.620590 9
30.957293 -47.055558 24.710289 9
28.183505 -46.945725 24.829762 9
25.405539 -46.875613 24.938403 9
22.621902 -46.833600 25.039872 9
19.820041 -46.754010 25.154958 9
17.012982 -46.708624 25.260981 9
14.194667 -46.667265 25.367506 9
11.353420 -46.580645 25.490212 9
8.507969 -46.536174 25.601387 9
5.632301 -46.426260 25.735265 9
2.765886 -46.413809 25.840033 9
-0.134296 -46.330185 25.969426 9
-3.058898 -46.219259 26.109543 9
-5.997996 -46.120465 26.247842 9
-8.940205 -46.072449 26.371968 9
-11.924462 -45.947908 26.522725 9
-14.918170 -45.857344 26.664764 9
-17.932792 -45.765456 26.809437 9
-20.975731 -45.653214 26.962917 9
-26.075434 -39.859248 28.950713 9
-27.086521 -45.546173 27.238957 9
-30.197153 -45.436246 27.398732 9
-33.320310 -45.357860 27.550756 9
-36.499707 -45.202212 27.730322 9
-39.753569 -44.934071 27.949041 9
-43.371173 -43.888020 28.423595 9
-48.512371 -39.488795 29.994259 9
226.365069 136.519835 84.244040 0
221.381276 136.592453 84.284342 0
216.398621 136.578598 84.299881 0
211.591272 137.036412 84.468711 0
206.508648 136.510542 84.326451 0
201.626560 136.549285 84.367104 0
196.770025 136.590434 84.411273 0
191.918404 136.560799 84.435572 0
187.109370 136.603441 84.485666 0
182.318709 136.633161 84.534340 0
177.548656 136.662266 84.585514 0
172.796119 136.681464 84.636208 0
168.063361 136.704715 84.690875 0
163.146615 135.730395 84.429084 0
62.257249 -5.850652 40.426947 9
59.188561 -6.971848 40.142064 9
57.189670 -28.185999 33.336196 9
54.549085 -32.281018 32.082589 9
51.927962 -35.551002 31.096875 9
49.354240 -38.642408 30.169309 9
46.808670 -41.410770 29.347054 9
44.218266 -43.247252 28.828847 9
41.570513 -44.296751 28.568213 9
38.848026 -44.617569 28.546820 9
36.088066 -44.659513 28.618300 9
33.300287 -44.552997 28.740256 9
30.509527 -44.492295 28.849216 9
27.703131 -44.395410 28.972051 9
24.889295 -44.318887 29.090265 9
22.069439 -44.270100 29.201440 9
19.189003 -43.969215 29.397642 9
16.335210 -43.880070 29.526410 9
13.460812 -43.757009 29.668544 9
10.581173 -43.675024 29.799363 9
7.680580 -43.565332 29.941587 9
4.761686 -43.444737 30.089727 9
1.824217 -43.316081 30.242893 9
-1.123576 -43.213340 30.389864 9
-4.096374 -43.083760 30.548173 9
-7.081162 -42.977289 30.701286 9
-10.068331 -42.925490 30.838705 9
-13.102076 -42.784225 31.008472 9
-16.154569 -42.650480 31.178369 9
-19.225226 -42.527523 31.347343 9
-22.335146 -42.355867 31.535353 9
-25.461225 -42.206720 31.718642 9
-28.594726 -42.103857 31.889248 9
-31.769608 -41.956362 32.077744 9
-34.968627 -41.814196 32.267426 9
-38.175617 -41.719029 32.444286 9
-41.701427 -40.922964 32.861106 9
-46.326781 -37.663907 34.115684 9
226.616359 135.522961 89.722343 0
221.938036 136.532379 90.056631 0
216.937165 136.512326 90.052793 0
211.966361 136.492843 90.052591 0
207.055379 136.577393 90.090334 0
202.152594 136.602859 90.111864 0
197.279958 136.645479 90.142459 0
192.417880 136.638115 90.159812 0
187.586457 136.657241 90.189285 0
182.773047 136.659245 90.216380 0
177.765581 135.743097 89.941801 0
59.455593 -12.354735 42.107703 9
56.568576 -15.707890 41.059157 9
54.132434 -25.258503 37.921345 9
51.561727 -30.326612 36.293160 9
49.003813 -34.353575 35.015947 9
45.655086 -29.032400 36.898883 9
43.868615 -39.973186 33.284652 9
40.336337 -33.584725 35.535116 9
38.407809 -41.284796 33.015691 9
35.585267 -41.176490 33.143242 9
32.757707 -41.100448 33.262186 9
29.918759 -41.012723 33.387463 9
27.044761 -40.775566 33.566005 9
24.172892 -40.631003 33.715535 9
21.291673 -40.504938 33.861262 9
18.393476 -40.358663 34.016422 9
15.478996 -40.201629 34.177843 9
12.552934 -40.059942 34.336642 9
9.606120 -39.894067 34.506389 9
6.646396 -39.742848 34.673828 9
3.661610 -39.558356 34.855452 9
0.653536 -39.354147 35.046687 9
-2.370874 -39.160830 35.237064 9
-5.351215 -39.194038 35.352237 9
-8.425075 -38.960877 35.562191 9
-11.510681 -38.761816 35.763425 9
-14.625733 -38.539479 35.975822 9
-17.775918 -38.281193 36.203870 9
-20.906889 -38.154141 36.389607 9
-24.099649 -37.915454 36.617391 9
-27.323734 -37.662666 36.853477 9
-30.563944 -37.440370 37.082392 9
-33.831564 -37.218662 37.314612 9
-37.181305 -36.861013 37.598011 9
-40.634823 -36.328099 37.946694 9
-45.699683 -32.027529 39.623118 9
222.521051 136.538067 95.894888 0
217.493973 136.489786 95.863680 0
212.522513 136.521308 95.864093 0
207.597406 136.614593 95.889867 0
202.686557 136.669863 95.906574 0
197.796810 136.711323 95.922526 0
192.691012 135.856262 95.633409 0
51.249655 -25.842230 41.385929 9
48.426648 -27.319408 40.956008 9
45.933347 -32.074428 39.378892 9
43.316962 -34.744187 38.532933 9
40.598588 -36.083819 38.154920 9
37.740886 -36.126732 38.234420 9
34.852153 -35.984101 38.381816 9
31.946066 -35.794533 38.548517 9
29.024734 -35.584955 38.725114 9
26.098614 -35.426128 38.886693 9
23.136542 -35.135062 39.097892 9
20.172113 -34.917980 39.285958 9
17.197812 -34.728063 39.467428 9
