ply
format ascii 1.0
element vertex 1368
property float x
property float y
property float z
property int scalar_Label
end_header
90.947652 -21.908361 -31.017507 5
87.932748 -21.889129 -31.082085 5
84.951841 -21.793391 -31.105207 5
81.963090 -21.778882 -31.160126 5
78.997462 -21.721732 -31.189421 5
76.051307 -21.629023 -31.196443 5
73.094350 -21.634888 -31.243378 5
70.162830 -21.572027 -31.252757 5
67.229297 -21.569405 -31.284342 5
64.646726 -19.672112 -30.433385 5
61.268795 -22.292274 -31.667494 9
58.082021 -24.115715 -32.527036 9
54.966234 -25.777326 -33.306016 9
51.885079 -27.498844 -34.107158 9
48.856107 -29.151051 -34.870806 9
45.929926 -30.273402 -35.384008 9
43.075089 -30.998669 -35.708241 9
40.296950 -31.132338 -35.753500 9
37.539985 -31.103213 -35.718157 9
34.781220 -31.144325 -35.710057 9
32.025380 -31.207458 -35.706901 9
29.277245 -31.205454 -35.668332 9
26.530245 -31.231151 -35.637340 9
23.783847 -31.310780 -35.626095 9
21.041574 -31.336050 -35.584406 9
18.300388 -31.375160 -35.543877 9
15.560171 -31.435108 -35.507756 9
12.820537 -31.463197 -35.451573 9
10.081666 -31.546561 -35.415784 9
7.342711 -31.617910 -35.369130 9
4.601327 -31.642154 -35.295250 9
1.858199 -31.672377 -35.218802 9
-0.882841 -31.776732 -35.171532 9
-3.629763 -31.819824 -35.090339 9
-6.379255 -31.871868 -35.007905 9
-9.131498 -31.933869 -34.924679 9
-11.888770 -31.986195 -34.831458 9
-14.633928 -32.186686 -34.802101 9
-17.397423 -32.257975 -34.706772 9
-20.163407 -32.351719 -34.616405 9
-22.936896 -32.432596 -34.514398 9
-25.715319 -32.523345 -34.411378 9
-28.497934 -32.630017 -34.310163 9
-31.292779 -32.707904 -34.189649 9
-34.093040 -32.801189 -34.070588 9
-36.894224 -32.932915 -33.963844 9
-39.711150 -33.029653 -33.834668 9
-42.568981 -32.985713 -33.632812 9
-45.525174 -32.576430 -33.251216 9
-48.670437 -31.481357 -32.536578 9
-51.948609 -30.013525 -31.636333 9
-55.311114 -28.405913 -30.660601 9
-58.774538 -26.618944 -29.589923 9
-64.611921 -16.782887 -24.655410 8
-65.700944 -23.614775 -27.692435 8
-68.719957 -23.792324 -27.536450 8
-71.752153 -23.974574 -27.375881 8
-74.792703 -24.177781 -27.218483 8
-77.854721 -24.364060 -27.045896 8
-80.939654 -24.533202 -26.857861 8
-84.005924 -24.801848 -26.710832 8
-87.114852 -25.001652 -26.523104 8
-90.241388 -25.204835 -26.329547 8
-93.386727 -25.410249 -26.129484 8
-96.540486 -25.644744 -25.935938 8
-99.725891 -25.853730 -25.722069 8
-102.937061 -26.054742 -25.496272 8
-107.866667 -22.515826 -23.416689 8
-110.384372 -24.408794 -24.006730 8
-116.010900 -19.767530 -21.351121 8
-118.784260 -21.241395 -21.715523 7
-122.125180 -21.580220 -21.508187 7
-125.529701 -21.845640 -21.255281 7
-128.951188 -22.133136 -21.004200 7
-132.376349 -22.467674 -20.767404 7
-135.939838 -22.606120 -20.422196 7
-139.483386 -22.842057 -20.116070 7
-143.029657 -23.132085 -19.827212 7
-146.600306 -23.438429 -19.536402 7
151.069824 -18.263334 -22.752957 6
147.664822 -18.095265 -22.887254 6
144.281158 -17.939154 -23.019276 6
140.851939 -17.940846 -23.220019 6
137.446928 -17.953500 -23.418013 6
134.103307 -17.889200 -23.570765 6
130.766773 -17.868762 -23.737030 6
127.458004 -17.842782 -23.892966 6
124.168419 -17.830130 -24.047810 6
120.929561 -17.747105 -24.161285 6
117.179735 -19.100690 -24.959604 5
115.904024 -13.709331 -22.503322 6
108.263079 -26.351463 -28.715101 5
105.006294 -26.863829 -29.082133 5
101.984598 -26.746555 -29.139831 5
98.955928 -26.701778 -29.225746 5
95.970025 -26.570258 -29.263571 5
92.960762 -26.567129 -29.356467 5
89.983099 -26.508394 -29.416338 5
87.033196 -26.398764 -29.445553 5
84.089432 -26.313091 -29.479981 5
81.140887 -26.296254 -29.541091 5
78.216035 -26.233837 -29.574265 5
75.301865 -26.174267 -29.602690 5
72.397493 -26.119069 -29.627137 5
69.497414 -26.092965 -29.659431 5
66.612533 -26.040623 -29.673226 5
63.705807 -26.158825 -29.762337 5
60.992007 -25.212895 -29.338523 9
57.862460 -26.805186 -30.118024 9
55.354372 -24.500997 -29.035623 9
51.705397 -30.163042 -31.741487 9
48.707661 -31.712247 -32.482662 9
45.813320 -32.711560 -32.956274 9
42.986913 -33.324328 -33.240187 9
40.519807 -30.372784 -31.820755 9
37.486029 -33.396353 -33.241856 9
34.746094 -33.391515 -33.214850 9
32.005135 -33.455114 -33.214881 9
29.271908 -33.453928 -33.178467 9
26.538084 -33.520753 -33.168911 9
23.809028 -33.540339 -33.131265 9
21.081344 -33.573876 -33.094704 9
18.355187 -33.599175 -33.048635 9
15.629503 -33.794260 -33.078096 9
12.906024 -33.822055 -33.022081 9
10.182431 -33.860686 -32.965641 9
7.458772 -33.918516 -32.912772 9
4.733248 -33.949696 -32.841514 9
2.006456 -33.993097 -32.770451 9
-0.721392 -34.054864 -32.702516 9
-3.450906 -34.126102 -32.633435 9
-6.184301 -34.183042 -32.551770 9
-8.920691 -34.246026 -32.467254 9
-11.658589 -34.332955 -32.388477 9
-14.405571 -34.375739 -32.282625 9
-17.156988 -34.427416 -32.175178 9
-19.908095 -34.525157 -32.084053 9
-22.665505 -34.617558 -31.984429 9
-25.428532 -34.713773 -31.880679 9
-28.202689 -34.783666 -31.758152 9
-30.979231 -34.884358 -31.644466 9
-33.767488 -34.964418 -31.514628 9
-36.560472 -35.065165 -31.388643 9
-39.351556 -35.217738 -31.281663 9
-42.190715 -35.191991 -31.081411 9
-45.120460 -34.833259 -30.711819 9
-48.189779 -33.988586 -30.097144 9
-51.459986 -32.483757 -29.150674 9
-54.812253 -30.851379 -28.132227 9
-58.193091 -29.303257 -27.145483 9
-64.659695 -17.239257 -20.965226 8
-65.063687 -26.357917 -25.216763 8
-68.070849 -26.506526 -25.039447 8
-71.080919 -26.693525 -24.873880 8
-74.109015 -26.871986 -24.696757 8
-77.132150 -27.111433 -24.542548 8
-80.190433 -27.295929 -24.353498 8
-83.271850 -27.465378 -24.149260 8
-86.371391 -27.636474 -23.938021 8
-89.495592 -27.794585 -23.712307 8
-92.615651 -28.014061 -23.509356 8
-95.763052 -28.216251 -23.289561 8
-98.919659 -28.446910 -23.075854 8
-102.118365 -28.631321 -22.830304 8
-105.373614 -28.743559 -22.539392 8
-109.178868 -27.734942 -21.668126 8
-114.581652 -23.512782 -19.142109 8
-117.889287 -23.828293 -18.919974 7
-121.188784 -24.209612 -18.722439 7
-124.625083 -24.374271 -18.404007 7
-128.036114 -24.645247 -18.130469 7
-131.502318 -24.869328 -17.822651 7
-134.981342 -25.127874 -17.522429 7
-140.098334 -22.579450 -15.746959 7
-142.067956 -25.593432 -16.863401 7
-145.675332 -25.807494 -16.507626 7
150.289093 -20.957668 -19.953296 6
146.875164 -20.849925 -20.132233 6
143.513089 -20.692167 -20.277394 6
140.170619 -20.548635 -20.421227 6
136.837217 -20.441966 -20.575156 6
133.548215 -20.291194 -20.698799 6
130.259043 -20.196367 -20.842274 6
126.987433 -20.116655 -20.985254 6
123.776758 -19.941462 -21.072818 6
120.573109 -19.800022 -21.169459 6
116.132549 -23.037141 -22.934957 5
111.361298 -27.464701 -25.279250 5
107.626699 -29.275408 -26.315708 5
104.457759 -29.591834 -26.603966 5
101.444938 -29.509926 -26.687954 5
98.442846 -29.446317 -26.774020 5
95.458608 -29.377070 -26.850409 5
92.490569 -29.304676 -26.918432 5
89.538495 -29.227028 -26.977122 5
86.588714 -29.191636 -27.049938 5
83.656197 -29.143253 -27.109724 5
80.742298 -29.071875 -27.151635 5
77.835980 -29.018189 -27.195737 5
74.938713 -28.975312 -27.238687 5
72.053614 -28.927294 -27.272697 5
69.180110 -28.872954 -27.297238 5
66.304855 -28.877303 -27.344242 5
63.593720 -28.033886 -26.969222 5
60.800263 -27.621517 -26.799467 9
57.692420 -29.173035 -27.586147 9
54.613912 -30.805753 -28.406165 9
51.588371 -32.362725 -29.182736 9
48.606397 -33.892806 -29.939945 9
45.733473 -34.825351 -30.398312 9
42.924122 -35.401799 -30.676237 9
40.458265 -32.591907 -29.288789 9
37.435124 -35.642440 -30.767332 9
34.708685 -35.657390 -30.752386 9
31.987756 -35.645747 -30.718508 9
29.268163 -35.658898 -30.690892 9
26.550120 -35.697238 -30.669746 9
23.834455 -35.743221 -30.646469 9
21.121472 -35.769931 -30.607850 9
18.409757 -35.798881 -30.564438 9
15.698833 -35.831440 -30.516900 9
12.987853 -35.820358 -30.441993 9
10.277799 -35.915831 -30.413561 9
7.566865 -35.962964 -30.355429 9
4.854095 -35.989362 -30.281130 9
2.141005 -36.048431 -30.216950 9
-0.574853 -36.092449 -30.139356 9
-3.292911 -36.143554 -30.059232 9
-6.010185 -36.241926 -29.996416 9
-8.736180 -36.275268 -29.895385 9
-11.461160 -36.362809 -29.815052 9
-14.192868 -36.426638 -29.716838 9
-16.932127 -36.470730 -29.602637 9
-19.671218 -36.560891 -29.505061 9
-22.417479 -36.640796 -29.396127 9
-25.174668 -36.692320 -29.266741 9
-27.937108 -36.758240 -29.138121 9
-30.698763 -36.873077 -29.027470 9
-33.470352 -36.975029 -28.903930 9
-36.246971 -37.093690 -28.782226 9
-39.039265 -37.178979 -28.637220 9
-41.866030 -37.154061 -28.430190 9
-44.774833 -36.833378 -28.067488 9
-47.823696 -36.022417 -27.450333 9
-51.047710 -34.650712 -26.541823 9
-54.355541 -33.134383 -25.550639 9
-57.745942 -31.498843 -24.489042 9
-61.148346 -30.005486 -23.489045 9
-64.599957 -28.517894 -22.481481 8
-67.493864 -28.983723 -22.457744 8
-70.509947 -29.096611 -22.246916 8
-73.517082 -29.286454 -22.067567 8
-76.542248 -29.469955 -21.877154 8
-79.597001 -29.617685 -21.660423 8
-82.662813 -29.785261 -21.445744 8
-85.754152 -29.935140 -21.213688 8
-88.866688 -30.082065 -20.971672 8
-91.991128 -30.251298 -20.732625 8
-95.141320 -30.409933 -20.479387 8
-98.301961 -30.596501 -20.231820 8
-101.486323 -30.780824 -19.974114 8
-104.703790 -30.944575 -19.696499 8
-108.325825 -30.298346 -18.984395 8
-113.374079 -26.784770 -16.751302 8
-117.812297 -24.753011 -15.279510 7
-120.473716 -26.396031 -15.735970 7
-123.902785 -26.546486 -15.394238 7
-127.310811 -26.795727 -15.094447 7
-130.779407 -26.989385 -14.754389 7
-134.261738 -27.217242 -14.421659 7
-137.767177 -27.462714 -14.087266 7
-141.346199 -27.640842 -13.705218 7
-144.978452 -27.792344 -13.296915 7
149.700586 -23.255525 -16.982028 6
146.330837 -23.087543 -17.145328 6
142.982612 -22.930962 -17.305432 6
139.635398 -22.829203 -17.484864 6
136.326979 -22.699841 -17.641181 6
133.018339 -22.628190 -17.818471 6
129.755241 -22.508376 -17.962368 6
126.496781 -22.433713 -18.120966 6
123.262131 -22.357720 -18.270493 6
120.060919 -22.252926 -18.397024 6
115.289051 -26.408591 -20.691847 5
110.682922 -30.438073 -22.909151 5
107.119583 -31.818296 -23.763720 5
104.022492 -31.974916 -23.986160 5
101.010283 -31.941494 -24.104255 5
98.031058 -31.859240 -24.190140 5
95.060618 -31.799744 -24.280314 5
92.106292 -31.738117 -24.362200 5
89.171451 -31.659567 -24.428380 5
86.239031 -31.622487 -24.508518 5
83.342363 -31.500948 -24.538903 5
80.429235 -31.491327 -24.619006 5
77.547889 -31.402934 -24.652392 5
74.662247 -31.380929 -24.712519 5
71.790629 -31.347270 -24.759980 5
68.924276 -31.339814 -24.813942 5
66.071494 -31.316725 -24.853328 5
63.629982 -29.091942 -23.775594 5
60.647131 -29.796133 -24.168776 9
57.549540 -31.363120 -24.990115 9
54.504448 -32.859604 -25.769055 9
51.502126 -34.333801 -26.530054 9
48.536643 -35.820664 -27.290870 9
45.670233 -36.790912 -27.784936 9
42.877903 -37.317510 -28.049142 9
40.143761 -37.412280 -28.089495 9
37.421142 -37.450111 -28.094913 9
34.703509 -37.486013 -28.093129 9
31.992367 -37.487443 -28.067747 9
29.281871 -37.531272 -28.057524 9
26.577129 -37.519608 -28.013104 9
23.872290 -37.558170 -27.987805 9
21.170107 -37.572573 -27.944103 9
18.468683 -37.609989 -27.905798 9
15.768281 -37.628010 -27.851472 9
13.068315 -37.693163 -27.814731 9
10.368051 -37.717625 -27.751176 9
7.668126 -37.784652 -27.702895 9
4.965592 -37.800923 -27.622643 9
2.264004 -37.879026 -27.567409 9
-0.441745 -37.912584 -27.483279 9
-3.146336 -38.002945 -27.421622 9
-5.861531 -37.992282 -27.302284 9
-8.572140 -38.084326 -27.228708 9
-11.287948 -38.158556 -27.139648 9
-14.012370 -38.194990 -27.024853 9
-16.737967 -38.267332 -26.921819 9
-19.469142 -38.338871 -26.811809 9
-22.205325 -38.417620 -26.698868 9
-24.953663 -38.460341 -26.560819 9
-27.704101 -38.537300 -26.433555 9
-30.467808 -38.583193 -26.283561 9
-33.230472 -38.681932 -26.153838 9
-36.011187 -38.732821 -25.992599 9
-38.787612 -38.851724 -25.859392 9
-41.577291 -38.952611 -25.709883 9
-44.447822 -38.751544 -25.397128 9
-47.480596 -37.959889 -24.770778 9
-50.671310 -36.674460 -23.879398 9
-53.987223 -35.083031 -22.819066 9
-57.322914 -33.604569 -21.806847 9
-60.756790 -31.958828 -20.696624 9
-64.581114 -29.198235 -18.992416 8
-67.062599 -30.990367 -19.658372 8
-70.056359 -31.133379 -19.454367 8
-73.069335 -31.267234 -19.237341 8
-76.072998 -31.477141 -19.052038 8
-79.129222 -31.585704 -18.804907 8
-82.191644 -31.729639 -18.567816 8
-85.268200 -31.887120 -18.329170 8
-88.364893 -32.043877 -18.081281 8
-91.472385 -32.225020 -17.837378 8
-94.604838 -32.396788 -17.579353 8
-97.780151 -32.520651 -17.286358 8
-100.949489 -32.712598 -17.020326 8
-104.161714 -32.862231 -16.721899 8
-107.701471 -32.368978 -16.066313 8
-112.465250 -29.427741 -14.072661 8
-117.836169 -25.477713 -11.510937 7
-119.987838 -28.127949 -12.521425 7
-123.391781 -28.309953 -12.180192 7
-126.877763 -28.396242 -11.775359 7
-130.336516 -28.595345 -11.420858 7
-133.871396 -28.717368 -11.012252 7
-137.391909 -28.927266 -10.640165 7
-140.950187 -29.132655 -10.253491 7
-144.577430 -29.284366 -9.824508 7
-148.260134 -29.410220 -9.368158 7
149.364709 -25.040657 -13.758312 6
145.941100 -25.001504 -14.005420 6
142.588422 -24.876241 -14.196855 6
139.257218 -24.762923 -14.385111 6
135.934731 -24.688747 -14.584737 6
132.645733 -24.597853 -14.766217 6
129.381234 -24.507700 -14.938969 6
126.099461 -24.517659 -15.155585 6
122.929938 -24.309808 -15.248415 6
119.732016 -24.224973 -15.397455 6
116.491250 -24.311075 -15.627750 5
110.172283 -32.937738 -20.332956 5
106.713713 -34.064642 -21.086421 5
103.656319 -34.147445 -21.283612 5
100.672857 -34.069206 -21.388512 5
97.701759 -34.004179 -21.492566 5
94.748679 -33.932886 -21.585670 5
91.819870 -33.830835 -21.655142 5
88.894386 -33.765867 -21.736466 5
85.978574 -33.716629 -21.818545 5
83.085583 -33.631959 -21.874807 5
80.193891 -33.590737 -21.946382 5
77.306871 -33.582047 -22.027616 5
74.448424 -33.502438 -22.064800 5
71.592775 -33.457335 -22.112790 5
68.743182 -33.433260 -22.164613 5
65.909415 -33.380180 -22.194353 5
63.642119 -30.285731 -20.640043 5
60.531195 -31.748500 -21.442141 9
57.459858 -33.217202 -22.239907 9
54.430972 -34.669123 -23.021723 9
51.433762 -36.172042 -23.822855 9
48.489261 -37.570648 -24.562990 9
45.640095 -38.472066 -25.038800 9
42.856147 -39.001532 -25.315292 9
40.120319 -39.206205 -25.416962 9
37.413079 -39.184938 -25.395031 9
34.705999 -39.208802 -25.389909 9
32.195502 -36.299396 -23.858357 9
29.463934 -36.339484 -23.848193 9
26.608184 -39.243809 -25.316284 9
23.913308 -39.270761 -25.286577 9
21.220456 -39.290925 -25.246805 9
18.528278 -39.350300 -25.220835 9
15.837702 -39.346012 -25.155268 9
13.146943 -39.371694 -25.098688 9
10.456039 -39.407862 -25.040977 9
7.763957 -39.426677 -24.967645 9
5.069863 -39.434769 -24.882106 9
2.378476 -39.542918 -24.842025 9
-0.318181 -39.577814 -24.757149 9
-3.020524 -39.573797 -24.645274 9
-5.722349 -39.627879 -24.556971 9
-8.424642 -39.715553 -24.479473 9
-11.134124 -39.767088 -24.376313 9
-13.848148 -39.820637 -24.267371 9
-16.565428 -39.890513 -24.160109 9
-19.289509 -39.950961 -24.040986 9
-22.022656 -39.992568 -23.904987 9
-24.751815 -40.105799 -23.799614 9
-27.500661 -40.139683 -23.645417 9
-30.250020 -40.218965 -23.507972 9
-33.011942 -40.275639 -23.351384 9
-36.337636 -37.575259 -21.728938 9
-38.559420 -40.413002 -23.028935 9
-41.345779 -40.493321 -22.862758 9
-44.220322 -40.242996 -22.513335 9
-47.219969 -39.559272 -21.924998 9
-50.396063 -38.301617 -21.021489 9
-53.709769 -36.690397 -19.918737 9
-57.026036 -35.255674 -18.899175 9
-60.406488 -33.768125 -17.840095 9
-64.583469 -29.812302 -15.443329 8
-66.683879 -32.827069 -16.781977 8
-69.684433 -32.916455 -16.540302 8
-72.676113 -33.083834 -16.332046 8
-75.696749 -33.215054 -16.095502 8
-79.662116 -30.774630 -14.453667 8
-81.797630 -33.464598 -15.588483 8
-84.876339 -33.592022 -15.322641 8
-87.983231 -33.700306 -15.036943 8
-91.106871 -33.821304 -14.748607 8
-94.259733 -33.926415 -14.441791 8
-97.398611 -34.118869 -14.173131 8
-100.574216 -34.279695 -13.877086 8
-103.787150 -34.412261 -13.555191 8
-107.269714 -34.027739 -12.935513 8
-111.873934 -31.408325 -11.058160 8
-117.011166 -27.916241 -8.673082 8
-119.659353 -29.550298 -9.137944 7
-123.085581 -29.680826 -8.750891 7
-126.546280 -29.807357 -8.349685 7
-130.023064 -29.965842 -7.954382 7
-133.586936 -30.030198 -7.493290 7
-137.186008 -30.099277 -7.021899 7
-140.809731 -30.192917 -6.551264 7
-144.464300 -30.301512 -6.075699 7
-148.154000 -30.419466 -5.591739 7
149.199072 -26.484276 -10.351599 6
145.779691 -26.444730 -10.616076 6
142.421492 -26.340191 -10.834552 6
139.076663 -26.266443 -11.059754 6
135.769085 -26.170631 -11.262932 6
132.471934 -26.109900 -11.475440 6
129.207290 -26.033013 -11.669482 6
125.963843 -25.963596 -11.858081 6
122.763712 -25.844761 -12.010527 6
119.551013 -25.813373 -12.201166 6
114.221585 -31.461843 -15.453204 5
109.834819 -34.954784 -17.524447 5
106.463674 -35.863686 -18.188874 5
103.403217 -35.983394 -18.418584 5
100.425573 -35.918538 -18.540493 5
97.455700 -35.882325 -18.669616 5
94.507373 -35.830612 -18.782304 5
91.579666 -35.762211 -18.878036 5
88.669123 -35.684745 -18.961008 5
85.756291 -35.665829 -19.067515 5
82.864288 -35.621924 -19.152867 5
79.997444 -35.529615 -19.204649 5
77.128074 -35.495095 -19.279716 5
74.272752 -35.451223 -19.342225 5
71.427085 -35.413789 -19.400671 5
68.601121 -35.331927 -19.427975 5
65.774453 -35.299498 -19.474260 5
63.608723 -31.729902 -17.628357 5
60.484684 -33.296137 -18.512232 9
57.405482 -34.850598 -19.381963 9
54.376688 -36.348995 -20.214144 9
51.395800 -37.790927 -21.008749 9
48.476705 -39.050221 -21.698797 9
45.621830 -40.051548 -22.244377 9
43.167963 -37.615964 -20.954023 9
40.129725 -40.661295 -22.573273 9
37.423441 -40.705613 -22.588674 9
34.728298 -40.670105 -22.554686 9
32.032621 -40.684311 -22.540257 9
29.340963 -40.684833 -22.511654 9
26.648831 -40.749678 -22.510421 9
23.961953 -40.755549 -22.470904 9
21.276890 -40.745235 -22.415875 9
18.592049 -40.759192 -22.366887 9
15.907684 -40.785981 -22.317843 9
13.223547 -40.812101 -22.261538 9
10.539399 -40.855203 -22.207381 9
7.855172 -40.913186 -22.154248 9
5.167031 -40.891675 -22.051674 9
2.479435 -40.940073 -21.979485 9
-0.210313 -40.986782 -21.899395 9
-2.903728 -41.019145 -21.804587 9
-5.600557 -41.052559 -21.703266 9
-8.296589 -41.137874 -21.622696 9
-11.001701 -41.169319 -21.506072 9
-13.710256 -41.216169 -21.390530 9
-16.420179 -41.295576 -21.285285 9
-19.136395 -41.367835 -21.168934 9
-21.859353 -41.435395 -21.042733 9
-24.588790 -41.504599 -20.910041 9
-27.324045 -41.582561 -20.774648 9
-30.073756 -41.622881 -20.611362 9
-32.827606 -41.689392 -20.454667 9
-35.597292 -41.722805 -20.272326 9
-38.368878 -41.796778 -20.104268 9
-41.144052 -41.900576 -19.944657 9
-44.022726 -41.607005 -19.560214 9
-47.006793 -40.965231 -18.976643 9
-50.173718 -39.722494 -18.054319 9
-53.425147 -38.324025 -17.035685 9
-56.782729 -36.714735 -15.889728 9
-60.168305 -35.191169 -14.778909 9
-64.616629 -30.329056 -11.812749 8
-66.416789 -34.307184 -13.717029 8
-69.409056 -34.402139 -13.468463 8
-72.413345 -34.512724 -13.219413 8
-75.430008 -34.638620 -12.969614 8
-78.477324 -34.729950 -12.691142 8
-81.547856 -34.812166 -12.397943 8
-84.629248 -34.920390 -12.109512 8
-87.721594 -35.054202 -11.825546 8
-90.858992 -35.130237 -11.499000 8
-93.975277 -35.312497 -11.222098 8
-97.153274 -35.403370 -10.883177 8
-100.359181 -35.488272 -10.530141 8
-103.604655 -35.544489 -10.149811 8
-107.028234 -35.283200 -9.576828 8
-111.623546 -32.684082 -7.651787 8
-116.874634 -28.968176 -5.063990 8
-119.619296 -30.409741 -5.423765 7
-123.079892 -30.480358 -4.983195 7
-126.563668 -30.571305 -4.541668 7
-130.067263 -30.689454 -4.103009 7
-133.638281 -30.750884 -3.618064 7
-137.239899 -30.825526 -3.127164 7
-140.911297 -30.848721 -2.592031 7
-144.608597 -30.898682 -2.058161 7
149.182847 -27.632355 -6.770745 6
147.041171 -24.982972 -5.580658 6
142.395457 -27.510217 -7.300610 6
139.067062 -27.402837 -7.523286 6
135.756680 -27.314526 -7.746194 6
132.459466 -27.255629 -7.975246 6
129.194097 -27.182602 -8.186182 6
125.958616 -27.096558 -8.379827 6
122.716039 -27.085899 -8.605644 6
118.297048 -30.151815 -10.533909 5
113.948420 -33.287914 -12.486616 5
109.645393 -36.564054 -14.502849 5
106.258968 -37.532926 -15.226289 5
103.257833 -37.502831 -15.386431 5
100.283062 -37.449046 -15.524715 5
97.334994 -37.365504 -15.637947 5
94.395560 -37.305057 -15.755441 5
91.461335 -37.279448 -15.883726 5
88.560076 -37.192982 -15.970144 5
85.656420 -37.164601 -16.080312 5
82.777464 -37.095952 -16.160164 5
79.909925 -37.031732 -16.234382 5
77.024267 -37.092703 -16.369316 5
74.181737 -37.026854 -16.426665 5
71.336632 -37.021406 -16.509261 5
68.507688 -36.992395 -16.571105 5
65.694215 -36.936104 -16.610240 5
63.639112 -32.830587 -14.425258 5
60.744529 -33.085018 -14.619902 9
57.393033 -36.226348 -16.385748 9
54.381419 -37.640295 -17.198361 9
51.408235 -39.053052 -18.002400 9
48.487437 -40.352222 -18.736587 9
45.634423 -41.373330 -19.311209 9
43.182494 -38.981656 -18.013308 9
40.143901 -42.068611 -19.702164 9
37.448852 -42.054999 -19.689290 9
34.757561 -42.041850 -19.669414 9
32.066420 -42.075170 -19.667693 9
29.380915 -42.073583 -19.639658 9
26.695757 -42.116931 -19.628966 9
24.015821 -42.090188 -19.572716 9
21.335420 -42.113845 -19.536804 9
18.656616 -42.113288 -19.480408 9
15.977831 -42.179793 -19.453494 9
13.299542 -42.170713 -19.377935 9
10.621096 -42.211089 -19.322209 9
7.941735 -42.239447 -19.252617 9
5.260825 -42.263303 -19.173252 9
2.576465 -42.258718 -19.070930 9
-0.108016 -42.304193 -18.988746 9
-2.801240 -42.264900 -18.852538 9
-5.491010 -42.328611 -18.765568 9
-8.187046 -42.361449 -18.654142 9
-10.884079 -42.429141 -18.554438 9
-13.587947 -42.475910 -18.435656 9
-16.299200 -42.507296 -18.300773 9
-19.009474 -42.592613 -18.188078 9
-21.733925 -42.620844 -18.036081 9
-24.456819 -42.707097 -17.908490 9
-27.189646 -42.775619 -17.763261 9
-29.938920 -42.796736 -17.583772 9
-32.678789 -42.917316 -17.451686 9
-35.439914 -42.972216 -17.274996 9
-38.208982 -43.037106 -17.095750 9
-40.978209 -43.148068 -16.934088 9
-44.564851 -39.826690 -14.839372 9
-46.829498 -42.226072 -15.943414 9
-49.984683 -41.014596 -15.011477 9
-53.274837 -39.458052 -13.873728 9
-56.608790 -37.926892 -12.738060 9
-60.019321 -36.309325 -11.540995 9
-64.599064 -31.018094 -8.247710 8
-66.237442 -35.509265 -10.491276 8
-69.224194 -35.611245 -10.236404 8
-72.242560 -35.670618 -9.947616 8
-75.271303 -35.754589 -9.663036 8
-78.323201 -35.827725 -9.362286 8
-81.382083 -35.936512 -9.071870 8
-84.466071 -36.032919 -8.764093 8
-87.565923 -36.143448 -8.454030 8
-90.712803 -36.193153 -8.098161 8
-93.850956 -36.321288 -7.776856 8
-97.041437 -36.383160 -7.406046 8
-100.258238 -36.444513 -7.023579 8
-103.491386 -36.529212 -6.643198 8
-106.964134 -36.166262 -5.988246 8
-111.620815 -33.452997 -3.935627 8
-117.747492 -28.003654 -0.244374 7
-119.753873 -30.933401 -1.485117 7
-123.249428 -30.952032 -0.992897 7
-126.783648 -30.965277 -0.483841 7
-130.359382 -30.970707 0.043853 7
-133.989438 -30.948657 0.602373 7
-137.646206 -30.951007 1.160974 7
-141.376930 -30.899040 1.767470 7
-145.121409 -30.897818 2.358821 7
149.444518 -28.234269 -2.854662 6
146.018501 -28.194419 -3.155989 6
142.648797 -28.101061 -3.414729 6
139.271716 -28.084114 -3.706354 6
135.930089 -28.053155 -3.978655 6
132.611478 -28.032815 -4.246056 6
129.345094 -27.953473 -4.468696 6
126.081463 -27.926376 -4.710760 6
122.833910 -27.920919 -4.954733 6
118.212863 -31.482642 -7.228603 5
113.858202 -34.630722 -9.249970 5
109.576174 -37.846589 -11.294953 5
106.192986 -38.811961 -12.043598 5
103.178682 -38.830541 -12.242896 5
100.204085 -38.789065 -12.398805 5
97.236221 -38.781277 -12.564756 5
94.305674 -38.709626 -12.685510 5
91.397924 -38.612937 -12.783269 5
88.487893 -38.573213 -12.904553 5
85.601642 -38.500207 -12.998363 5
82.712943 -38.486396 -13.117050 5
79.841354 -38.459521 -13.219847 5
76.990411 -38.400271 -13.295967 5
74.148101 -38.353208 -13.370627 5
71.306816 -38.351923 -13.462787 5
68.480265 -38.334694 -13.537743 5
65.671272 -38.281232 -13.584163 5
63.625628 -34.171954 -11.342948 5
60.504933 -35.744760 -12.287854 9
57.430761 -37.298401 -13.213214 9
54.420303 -38.711570 -14.051125 9
51.451909 -40.098914 -14.866185 9
48.504952 -41.605335 -15.739886 9
45.671983 -42.490891 -16.257181 9
42.895483 -43.089755 -16.605816 9
40.471293 -40.323028 -15.058572 9
37.744850 -40.351470 -15.071830 9
35.023955 -40.369851 -15.071747 9
32.308306 -40.369370 -15.053397 9
29.434696 -43.219788 -16.627441 9
26.756732 -43.180436 -16.572299 9
24.077598 -43.204053 -16.544921 9
21.400194 -43.231873 -16.512328 9
18.724589 -43.228777 -16.454781 9
16.048983 -43.277738 -16.418898 9
13.373861 -43.295053 -16.357627 9
10.697626 -43.278730 -16.269804 9
8.020647 -43.298000 -16.194361 9
5.343970 -43.364400 -16.137814 9
2.663298 -43.373360 -16.041220 9
-0.019319 -43.397829 -15.945649 9
-2.704629 -43.428205 -15.845661 9
-5.393642 -43.456725 -15.736837 9
-8.081248 -43.544929 -15.653957 9
-10.780697 -43.552206 -15.517427 9
-13.485730 -43.560906 -15.373752 9
-16.191027 -43.617639 -15.249337 9
-18.904451 -43.657557 -15.107361 9
-21.620857 -43.723292 -14.971985 9
-24.352007 -43.738869 -14.799915 9
-27.084648 -43.795923 -14.643242 9
-29.824870 -43.856419 -14.480259 9
-32.569460 -43.939765 -14.322000 9
-35.330956 -43.983265 -14.132516 9
-38.099567 -44.041967 -13.943206 9
-40.891881 -44.042557 -13.711878 9
-43.751311 -43.811883 -13.338580 9
-46.721568 -43.207305 -12.740250 9
-49.887699 -41.951505 -11.755368 9
-53.173994 -40.410634 -10.593589 9
-56.548629 -38.736040 -9.341471 9
-59.930302 -37.224817 -8.170876 9
-64.554041 -31.801929 -4.709364 8
-66.146813 -36.432438 -7.090486 8
-69.140018 -36.514964 -6.813581 8
-72.153840 -36.588982 -6.521573 8
-75.188851 -36.656014 -6.215161 8
-78.242590 -36.725796 -5.899878 8
-81.328488 -36.764515 -5.555605 8
-84.439447 -36.795648 -5.195910 8
-87.547760 -36.891469 -4.863436 8
-90.707233 -36.917782 -4.478466 8
-93.873787 -36.986746 -4.107346 8
-97.103946 -36.967529 -3.671828 8
-100.334645 -37.010059 -3.261146 8
-103.589775 -37.059801 -2.842572 8
-107.136876 -36.555243 -2.077187 8
-112.129581 -33.179209 0.440346 8
-117.872822 -28.546481 3.746616 7
-120.240900 -30.778933 2.904433 7
-123.776661 -30.753409 3.446925 7
-127.372568 -30.685671 4.029824 7
-131.049809 -30.543043 4.673836 7
-134.754131 -30.428798 5.316067 7
-138.520208 -30.283912 5.993280 7
-142.330748 -30.142051 6.685155 7
-146.182715 -30.010545 7.387521 7
149.989002 -28.287630 1.426048 6
146.542784 -28.259831 1.097569 6
143.077435 -28.336930 0.718950 6
139.690205 -28.317319 0.410073 6
136.309731 -28.347187 0.083719 6
132.970209 -28.351115 -0.215537 6
129.689197 -28.283616 -0.461123 6
126.404872 -28.283850 -0.735490 6
123.160640 -28.248590 -0.977863 6
119.897321 -28.322487 -1.273511 6
114.007713 -35.347859 -5.636312 5
109.635653 -38.783876 -7.873762 5
106.247861 -39.756044 -8.654128 5
103.187633 -39.906045 -8.942795 5
100.201814 -39.901918 -9.131602 5
97.253775 -39.837987 -9.275986 5
94.328173 -39.754434 -9.399575 5
91.400953 -39.726886 -9.546483 5
88.492828 -39.687528 -9.677324 5
85.600896 -39.642773 -9.795941 5
82.721836 -39.601786 -9.907747 5
79.861095 -39.540852 -9.999092 5
76.994670 -39.553389 -10.124146 5
74.152875 -39.516069 -10.211575 5
71.321179 -39.484299 -10.293534 5
68.492163 -39.491343 -10.389297 5
65.686255 -39.437245 -10.441195 5
63.613803 -35.507256 -8.248586 5
60.577107 -36.622057 -8.958638 9
57.518761 -38.071157 -9.852355 9
54.484354 -39.624945 -10.797393 9
51.505312 -41.082586 -11.678195 9
48.567752 -42.519793 -12.538594 9
45.727082 -43.469243 -13.109670 9
42.969554 -43.906106 -13.377391 9
40.247124 -44.138856 -13.519526 9
37.554398 -44.147376 -13.524558 9
34.867804 -44.132727 -13.508272 9
32.182969 -44.140198 -13.496757 9
29.500800 -44.156507 -13.482380 9
26.822623 -44.147078 -13.445231 9
24.145704 -44.149929 -13.407210 9
21.470253 -44.150197 -13.359753 9
18.795453 -44.160672 -13.310227 9
16.121015 -44.199890 -13.269325 9
13.447114 -44.240889 -13.221495 9
10.772344 -44.232995 -13.137462 9
8.096303 -44.236233 -13.051839 9
5.419248 -44.262092 -12.971258 9
2.739684 -44.277323 -12.876476 9
0.058879 -44.317570 -12.788088 9
-2.623428 -44.375706 -12.701963 9
-5.314562 -44.362637 -12.566408 9
-8.004314 -44.418722 -12.462760 9
-10.703830 -44.420685 -12.319439 9
-13.405711 -44.453293 -12.185613 9
-16.112946 -44.489415 -12.045480 9
-18.827624 -44.517191 -11.892069 9
-21.549367 -44.545030 -11.730206 9
-24.276130 -44.589577 -11.569551 9
-27.011726 -44.628637 -11.397075 9
-29.753844 -44.679388 -11.222754 9
-32.505709 -44.726178 -11.037347 9
-35.267837 -44.770187 -10.841448 9
-38.034963 -44.839437 -10.651457 9
-40.831087 -44.826321 -10.403879 9
-43.678254 -44.652029 -10.051802 9
-46.645759 -44.061392 -9.443583 9
-49.826705 -42.752335 -8.398631 9
-53.162823 -41.034455 -7.098266 9
-56.522922 -39.426704 -5.849668 9
-59.972804 -37.695360 -4.513498 9
-64.601075 -32.288189 -0.966059 8
-66.154187 -37.049655 -3.484343 8
-69.157967 -37.111427 -3.183482 8
-72.206935 -37.094252 -2.824467 8
-75.256060 -37.136329 -2.490124 8
-78.354628 -37.098796 -2.096593 8
-81.447347 -37.138565 -1.738401 8
-84.574158 -37.147854 -1.350227 8
-87.713770 -37.184847 -0.967155 8
-90.893919 -37.182171 -0.547962 8
-94.105620 -37.166662 -0.108653 8
-97.344031 -37.152736 0.342222 8
-100.585206 -37.195642 0.770885 8
-103.870701 -37.203300 1.234159 8
-107.544436 -36.459034 2.176477 8
-113.232116 -31.704265 5.627385 8
-117.794162 -29.502313 7.519589 7
-121.136146 -29.844776 7.843854 7
-124.763922 -29.697719 8.488766 7
-128.463632 -29.493807 9.185328 7
-134.901248 -24.450907 12.955997 7
-136.080459 -28.938949 10.721552 7
-140.086088 -28.448759 11.651354 7
-144.095839 -28.046407 12.544177 7
-148.176353 -27.619928 13.471693 7
150.849432 -27.734840 6.135610 6
147.342127 -27.785043 5.737937 6
143.848460 -27.876786 5.328051 6
140.417546 -27.906491 4.969048 6
136.999473 -27.975635 4.598666 6
133.624854 -28.016271 4.258105 6
130.289328 -28.033534 3.943928 6
126.969327 -28.079035 3.624600 6
123.673142 -28.132533 3.312244 6
120.400336 -28.193381 3.007080 6
114.449697 -35.310074 -1.537027 5
109.837066 -39.345058 -4.203260 5
106.395974 -40.446765 -5.089977 5
103.351734 -40.539886 -5.359557 5
100.381006 -40.478643 -5.526331 5
97.415091 -40.455932 -5.706186 5
94.467589 -40.430025 -5.874230 5
91.542212 -40.385675 -6.021488 5
88.613946 -40.404647 -6.196852 5
85.706840 -40.405518 -6.351823 5
82.827110 -40.359891 -6.469644 5
79.955826 -40.333067 -6.589302 5
77.102931 -40.284007 -6.686484 5
74.248753 -40.291243 -6.807910 5
71.419841 -40.240251 -6.885669 5
68.602459 -40.184022 -6.951310 5
65.775742 -40.223342 -7.064600 5
63.612644 -36.789003 -5.112667 5
60.701993 -37.209000 -5.434361 9
57.613112 -38.814510 -6.448074 9
54.591007 -40.270766 -7.364004 9
51.603659 -41.760917 -8.290690 9
48.659852 -43.221764 -9.190968 9
45.809309 -44.232754 -9.816585 9
43.039914 -44.765088 -10.150817 9
40.333104 -44.842402 -10.207821 9
37.642041 -44.815593 -10.194944 9
34.950855 -44.835738 -10.201443 9
32.264373 -44.846004 -10.193764 9
29.583483 -44.815562 -10.153704 9
26.901830 -44.840412 -10.137988 9
24.222137 -44.878891 -10.122011 9
21.544829 -44.909333 -10.092974 9
18.869484 -44.904610 -10.034823 9
16.194143 -44.937627 -9.990665 9
13.518762 -44.907941 -9.901053 9
10.843296 -44.958175 -9.850395 9
8.166329 -44.967687 -9.767243 9
5.486676 -44.953937 -9.661885 9
2.809032 -45.037050 -9.605557 9
0.126913 -45.068022 -9.509850 9
-2.559491 -45.080941 -9.394920 9
-5.248990 -45.104215 -9.277600 9
-7.943423 -45.120607 -9.147593 9
-10.643692 -45.129111 -9.004237 9
-13.349682 -45.137978 -8.852385 9
-16.061553 -45.150491 -8.693936 9
-18.773600 -45.211797 -8.555839 9
-21.498147 -45.231611 -8.384057 9
-24.232840 -45.237135 -8.194736 9
-26.971990 -45.268265 -8.011719 9
-29.718658 -45.306765 -7.824018 9
-32.475858 -45.338878 -7.623279 9
-35.239123 -45.390762 -7.425167 9
-38.019086 -45.412644 -7.199573 9
-40.821324 -45.387135 -6.935783 9
-43.662131 -45.254970 -6.597613 9
-46.683571 -44.460809 -5.847391 9
-50.910581 -39.144426 -2.334490 9
-53.193492 -41.508562 -3.480318 9
-56.615207 -39.704191 -2.075740 9
-60.099707 -37.884645 -0.646899 9
-64.652759 -32.765245 2.820809 8
-66.323459 -37.162156 0.465054 8
-69.351497 -37.180109 0.805603 8
-72.384226 -37.241526 1.130628 8
-75.498746 -37.125982 1.576516 8
-78.586903 -37.149504 1.948231 8
-81.708659 -37.142133 2.351028 8
-84.848818 -37.148089 2.757700 8
-88.069764 -37.013182 3.264780 8
-91.282764 -36.966580 3.729584 8
-94.518103 -36.931915 4.199909 8
-97.787775 -36.883168 4.692347 8
-101.101002 -36.803427 5.217937 8
-104.459872 -36.693081 5.776887 8
-108.401641 -35.432805 7.081552 8
-116.566504 -25.703304 13.808864 8
-118.958084 -27.998868 12.894209 7
-122.770722 -27.498816 13.780623 7
-126.584875 -27.089778 14.626300 7
-130.614623 -26.374693 15.687823 7
-134.731017 -25.609857 16.801450 7
-138.984885 -24.713128 18.021559 7
-143.482545 -23.515828 19.459944 7
-148.313722 -21.893226 21.201317 7
148.669434 -26.269725 11.109059 6
145.105015 -26.435004 10.628466 6
141.584633 -26.583223 10.172558 6
138.082356 -26.766837 9.708197 6
134.610853 -26.957917 9.252683 6
131.233295 -27.008980 8.897627 6
127.855522 -27.128356 8.512805 6
124.506458 -27.249056 8.139792 6
121.222287 -27.277490 7.836345 6
115.234249 -34.397487 3.159800 5
110.298632 -39.218280 -0.071514 5
106.709309 -40.688290 -1.216940 5
103.610983 -40.910276 -1.580598 5
100.608167 -40.922861 -1.804447 5
97.634703 -40.904122 -1.998487 5
94.676501 -40.892972 -2.186785 5
91.729866 -40.899986 -2.375928 5
88.810972 -40.869030 -2.531662 5
85.912942 -40.817412 -2.664754 5
83.002554 -40.864022 -2.847924 5
80.118590 -40.867729 -2.995030 5
77.246445 -40.879376 -3.137225 5
74.392545 -40.869626 -3.256729 5
71.557588 -40.829042 -3.347917 5
68.735594 -40.777917 -3.423247 5
65.915080 -40.768681 -3.514655 5
63.674295 -37.742144 -1.764564 5
61.088302 -36.336064 -0.990541 9
57.804620 -38.984648 -2.667668 9
54.753305 -40.569992 -3.689469 9
51.738731 -42.196109 -4.726175 9
48.779342 -43.729568 -5.697116 9
45.927836 -44.711023 -6.324223 9
43.151001 -45.269838 -6.686221 9
40.428373 -45.465778 -6.819521 9
37.733168 -45.457987 -6.820633 9
35.039153 -45.485843 -6.834592 9
32.353434 -45.454479 -6.803950 9
29.668251 -45.454971 -6.783887 9
26.985396 -45.459226 -6.757395 9
24.303283 -45.498758 -6.743581 9
21.624284 -45.503538 -6.700005 9
18.946385 -45.495802 -6.640128 9
16.268329 -45.549094 -6.608559 9
13.590556 -45.519029 -6.517680 9
10.912396 -45.553188 -6.457040 9
8.232663 -45.555914 -6.368544 9
5.552332 -45.592565 -6.291881 9
2.870486 -45.634004 -6.209327 9
0.184183 -45.638438 -6.095402 9
-2.506345 -45.633833 -5.967061 9
-5.200891 -45.633182 -5.832171 9
-7.896181 -45.676410 -5.715069 9
-10.607009 -45.613135 -5.523849 9
-13.308092 -45.698609 -5.414455 9
-16.026062 -45.687258 -5.236668 9
-18.749846 -45.687534 -5.056739 9
-21.478835 -45.705020 -4.878048 9
-24.217726 -45.710372 -4.682509 9
-26.961141 -45.741203 -4.493171 9
-29.711292 -45.784034 -4.301698 9
-32.475688 -45.800955 -4.084619 9
-35.252926 -45.806248 -3.850594 9
-38.039011 -45.823357 -3.614007 9
-40.836027 -45.844185 -3.369760 9
-43.742007 -45.457762 -2.862268 9
-46.737314 -44.801743 -2.175770 9
-49.958375 -43.390031 -1.005862 9
-53.316268 -41.649137 0.383782 9
-56.840254 -39.519542 2.031997 9
-60.362071 -37.621784 3.551187 9
-64.599576 -33.590805 6.428455 8
-66.647648 -36.795990 4.766930 8
-69.699939 -36.787987 5.138206 8
-72.775365 -36.771781 5.526619 8
-75.891943 -36.699708 5.962659 8
-79.035231 -36.619128 6.416661 8
-82.225992 -36.478365 6.921856 8
-85.431032 -36.370471 7.419264 8
-88.664720 -36.259173 7.932233 8
-91.907836 -36.193432 8.429556 8
-95.240200 -35.985103 9.032592 8
-98.600500 -35.787983 9.642943 8
-102.013557 -35.548826 10.295397 8
-105.496207 -35.237468 11.010150 8
-110.605424 -31.614278 13.902542 8
-124.135233 -11.152354 27.851314 7
-122.890970 -21.041282 21.964366 7
151.138257 -22.501354 18.049527 6
147.394445 -22.901315 17.387835 6
143.613005 -23.471002 16.632567 6
139.930887 -23.924862 15.967358 6
136.380725 -24.177363 15.446183 6
132.874956 -24.409047 14.952554 6
129.344360 -24.778851 14.384732 6
125.906512 -25.010562 13.918830 6
122.485167 -25.279826 13.442466 6
118.286780 -27.640639 11.652178 5
110.932911 -38.646677 4.402496 5
107.204062 -40.442330 3.012514 5
104.038317 -40.813012 2.537391 5
101.005068 -40.877058 2.267575 5
97.997097 -40.926679 2.018044 5
95.021180 -40.936173 1.804775 5
92.064690 -40.939945 1.605919 5
89.130451 -40.924999 1.429485 5
86.193853 -40.974215 1.223366 5
83.289226 -40.965304 1.064140 5
80.389968 -40.991116 0.893504 5
77.515373 -40.975121 0.759243 5
74.651128 -40.969320 0.628719 5
71.793839 -40.987408 0.493312 5
68.970007 -40.905036 0.430498 5
66.135950 -40.919594 0.317085 5
63.673729 -39.031012 1.398525 5
61.181992 -37.127827 2.497509 9
58.040255 -38.907528 1.314146 9
54.932933 -40.773457 0.087830 9
51.916736 -42.350045 -0.948194 9
48.950514 -43.866529 -1.936789 9
46.066593 -45.039566 -2.702178 9
43.291060 -45.531626 -3.035028 9
40.553214 -45.811926 -3.227062 9
37.855743 -45.768240 -3.208691 9
35.156930 -45.782296 -3.217029 9
32.463993 -45.768721 -3.199073 9
29.771038 -45.803273 -3.201890 9
27.083095 -45.801175 -3.172835 9
24.396665 -45.809834 -3.141359 9
21.712381 -45.796566 -3.087149 9
19.027918 -45.830762 -3.053337 9
16.344694 -45.810814 -2.976739 9
13.660982 -45.828478 -2.914402 9
10.977272 -45.873911 -2.860215 9
8.291380 -45.857369 -2.758268 9
5.605575 -45.903374 -2.686100 9
2.915251 -45.889858 -2.567597 9
0.222963 -45.900291 -2.454759 9
-2.476627 -45.857043 -2.299068 9
-5.176692 -45.871300 -2.169929 9
-7.884647 -45.849569 -2.008856 9
-10.593562 -45.875299 -1.868020 9
-13.310562 -45.878144 -1.703320 9
-16.034521 -45.877696 -1.526947 9
-18.760934 -45.911970 -1.362725 9
-21.492694 -45.957749 -1.196040 9
-24.243857 -45.928122 -0.972048 9
-26.995018 -45.955418 -0.774010 9
-29.753691 -45.991189 -0.571352 9
-32.524262 -46.014453 -0.350717 9
-35.306337 -46.032341 -0.116486 9
-38.117960 -45.964808 0.182309 9
-40.938683 -45.917908 0.478583 9
-43.820237 -45.673974 0.911134 9
-46.889823 -44.752403 1.787663 9
-50.161785 -43.190574 3.086874 9
-53.601341 -41.200962 4.675237 9
-57.188618 -38.909687 6.473773 9
-60.810547 -36.739025 8.212345 9
-64.606585 -34.225282 10.190019 8
-67.177085 -35.797418 9.545780 8
-70.314301 -35.603583 10.053463 8
-73.465405 -35.442232 10.553166 8
-76.617820 -35.348038 11.022398 8
-79.851172 -35.099944 11.605341 8
-83.055888 -35.004120 12.102680 8
-86.350613 -34.745805 12.720396 8
-89.678130 -34.483991 13.355030 8
-93.055188 -34.181313 14.031547 8
-96.455591 -33.904930 14.706065 8
-99.892596 -33.625124 15.398476 8
-103.457036 -33.144993 16.240178 8
-107.671056 -31.367439 17.965142 8
140.060664 -17.198557 24.555578 6
136.526280 -17.259203 24.141505 6
133.015809 -17.335064 23.731998 6
129.213562 -18.189524 22.828139 6
125.425442 -19.128227 21.885279 6
121.661942 -20.128906 20.917854 6
112.492435 -35.635638 10.539115 5
107.958555 -39.500759 7.759284 5
104.601816 -40.345594 6.955965 5
101.565010 -40.368060 6.698056 5
98.537633 -40.422128 6.431421 5
96.758263 -36.593748 8.680791 5
92.572380 -40.428195 5.998515 5
89.604944 -40.467566 5.775569 5
86.639633 -40.559981 5.529666 5
83.714484 -40.568525 5.348691 5
80.803576 -40.579463 5.177024 5
77.900600 -40.615769 4.999837 5
75.017491 -40.627481 4.849054 5
72.152463 -40.615738 4.723806 5
69.283565 -40.676646 4.562535 5
66.431005 -40.718908 4.423571 5
63.614458 -40.632571 4.376996 5
61.550005 -36.401887 6.984646 9
58.337811 -38.482074 5.575378 9
55.216068 -40.335800 4.321854 9
52.157506 -42.092493 3.141141 9
49.160544 -43.734337 2.044256 9
46.242683 -45.084126 1.143737 9
43.450040 -45.644175 0.756098 9
40.701010 -45.951375 0.539172 9
37.995812 -45.906160 0.556205 9
35.289596 -45.914293 0.548848 9
32.584374 -45.963668 0.524790 9
29.887680 -45.939462 0.557105 9
27.192724 -45.921149 0.595197 9
24.498706 -45.920105 0.631817 9
21.805873 -45.926643 0.673129 9
19.114354 -45.911826 0.737573 9
16.422646 -45.927293 0.792255 9
13.730916 -45.932171 0.863232 9
11.038548 -45.943888 0.939412 9
8.344149 -45.924804 1.044846 9
5.648105 -45.925528 1.147263 9
2.948920 -45.914368 1.266938 9
0.248003 -45.930509 1.378852 9
-2.458061 -45.921684 1.516482 9
-5.164964 -45.957203 1.635489 9
-7.881295 -45.935577 1.800968 9
-10.605339 -45.896924 1.987317 9
-13.330348 -45.909835 2.150539 9
-16.062677 -45.915205 2.328643 9
-18.821742 -45.777744 2.608909 9
-21.573819 -45.760961 2.821730 9
-24.325922 -45.799582 3.009079 9
-27.093775 -45.794200 3.235220 9
-29.879933 -45.742327 3.501985 9
-32.664925 -45.756316 3.736704 9
-35.465567 -45.746118 3.997824 9
-38.277601 -45.738355 4.268204 9
-41.100976 -45.735833 4.546134 9
-44.034709 -45.325102 5.101840 9
-47.139429 -44.322413 6.057196 9
-50.503814 -42.469675 7.583866 9
-54.062956 -40.116377 9.455808 9
-57.746378 -37.575559 11.469351 9
-64.595517 -24.606574 20.382409 8
-64.918239 -33.876785 14.640103 8
-68.094289 -33.601187 15.209568 8
-71.283244 -33.366384 15.765762 8
-74.520150 -33.068841 16.377682 8
-77.785319 -32.772882 17.002955 8
-81.147317 -32.294739 17.764820 8
-84.521776 -31.876449 18.502132 8
-87.960489 -31.383237 19.305560 8
-91.505454 -30.721070 20.239280 8
-95.092438 -30.061672 21.188451 8
-98.886435 -29.024388 22.411705 8
-102.843547 -27.743808 23.820167 8
109.232269 -37.163908 13.525858 5
105.541429 -38.834978 12.142857 5
102.421061 -39.013205 11.765916 5
99.362787 -39.075298 11.478503 5
96.307368 -39.191980 11.167198 5
93.282667 -39.275848 10.889711 5
90.267283 -39.392958 10.602223 5
87.305617 -39.387593 10.407266 5
84.337768 -39.462129 10.171224 5
81.354687 -39.659204 9.866107 5
78.418701 -39.741697 9.647774 5
75.518647 -39.737071 9.497862 5
72.615062 -39.804048 9.312040 5
69.739691 -39.802516 9.182119 5
66.865436 -39.851254 9.030139 5
64.007639 -39.875566 8.904954 5
63.653363 -26.087657 17.822009 5
58.763287 -37.324830 10.385404 9
55.578397 -39.421763 8.937439 9
52.471685 -41.358679 7.605659 9
49.418654 -43.270582 6.301523 9
46.485073 -44.618892 5.376186 9
43.645520 -45.456926 4.794351 9
40.897122 -45.642950 4.648118 9
38.165899 -45.740154 4.569890 9
35.446765 -45.767912 4.546977 9
32.733916 -45.768067 4.552058 9
30.025337 -45.749509 4.579318 9
27.317383 -45.762887 4.595707 9
24.611890 -45.771843 4.624936 9
21.909510 -45.725099 4.700477 9
19.205480 -45.772302 4.724653 9
16.503109 -45.749681 4.804388 9
13.799767 -45.694725 4.915256 9
11.095319 -45.696336 4.999178 9
8.388662 -45.668666 5.112290 9
5.679954 -45.655492 5.226000 9
2.968772 -45.650371 5.344548 9
0.253368 -45.629565 5.483526 9
-2.463604 -45.645633 5.608521 9
-5.189048 -45.607088 5.779607 9
-7.918230 -45.590242 5.946774 9
-10.652797 -45.578164 6.121190 9
-13.393609 -45.567195 6.305323 9
-16.146469 -45.515898 6.526576 9
-18.901681 -45.509020 6.729166 9
-21.664152 -45.507737 6.938742 9
-24.443275 -45.455917 7.192544 9
-27.231479 -45.411509 7.452392 9
-30.027387 -45.384229 7.711922 9
-32.843444 -45.310072 8.013762 9
-35.665044 -45.271425 8.303307 9
-38.507267 -45.195975 8.628817 9
-41.372423 -45.082108 8.991631 9
-44.346460 -44.578382 9.627323 9
-47.509272 -43.422287 10.713584 9
-51.013491 -41.120538 12.584668 9
-54.740076 -38.257946 14.851719 9
-58.712787 -34.824370 17.524429 9
-64.644693 -25.123993 24.457373 8
-66.543465 -29.286173 22.037833 8
-69.898410 -28.660908 22.871040 8
-73.403506 -27.690661 23.954912 8
-77.050415 -26.438804 25.248227 8
-81.183540 -23.972373 27.391122 8
-84.687781 -23.436160 28.233338 8
-88.086853 -23.274484 28.834960 8
-91.553243 -23.016910 29.518667 8
-95.066392 -22.725491 30.242412 8
107.148880 -35.474803 18.702261 5
103.722815 -36.388906 17.804202 5
100.543925 -36.683076 17.341891 5
99.644529 -29.919889 21.677476 5
94.386655 -36.871097 16.728152 5
91.303106 -37.082896 16.360639 5
88.242082 -37.291524 16.007910 5
85.199032 -37.510322 15.660792 5
82.224392 -37.544310 15.450528 5
79.245655 -37.655537 15.200188 5
76.284239 -37.762078 14.964893 5
73.349982 -37.816598 14.776317 5
70.421248 -37.908065 14.574525 5
67.514737 -37.957316 14.412578 5
64.619372 -38.010869 14.259130 5
63.607333 -27.747384 21.029298 5
60.282022 -29.778531 19.570297 9
56.054404 -37.823301 14.099313 9
52.852428 -40.203722 12.433791 9
49.751995 -42.283510 10.981464 9
46.777539 -43.782703 9.928968 9
43.901776 -44.764819 9.233262 9
41.124185 -45.063465 9.005139 9
38.373423 -45.197403 8.897644 9
35.640245 -45.205877 8.884473 9
32.910264 -45.225265 8.874463 9
30.186720 -45.197702 8.906264 9
27.464255 -45.189176 8.935769 9
24.743523 -45.183603 8.973722 9
22.023552 -45.199058 9.008034 9
19.305861 -45.148619 9.096837 9
16.586943 -45.177650 9.142921 9
13.868087 -45.155267 9.233856 9
11.147849 -45.130949 9.336571 9
8.425334 -45.095542 9.457231 9
5.699806 -45.054467 9.592252 9
2.969900 -44.995665 9.749774 9
0.238417 -44.984991 9.885645 9
-2.501877 -44.906984 10.077448 9
-5.244005 -44.880652 10.245296 9
-7.990447 -44.867523 10.415065 9
-10.744800 -44.834681 10.608986 9
-13.506979 -44.793792 10.819302 9
-16.276124 -44.758607 11.036824 9
-19.059508 -44.679367 11.295285 9
-21.857617 -44.566924 11.587544 9
-24.649172 -44.565315 11.816109 9
-27.445059 -44.592915 12.036217 9
-30.275724 -44.480904 12.362716 9
-33.117526 -44.379152 12.694063 9
-35.969791 -44.292550 13.027024 9
-38.842425 -44.176110 13.392439 9
-41.749722 -43.974667 13.828333 9
-44.803122 -43.237873 14.644077 9
-48.069627 -41.775608 15.972573 9
-51.793297 -38.757735 18.388581 9
-56.006308 -34.269307 21.840298 9
-61.016617 -27.419169 26.950835 9
99.858531 -30.487968 25.727261 5
96.498893 -31.243316 24.947350 5
93.267399 -31.688153 24.397296 5
90.066321 -32.123248 23.867883 5
86.906531 -32.504460 23.389380 5
83.755524 -32.945358 22.883047 5
80.689789 -33.145723 22.555886 5
77.573512 -33.635391 22.042154 5
74.537074 -33.882032 21.708700 5
71.524899 -34.100514 21.407133 5
68.528093 -34.325959 21.113134 5
65.555055 -34.512471 20.858106 5
63.658559 -28.877363 24.610786 5
60.371414 -30.684068 23.266132 9
56.772706 -34.748868 20.386616 9
53.409898 -37.895577 18.150602 9
50.207733 -40.440695 16.339950 9
47.134286 -42.471017 14.894353 9
44.227260 -43.505077 14.142783 9
41.404285 -44.007840 13.766272 9
38.644935 -44.002566 13.748593 9
35.888007 -44.020380 13.726094 9
33.136292 -44.024509 13.723920 9
30.391047 -43.976879 13.768109 9
27.644288 -43.992421 13.779991 9
24.900042 -44.005287 13.804620 9
22.157995 -44.002291 13.851026 9
19.416952 -43.988746 13.915582 9
16.676193 -43.926584 14.024395 9
13.933967 -43.897011 14.121850 9
11.190171 -43.863931 14.232703 9
8.444384 -43.837711 14.349875 9
5.694917 -43.783676 14.497207 9
2.944807 -43.794208 14.611288 9
0.188656 -43.754111 14.771303 9
-2.573777 -43.691864 14.957782 9
