ply
format ascii 1.0
element vertex 1407
property float x
property float y
property float z
property int scalar_Label
end_header
51.651325 -11.108174 -47.276052 9
52.726814 -18.519429 -44.242501 9
-134.866968 17.212888 23.414387 7
-109.776182 35.667007 3.260661 8
-103.502205 36.606462 0.299548 8
-98.432347 36.491360 -1.608658 8
-93.491506 36.348154 -3.461211 8
-88.636580 36.216281 -5.296834 8
-84.006886 35.943168 -6.974965 8
-79.470899 35.659903 -8.620507 8
-75.132578 35.245599 -10.124629 8
-70.804253 34.903569 -11.674784 8
-66.679676 34.407961 -13.068127 8
-62.637063 33.891493 -14.426697 8
-55.456995 37.312354 -19.229357 9
-49.439716 39.527435 -22.907249 9
-44.347179 40.750923 -25.674306 9
-40.338732 40.696177 -27.308646 9
-36.947658 39.897851 -28.293245 9
-33.543139 39.172196 -29.331783 9
-30.310928 38.259238 -30.206297 9
-27.062081 37.417419 -31.135013 9
-23.825085 36.607762 -32.084885 9
-20.717899 35.651013 -32.909910 9
-17.574721 34.793166 -33.811863 9
-14.541721 33.805952 -34.606616 9
-11.535711 32.814246 -35.396151 9
-8.525462 31.868639 -36.220659 9
-5.428850 31.112983 -37.191652 9
-2.155780 30.720349 -38.439437 9
1.065732 30.302779 -39.660030 9
4.269357 29.918935 -40.898883 9
7.228628 29.134440 -41.828536 9
10.029225 28.082872 -42.556796 9
12.808570 27.018788 -43.277555 9
15.528645 25.860320 -43.931202 9
18.245163 24.717455 -44.599837 9
20.935368 23.539932 -45.247130 9
23.580891 22.281462 -45.840831 9
26.234274 21.056597 -46.463945 9
28.837165 19.726090 -47.018109 9
31.424458 18.365720 -47.558312 9
33.989170 16.953448 -48.070057 9
36.527425 15.472692 -48.543104 9
39.075041 14.013971 -49.040386 9
41.571070 12.405123 -49.445703 9
44.024041 10.654325 -49.767344 9
46.338447 8.453742 -49.804160 9
48.544848 5.849280 -49.594270 9
50.603336 2.663346 -49.029280 9
52.523621 -1.139097 -48.096734 9
54.284859 -5.705918 -46.712793 9
55.845469 -11.284925 -44.733625 9
-119.725167 21.399298 20.917587 8
-99.257532 36.283845 4.148232 8
-93.891878 36.504435 1.864100 8
-88.814655 36.543589 -0.209868 8
-83.952150 36.463374 -2.138669 8
-79.234849 36.327694 -3.986700 8
-74.649114 36.144208 -5.763601 8
-72.452328 33.315348 -5.070903 8
-65.928725 35.539453 -9.026370 8
-62.734148 33.970292 -9.475824 8
-53.257056 40.156688 -16.904570 9
-47.278038 42.331860 -20.633485 9
-42.543814 43.103070 -23.064424 9
-38.753489 42.760720 -24.485788 9
-35.367357 41.949737 -25.484344 9
-31.917361 41.281306 -26.597768 9
-28.617430 40.460402 -27.571450 9
-25.263350 39.770271 -28.649069 9
-22.052410 38.924876 -29.588154 9
-18.908162 38.027112 -30.478159 9
-15.768741 37.167894 -31.395640 9
-12.662837 36.302305 -32.303445 9
-9.610610 35.394815 -33.173289 9
-6.571775 34.508359 -34.057034 9
-3.591217 33.565046 -34.892513 9
-0.676935 32.544337 -35.665005 9
2.227775 31.541902 -36.451394 9
5.359364 31.001473 -37.596490 9
8.516548 30.571527 -38.820585 9
11.666627 30.194399 -40.077833 9
14.781497 29.815044 -41.325893 9
17.565215 28.809992 -42.096903 9
20.295729 27.722229 -42.807598 9
23.000851 26.604679 -43.498903 9
25.680624 25.453290 -44.168671 9
28.340721 24.276924 -44.824217 9
30.978352 23.065052 -45.458668 9
33.590954 21.806454 -46.064912 9
36.199156 20.548823 -46.677765 9
38.771151 19.205585 -47.236720 9
41.328286 17.825946 -47.777755 9
43.844037 16.328644 -48.245729 9
46.235041 14.451595 -48.463924 9
48.510964 12.181627 -48.430392 9
50.676636 9.489023 -48.132327 9
52.737167 6.341350 -47.555745 9
54.717774 2.771630 -46.730524 9
56.629791 -1.230611 -45.657269 9
58.444465 -5.827288 -44.238669 9
60.069470 -11.457299 -42.203286 9
-107.810436 33.752497 14.556608 8
-101.094694 35.078297 11.014540 8
-95.170662 35.772757 8.159849 8
-89.682952 36.157076 5.657639 8
-84.454072 36.394185 3.339297 8
-79.443901 36.513012 1.171556 8
-74.643099 36.511358 -0.847911 8
-70.000445 36.435350 -2.767107 8
-65.498720 36.296096 -4.599462 8
-58.113187 39.717540 -9.717157 9
-51.507860 42.445660 -14.112494 9
-45.561487 44.575262 -17.891187 9
-41.031995 45.079300 -20.139762 9
-37.368912 44.560467 -21.439387 9
-33.833124 43.939592 -22.634201 9
-30.395583 43.246872 -23.753845 9
-27.049519 42.484229 -24.802240 9
-23.729305 41.739670 -25.857777 9
-20.446042 40.995877 -26.905683 9
-17.213100 40.230357 -27.927283 9
-13.999332 39.488190 -28.961592 9
-10.889207 38.633307 -29.894678 9
-7.832931 37.737036 -30.788602 9
-4.794764 36.854757 -31.690215 9
-1.781425 35.974099 -32.589519 9
1.188310 35.059863 -33.458398 9
4.162309 34.195306 -34.364664 9
7.035084 33.183988 -35.151503 9
9.911357 32.214695 -35.971036 9
12.771980 31.251253 -36.794466 9
15.902400 30.877717 -38.074480 9
18.977370 30.457962 -39.311068 9
22.011438 30.017139 -40.524687 9
24.960455 29.452224 -41.638334 9
27.662468 28.375770 -42.364731 9
30.341211 27.270041 -43.071987 9
32.993160 26.122091 -43.751392 9
35.654900 25.019133 -44.467617 9
38.252737 23.771109 -45.082599 9
40.853386 22.542538 -45.717254 9
43.422549 21.237955 -46.303584 9
45.889700 19.643015 -46.692178 9
48.233392 17.660012 -46.820330 9
50.474659 15.310025 -46.709904 9
52.614895 12.554646 -46.341342 9
54.723766 9.580603 -45.849116 9
56.784199 6.301604 -45.179036 9
58.804076 2.708653 -44.330605 9
60.780610 -1.248819 -43.275950 9
62.649191 -5.876473 -41.820873 9
-110.552969 26.303392 25.809702 8
-98.194970 33.276795 16.385806 8
-91.749054 34.532730 12.888514 8
-85.775637 35.458865 9.780263 8
-80.377297 35.913711 7.189683 8
-75.174963 36.282186 4.725474 8
-70.224622 36.489339 2.456536 8
-65.510305 36.537874 0.374643 8
-57.034509 41.208269 -6.077006 9
-49.917012 44.539530 -11.156286 9
-44.078002 46.525090 -14.893791 9
-39.791422 46.705920 -16.899990 9
-38.130678 43.526684 -15.792570 9
-32.539963 45.603562 -19.497924 9
-29.041188 44.980744 -20.710850 9
-25.602620 44.336712 -21.892544 9
-22.212540 43.684544 -23.055700 9
-18.895714 42.984314 -24.165995 9
-15.651371 42.231239 -25.220915 9
-12.436528 41.486563 -26.275069 9
-9.273036 40.713629 -27.297374 9
-6.142387 39.938747 -28.311261 9
-3.040151 39.167267 -29.321725 9
-0.026323 38.292829 -30.240408 9
2.972806 37.437098 -31.170564 9
5.952622 36.591295 -32.104986 9
8.858236 35.650519 -32.958577 9
11.791775 34.803626 -33.885894 9
14.607056 33.764287 -34.656557 9
17.451927 32.818515 -35.501441 9
20.259154 31.830380 -36.312192 9
23.160481 31.082377 -37.309950 9
26.189698 30.671134 -38.564807 9
29.194948 30.273425 -39.823025 9
32.168366 29.869354 -41.069618 9
34.915404 28.974302 -41.940514 9
37.571834 27.884369 -42.666435 9
40.217794 26.789934 -43.392183 9
42.826419 25.615513 -44.062765 9
45.352284 24.222387 -44.579148 9
47.757154 22.473040 -44.846636 9
50.072410 20.422045 -44.911093 9
52.298483 18.035399 -44.754240 9
54.455310 15.338630 -44.400350 9
56.603576 12.501601 -43.973388 9
58.743327 9.507326 -43.464288 9
60.665306 5.558511 -42.331160 9
62.933384 2.716853 -41.987755 9
59.197447 -24.647652 -25.209563 9
65.897466 -10.104362 -36.631915 5
67.742185 -15.662748 -34.619735 5
-104.138457 22.186555 31.358129 8
-89.228485 32.266382 18.672257 8
-82.602529 33.915717 14.749035 8
-76.727614 34.920748 11.539290 8
-71.170230 35.724023 8.583482 8
-66.120263 36.083148 6.112781 8
-56.661944 41.853309 -1.593769 9
-48.771777 46.085992 -7.681861 9
-42.901364 48.088894 -11.532676 9
-38.780410 48.036782 -13.372399 9
-35.033779 47.586935 -14.813000 9
-31.393251 47.069288 -16.172779 9
-27.845156 46.494949 -17.464428 9
-24.311854 45.967397 -18.784731 9
-20.901890 45.329416 -19.990620 9
-17.540199 44.682240 -21.176392 9
-14.189626 44.079800 -22.390913 9
-10.937405 43.385972 -23.513465 9
-7.749389 42.646362 -24.586649 9
-4.594447 41.906757 -25.651769 9
-1.473086 41.164192 -26.706759 9
1.592989 40.378359 -27.717774 9
4.657650 39.640489 -28.763369 9
7.621734 38.769320 -29.690969 9
10.581996 37.935410 -30.645641 9
13.492127 37.049560 -31.553477 9
16.371210 36.143753 -32.442089 9
19.245216 35.268217 -33.352935 9
22.091295 34.375136 -34.247342 9
24.855605 33.342642 -35.029015 9
27.637270 32.380772 -35.866893 9
30.386020 31.376988 -36.671798 9
33.338087 30.896269 -37.883084 9
36.286576 30.472377 -39.132060 9
39.224996 30.092005 -40.407819 9
42.077895 29.555901 -41.559287 9
44.652971 28.313886 -42.177684 9
47.140874 26.833015 -42.623960 9
49.508894 24.988319 -42.810951 9
51.779101 22.805284 -42.764438 9
54.007865 20.424132 -42.592478 9
56.198709 17.832535 -42.290097 9
58.412054 15.213914 -41.991753 9
59.304248 7.707600 -38.272827 9
59.264553 -3.863289 -31.799360 9
59.234872 -16.330664 -24.839492 9
66.507937 0.336106 -38.014455 5
68.944322 -2.197666 -37.919868 5
71.348264 -5.007739 -37.662014 5
73.669855 -8.378119 -37.056344 5
75.824540 -12.831177 -35.767348 5
76.901380 -23.446308 -30.483164 5
-80.663440 30.914603 21.231771 8
-73.662243 33.201424 16.629385 8
-67.705867 34.493403 13.108868 8
-57.182840 41.430626 4.014365 9
-48.068650 47.090429 -3.656231 9
-42.203990 49.050377 -7.568936 9
-37.998423 49.072700 -9.536770 9
-34.171652 48.696719 -11.093252 9
-30.459258 48.246808 -12.558939 9
-28.778013 45.054110 -11.415766 9
-23.206299 47.334229 -15.424430 9
-19.718421 46.788375 -16.748788 9
-16.266468 46.257568 -18.072548 9
-12.891731 45.676998 -19.336935 9
-9.578378 45.065173 -20.560500 9
-6.317578 44.431475 -21.752988 9
-3.111702 43.767843 -22.908327 9
0.044287 43.078141 -24.031154 9
3.135305 42.331496 -25.095660 9
6.196182 41.583824 -26.151974 9
9.220104 40.820314 -27.187888 9
12.215617 40.053851 -28.215148 9
15.154773 39.227245 -29.186083 9
18.074295 38.407434 -30.158312 9
20.926620 37.494008 -31.048967 9
23.808748 36.684743 -32.022729 9
26.609773 35.742017 -32.884430 9
29.433064 34.887319 -33.815872 9
32.160527 33.849008 -34.598361 9
34.929104 32.940544 -35.484495 9
37.629085 31.897271 -36.263940 9
40.375974 31.004132 -37.161729 9
43.245171 30.478358 -38.342879 9
45.478936 28.243327 -38.210447 9
48.236704 27.462276 -39.199618 9
50.174325 24.264734 -38.369654 9
52.416512 21.874782 -38.172954 9
54.960966 20.382483 -38.660346 9
56.788978 16.460483 -37.375912 9
59.266373 14.603414 -37.631904 9
59.271561 3.625964 -31.334034 9
59.270326 -8.248139 -24.525759 9
66.352612 7.335813 -37.283583 5
68.891511 5.437607 -37.577820 5
71.426076 3.457420 -37.830071 5
73.935048 1.282404 -37.964301 5
76.425743 -1.084511 -37.986277 5
78.876767 -3.788232 -37.801658 5
81.282992 -6.918554 -37.356557 5
83.595700 -10.842571 -36.415020 5
85.534365 -17.475588 -33.730866 5
-72.893861 28.705442 24.606504 8
-64.989761 32.294299 18.634114 8
-48.103750 47.190854 1.326123 9
-41.803287 49.639746 -3.190530 9
-37.484089 49.764042 -5.322130 9
-33.491169 49.566416 -7.104986 9
-29.618261 49.297873 -8.793633 9
-25.905134 48.894458 -10.329116 9
-22.247172 48.491652 -11.845575 9
-18.649176 48.079596 -13.334444 9
-15.139287 47.612510 -14.753687 9
-11.724886 47.071876 -16.088172 9
-8.359763 46.522174 -17.399978 9
-5.032933 45.977968 -18.703309 9
-1.784887 45.369686 -19.935520 9
1.421591 44.753336 -21.149121 9
4.574422 44.104604 -22.323188 9
7.676985 43.424541 -23.459945 9
10.720552 42.691931 -24.542047 9
13.727268 41.942455 -25.602168 9
16.731497 41.240356 -26.696448 9
19.681279 40.482155 -27.735967 9
22.565779 39.637900 -28.697074 9
25.421968 38.777412 -29.640623 9
28.281289 37.967295 -30.622721 9
31.086930 37.079838 -31.537402 9
33.881841 36.207493 -32.462220 9
36.645247 35.298914 -33.355614 9
39.374214 34.341063 -34.208218 9
41.982163 33.099588 -34.834847 9
44.463984 31.528500 -35.205385 9
46.850229 29.676421 -35.364882 9
49.139215 27.505908 -35.290223 9
51.399924 25.189098 -35.120322 9
53.688452 22.885484 -34.979763 9
55.956847 20.439139 -34.750589 9
58.238463 17.946165 -34.507682 9
59.211098 10.681657 -30.744947 9
59.271902 -0.512033 -24.175366 9
65.884178 12.937087 -35.711794 5
68.485119 11.411073 -36.240024 5
71.073761 9.807658 -36.722778 5
73.644779 8.089308 -37.135081 5
76.202760 6.257782 -37.480548 5
78.747689 4.292488 -37.747135 5
81.280199 2.171768 -37.922557 5
83.800589 -0.132886 -37.990351 5
86.300321 -2.710311 -37.893785 5
88.766751 -5.700129 -37.544125 5
91.191671 -9.251972 -36.849358 5
93.469889 -14.288829 -35.210330 5
95.254180 -24.021110 -30.553562 5
-49.549275 45.565447 8.182335 9
-41.815775 49.711113 1.780439 9
-37.247794 50.097580 -0.689172 9
-33.105246 50.046767 -2.679641 9
-29.098069 49.913667 -4.558503 9
-25.240192 49.668944 -6.300110 9
-21.489238 49.360885 -7.955765 9
-17.794407 49.055643 -9.592265 9
-14.215931 48.659897 -11.120669 9
-9.797536 49.638410 -13.939835 4
-5.970680 49.832086 -15.976490 4
-3.870050 47.325286 -15.458869 9
-0.574829 46.775498 -16.775340 9
2.690084 46.241142 -18.092717 9
5.874927 45.633064 -19.329993 9
9.057647 45.084178 -20.609583 9
12.125202 44.385743 -21.743756 9
15.217923 43.792444 -22.962588 9
18.202087 43.046201 -24.037108 9
21.163498 42.306146 -25.110096 9
24.107145 41.581248 -26.189615 9
27.025693 40.854868 -27.261503 9
29.878679 40.033981 -28.247209 9
32.705331 39.198077 -29.216169 9
35.510428 38.355100 -30.175727 9
38.286440 37.483719 -31.108758 9
40.998280 36.489206 -31.938531 9
43.553780 35.112277 -32.457182 9
46.018982 33.490958 -32.784379 9
48.360007 31.500253 -32.825612 9
50.668134 29.366885 -32.768366 9
52.930407 27.033832 -32.570946 9
55.272455 24.878186 -32.531103 9
57.601496 22.613153 -32.424008 9
59.243334 17.884828 -30.451439 9
59.274264 7.020300 -23.878000 9
65.211461 17.662175 -33.601659 5
67.854366 16.368951 -34.282022 5
70.480548 15.005357 -34.916946 5
73.088250 13.551115 -35.493200 5
75.686829 12.033102 -36.032270 5
78.276833 10.441655 -36.528654 5
80.857388 8.757767 -36.970424 5
83.425787 6.948016 -37.335943 5
85.990683 5.036771 -37.644850 5
88.553821 3.012622 -37.891329 5
91.100216 0.749544 -37.991062 5
93.639754 -1.738441 -37.958241 5
96.164792 -4.568302 -37.718272 5
98.661775 -7.948780 -37.138071 5
101.105096 -12.282250 -35.961370 5
102.991435 -23.094130 -30.579290 5
-42.449085 49.004442 7.656498 9
-37.499104 49.803587 4.670193 9
-33.066364 50.068267 2.283638 9
-28.847716 50.162682 0.108363 9
-24.834967 50.080695 -1.855553 9
-20.899890 49.987537 -3.779647 9
-17.134723 49.743620 -5.526794 9
-8.243433 57.302064 -14.920181 4
-4.855445 56.866773 -16.364895 4
-1.840276 55.913291 -17.291824 4
0.577302 54.029206 -17.320688 4
2.777466 51.772132 -17.004590 4
3.973232 47.752518 -15.047624 9
7.093693 47.014998 -16.191728 9
10.275355 46.445773 -17.481237 9
13.434949 45.900966 -18.780957 9
16.516765 45.272485 -19.992859 9
19.607551 44.723219 -21.265904 9
22.608408 44.054867 -22.422079 9
25.556386 43.332337 -23.522011 9
28.508030 42.671862 -24.669176 9
31.385928 41.902484 -25.714261 9
34.259708 41.173562 -26.788656 9
37.105605 40.429765 -27.844687 9
39.857657 39.502845 -28.740890 9
42.520332 38.382848 -29.473360 9
45.053159 36.938750 -29.937840 9
47.466121 35.160746 -30.133580 9
49.819450 33.183139 -30.177606 9
52.152548 31.099760 -30.150259 9
54.493847 28.985851 -30.114260 9
56.834808 26.809636 -30.045106 9
58.478454 22.211340 -28.084398 9
59.232503 14.196594 -23.505386 9
59.272072 2.950791 -16.521401 9
67.069007 20.661102 -31.905639 5
69.713720 19.416267 -32.615952 5
72.360682 18.184190 -33.341501 5
74.989689 16.874754 -34.014910 5
77.622777 15.576995 -34.703929 5
80.214748 14.065910 -35.243321 5
82.826643 12.623126 -35.842483 5
85.414131 11.010966 -36.328839 5
88.005344 9.361886 -36.800578 5
90.588848 7.592799 -37.199743 5
93.174216 5.740607 -37.554737 5
95.756461 3.746000 -37.826065 5
98.332371 1.543589 -37.971525 5
100.907273 -0.880317 -37.985862 5
103.482995 -3.578542 -37.837641 5
106.004190 -7.254999 -37.060083 5
108.304158 -14.359943 -34.043607 5
-47.658883 42.555670 19.825784 9
-38.385875 48.691952 11.006092 9
-33.636949 49.283978 8.185451 9
-29.060667 49.782080 5.509330 9
-24.757723 50.033849 3.130922 9
-6.036305 71.007472 -20.424103 1
-2.692580 70.651085 -21.916692 1
-0.253578 69.006384 -22.094311 1
2.156803 67.321235 -22.235873 1
1.291426 60.424482 -17.240636 4
3.447450 58.178344 -16.891104 4
5.523019 55.766769 -16.396338 4
7.409504 52.987472 -15.566517 4
8.322802 48.412536 -13.052423 9
11.450475 47.726152 -14.260259 9
14.676964 47.286313 -15.687428 9
17.791326 46.702860 -16.966936 9
20.889263 46.151671 -18.264423 9
23.930564 45.550195 -19.504534 9
26.973337 45.015046 -20.794225 9
29.920001 44.335432 -21.943960 9
32.843946 43.661448 -23.090684 9
35.708116 42.904284 -24.156710 9
38.584962 42.229181 -25.288311 9
41.352766 41.336368 -26.225260 9
43.938016 40.008632 -26.787032 9
46.430772 38.439440 -27.147843 9
48.840246 36.626025 -27.310990 9
51.184305 34.591107 -27.301001 9
53.574329 32.644627 -27.378965 9
55.960803 30.641033 -27.423883 9
58.346448 28.581477 -27.438060 9
59.275579 21.477367 -23.407802 9
59.232611 10.384679 -16.282089 9
66.337048 25.118508 -29.722556 5
69.032412 24.120051 -30.613042 5
71.593430 22.597539 -31.098028 5
74.166185 21.099221 -31.610802 5
76.809645 19.896322 -32.358146 5
79.451326 18.688167 -33.106784 5
82.062890 17.327060 -33.746300 5
84.689670 16.027793 -34.439658 5
87.301028 14.623517 -35.062938 5
89.907743 13.156540 -35.649334 5
92.513600 11.635752 -36.206730 5
95.105488 9.952150 -36.658220 5
97.703588 8.218592 -37.087374 5
100.306222 6.404797 -37.474025 5
102.904119 4.397534 -37.740890 5
105.487794 2.031317 -37.777432 5
108.002927 -1.464235 -37.062873 5
110.393843 -7.308440 -34.791133 5
-41.451184 44.776340 20.541963 9
-35.183293 47.209503 15.608895 9
-30.012801 48.396754 12.092316 9
-9.564952 71.036555 -14.030163 1
-5.854280 71.067224 -16.005433 1
-2.177406 71.147297 -18.001616 1
1.482168 71.302244 -20.044529 1
4.827850 71.074646 -21.667568 1
6.767844 68.687533 -21.090661 1
8.846628 66.487444 -20.718950 1
7.894658 59.143614 -15.269559 4
9.646687 56.163537 -14.208686 4
11.297957 52.927165 -12.926905 4
12.473685 48.722866 -10.745118 9
15.776068 48.397251 -12.315979 9
18.974655 47.951714 -13.755741 9
22.108922 47.451655 -15.129467 9
25.206763 46.947139 -16.485689 9
28.248654 46.393205 -17.783685 9
31.236017 45.785517 -19.021275 9
34.177145 45.135130 -20.210305 9
37.147121 44.613006 -21.505692 9
39.986030 43.838294 -22.566179 9
42.702274 42.802775 -23.390926 9
45.288234 41.455722 -23.942070 9
47.750766 39.779161 -24.211536 9
50.167167 37.952814 -24.361397 9
52.553561 36.005555 -24.419802 9
54.971155 34.109403 -24.534750 9
57.366144 32.098561 -24.566595 9
59.194005 28.147186 -23.004330 9
59.293507 17.966755 -16.365991 9
59.257877 6.490455 -8.804193 9
67.983904 27.365789 -27.515099 5
70.684997 26.401874 -28.436152 5
73.397710 25.518896 -29.422259 5
76.067728 24.487589 -30.291731 5
78.736651 23.474397 -31.177698 5
81.211416 21.528340 -31.345305 5
83.849018 20.343086 -32.110968 5
86.479617 19.119105 -32.852493 5
89.098755 17.819457 -33.543128 5
91.719133 16.506125 -34.230850 5
94.330364 15.101999 -34.859189 5
96.940400 13.640946 -35.454981 5
99.549167 12.104333 -36.006048 5
102.160607 10.502350 -36.521419 5
104.766963 8.734695 -36.931096 5
107.323573 6.247081 -36.847064 5
109.813012 2.530221 -35.927079 5
112.218065 -3.228522 -33.631533 5
114.498662 -12.801543 -28.782121 5
-13.056083 71.312388 -7.664730 1
-8.301693 72.652449 -11.148769 1
-4.628212 72.618262 -13.102273 1
-1.924281 71.254550 -13.616083 1
1.741144 71.366917 -15.676586 1
5.211621 71.280482 -17.498825 1
8.721798 71.349813 -19.455023 1
10.817591 69.193957 -19.110793 1
12.758642 66.747238 -18.486449 1
11.683999 59.000694 -12.569275 4
13.181251 55.503509 -10.988979 4
13.516758 49.749467 -7.225118 9
16.744070 49.252212 -8.666188 9
20.037228 48.958045 -10.287835 9
23.230689 48.548139 -11.780032 9
26.371104 48.105835 -13.225587 9
29.473773 47.658134 -14.651386 9
31.280089 44.394080 -13.436600 9
35.499986 46.580949 -17.293640 9
38.441179 45.975356 -18.536132 9
41.320041 45.279688 -19.687127 9
43.981902 44.085673 -20.381778 9
46.543404 42.645242 -20.857156 9
48.981559 40.865334 -21.037071 9
51.418982 39.056013 -21.201506 9
53.864387 37.238856 -21.370072 9
56.286635 35.315566 -21.458457 9
58.739545 33.445708 -21.605480 9
59.253868 24.996239 -16.195984 9
59.241781 14.052148 -8.803479 9
66.836095 30.267342 -24.143355 5
69.568366 29.389712 -25.141134 5
72.324706 28.651952 -26.252064 5
75.018551 27.703519 -27.189539 5
77.704444 26.752780 -28.125692 5
80.391997 25.842511 -29.094921 5
82.573780 22.414890 -28.079040 5
85.709470 23.826589 -30.882739 5
88.200747 21.894848 -31.064456 5
90.827227 20.682557 -31.814284 5
93.460408 19.503916 -32.595586 5
96.085141 18.256237 -33.330450 5
98.704318 16.940779 -34.021464 5
101.318394 15.538983 -34.656481 5
103.935723 14.098923 -35.272759 5
106.518180 12.207050 -35.570325 5
109.050759 9.510770 -35.304056 5
111.512338 5.374429 -34.035720 5
113.970005 0.126653 -32.026312 5
115.735389 -19.849692 -19.744100 5
119.148840 -10.517788 -28.084865 6
-9.178988 81.517734 -12.239672 1
-5.321832 81.725395 -14.499541 1
-6.256177 75.359145 -9.461327 1
-1.662019 76.662926 -12.913770 1
1.158346 75.525679 -13.662003 1
3.239674 73.303239 -13.237788 1
5.205250 70.872269 -12.606407 1
8.985531 71.308007 -15.012355 1
11.484678 69.755657 -15.306858 1
16.046971 71.712162 -19.230059 1
17.359685 68.204002 -17.492924 1
14.825336 57.654829 -8.651494 4
15.957557 53.362621 -6.270637 4
17.606118 49.895345 -4.764156 9
20.937616 49.636018 -6.461790 9
24.195279 49.316609 -8.080257 9
27.445703 49.068117 -9.748921 9
30.592055 48.684136 -11.268320 9
33.665477 48.217716 -12.693174 9
36.734152 47.815811 -14.164935 9
39.699447 47.245173 -15.464381 9
42.531286 46.409746 -16.507238 9
44.189641 42.590832 -14.801965 9
46.723806 40.942655 -15.116688 9
50.159883 41.791539 -17.693521 9
52.630697 40.028664 -17.900946 9
55.114662 38.277327 -18.128539 9
57.575575 36.424417 -18.276761 9
59.221998 31.864423 -16.077087 9
59.239000 21.447010 -8.869790 9
59.241009 10.141794 -1.043614 9
68.330359 31.958800 -21.489458 5
71.121701 31.300819 -22.681588 5
73.865854 30.513284 -23.760794 5
76.587216 29.678617 -24.798447 5
79.308491 28.890494 -25.872700 5
82.002726 28.022779 -26.880416 5
84.675329 27.085568 -27.831771 5
87.347600 26.179660 -28.809009 5
89.996543 25.172838 -29.707180 5
92.640407 24.155085 -30.599257 5
95.216386 22.691712 -31.147942 5
97.781418 21.088051 -31.597918 5
100.408525 19.893115 -32.371387 5
103.029902 18.624045 -33.094881 5
105.636781 17.166239 -33.684234 5
108.192289 15.039052 -33.786371 5
110.694202 11.934897 -33.188491 5
113.172386 7.824324 -31.888800 5
115.744410 4.177957 -30.970668 5
118.367225 0.406581 -30.002743 6
121.091456 -2.212877 -29.893924 6
123.840043 -5.228265 -29.533030 6
126.616829 -9.187642 -28.546060 6
-9.368289 86.163016 -10.822432 1
-3.551022 88.929903 -16.088620 3
0.075784 88.972304 -18.149663 3
0.813145 85.080002 -15.733321 1
3.387754 83.702106 -16.179531 1
5.935672 82.303909 -16.599963 1
7.856408 79.971204 -15.993246 1
7.404169 73.897104 -11.340257 1
13.379496 77.891538 -17.614422 1
16.279675 77.135889 -18.715008 1
17.633928 73.800235 -17.077918 1
18.949905 70.293443 -15.299545 1
20.286878 66.708683 -13.480976 1
16.940968 54.274739 -2.616612 4
18.278077 50.161432 -0.426059 9
21.710071 50.048001 -2.317810 9
25.076249 49.901695 -4.152365 9
28.368145 49.697837 -5.907044 9
31.598290 49.454589 -7.602026 9
34.746923 49.119862 -9.188470 9
37.874022 48.821221 -10.792428 9
40.834393 48.207337 -12.078084 9
43.645129 47.283452 -13.059095 9
46.313050 46.029875 -13.725345 9
48.821509 44.361426 -14.006276 9
51.316734 42.638940 -14.245047 9
53.807127 40.879398 -14.458717 9
56.300528 39.101075 -14.664942 9
58.810691 37.344321 -14.900591 9
59.212806 28.556749 -8.890797 9
59.267811 17.888481 -1.342336 9
66.998565 34.247809 -17.568060 5
69.822003 33.637165 -18.821023 5
72.603173 32.928855 -19.983548 5
75.380875 32.267873 -21.181706 5
78.120147 31.503314 -22.287474 5
80.856469 30.781036 -23.425553 5
83.560324 29.958091 -24.476846 5
86.250098 29.109522 -25.505591 5
88.942828 28.323500 -26.584505 5
91.606464 27.415157 -27.563296 5
94.254953 26.443998 -28.492534 5
96.897314 25.454823 -29.409393 5
99.539363 24.483953 -30.343103 5
101.876598 20.959270 -29.289329 5
104.695713 21.418339 -31.350331 5
107.274092 19.720332 -31.743575 5
109.805069 17.289430 -31.594165 5
112.302433 13.981747 -30.809128 5
114.821616 10.221655 -29.722532 5
117.434306 7.106484 -29.153566 6
120.144680 5.245441 -29.534835 6
122.869238 3.227121 -29.818324 6
125.612350 1.009123 -29.976911 6
128.379807 -1.481364 -29.962936 6
131.180426 -4.401225 -29.671356 6
134.031461 -8.090365 -28.873391 6
136.995554 -14.358343 -26.332317 6
-31.491309 88.615995 4.624281 3
-26.150451 89.875895 0.659293 3
-21.017430 91.070437 -3.142939 3
-16.076962 92.205884 -6.795559 3
-11.382974 93.205376 -10.210272 3
-6.952326 94.030634 -13.348705 3
-3.847134 93.294999 -14.570786 3
0.027315 93.633734 -17.036377 3
3.206079 93.143081 -18.490132 3
4.828166 90.546263 -17.488987 3
5.228219 86.142675 -14.447443 1
8.468143 85.779720 -16.041841 1
11.210410 84.737004 -16.849023 1
13.581321 83.149771 -17.042009 1
15.750389 81.241060 -16.883877 1
17.631679 78.838704 -16.197521 1
19.221789 75.891807 -14.943382 1
20.552181 72.406193 -13.144101 1
21.900977 68.837711 -11.298015 1
17.043585 53.529500 2.818933 4
18.675923 49.882145 4.550047 9
22.291451 50.063268 2.298214 9
25.756473 50.058358 0.267563 9
29.189349 50.096585 -1.779791 9
32.488786 49.955583 -3.620814 9
35.722976 49.768173 -5.393124 9
38.901843 49.549288 -7.113464 9
41.892163 48.966303 -8.459096 9
44.683919 47.949816 -9.373187 9
47.303287 46.516421 -9.883412 9
49.847046 44.879897 -10.203781 9
52.364323 43.154117 -10.446867 9
54.901057 41.462948 -10.730655 9
57.448912 39.783998 -11.033812 9
59.238767 35.639306 -9.086144 9
59.209826 25.121735 -1.399627 9
59.223874 13.905064 6.766605 9
68.374569 35.502623 -14.501668 5
70.605485 32.562977 -13.713661 5
74.050855 34.412219 -17.152420 5
76.849369 33.820300 -18.425350 5
79.607908 33.123753 -19.601568 5
82.364257 32.482481 -20.820370 5
85.079101 31.702028 -21.916351 5
87.791725 30.965648 -23.046711 5
90.486125 30.185522 -24.137819 5
93.164943 29.364640 -25.193454 5
95.844371 28.599138 -26.293369 5
98.497284 27.699484 -27.283252 5
101.139265 26.749203 -28.233339 5
103.771905 25.742544 -29.140440 5
106.362094 24.329590 -29.730231 5
108.888363 22.115479 -29.703083 5
111.366104 18.951750 -28.961053 5
113.867102 15.429045 -27.977224 5
115.756550 0.213881 -18.141126 5
119.148689 10.844058 -27.979382 6
121.856547 9.239549 -28.526895 6
124.576394 7.557374 -29.029595 6
127.310337 5.750080 -29.454477 6
130.062372 3.745612 -29.751928 6
132.838713 1.578271 -29.950794 6
135.646576 -0.861115 -29.976661 6
138.497848 -3.689177 -29.752717 6
141.411980 -7.097511 -29.152725 6
144.463848 -12.263867 -27.371725 6
-35.028775 94.470298 7.247904 3
-31.532746 93.578497 5.914096 3
-27.360494 93.488371 3.571122 3
-22.869256 93.860389 0.685968 3
-18.604445 94.098168 -1.968624 3
-12.852897 96.217207 -6.928201 3
-8.971485 96.277641 -9.231236 3
-5.080335 96.454798 -11.632301 3
-1.393766 96.478535 -13.800323 3
1.139567 95.077255 -14.212437 3
4.295328 94.541100 -15.650269 3
7.331132 93.904304 -16.944461 3
9.139350 91.562530 -16.226055 3
8.890966 86.138943 -11.962554 1
11.900627 85.457240 -13.216784 1
14.525568 84.231391 -13.834992 1
16.816807 82.492602 -13.870879 1
18.903362 80.407438 -13.526774 1
20.644872 77.702878 -12.513083 1
22.125499 74.469933 -10.948533 1
16.790981 58.716492 4.116874 4
10.812157 40.850678 21.156468 9
18.638498 48.735869 10.544619 9
22.562948 49.436482 7.673008 9
26.241363 49.789545 5.206709 9
29.779061 49.980129 2.943459 9
33.204884 50.050769 0.834055 9
36.584295 50.134796 -1.260985 9
39.794769 49.938275 -3.046998 9
41.575632 46.317065 -1.402951 9
45.608824 48.302794 -5.330393 9
48.206256 46.743987 -5.734054 9
50.785099 45.128328 -6.087221 9
53.357977 43.483821 -6.418541 9
55.918032 41.785000 -6.704784 9
58.507166 40.154613 -7.063365 9
59.246269 32.461477 -1.760353 9
59.227780 21.599499 6.372077 9
66.785616 36.965448 -9.744740 5
69.714649 36.602253 -11.272288 5
72.592417 36.137278 -12.695686 5
75.440663 35.640856 -14.080792 5
78.272783 35.162884 -15.473077 5
81.061868 34.577625 -16.762068 5
83.842453 34.031959 -18.078662 5
86.583515 33.366592 -19.284824 5
89.308564 32.684991 -20.472258 5
92.010115 31.934507 -21.597052 5
94.703612 31.195296 -22.728531 5
97.382978 30.423217 -23.830010 5
100.047920 29.602661 -24.889669 5
102.710734 28.818222 -25.978181 5
105.331383 27.703123 -26.797402 5
107.896828 25.997487 -27.145745 5
110.398911 23.362385 -26.765925 5
112.897101 20.179033 -25.979163 5
115.315793 14.935935 -23.613452 5
118.121037 15.423130 -25.758009 6
120.820065 14.070745 -26.470502 6
123.526392 12.679751 -27.162357 6
126.241148 11.224659 -27.815361 6
128.966271 9.645704 -28.386343 6
131.705969 7.967813 -28.896554 6
134.463395 6.211676 -29.363437 6
137.243840 4.270819 -29.711269 6
140.054159 2.121532 -29.926883 6
142.902418 -0.266521 -29.992985 6
145.802594 -3.009797 -29.832084 6
148.778099 -6.297501 -29.318734 6
-38.605148 100.331579 9.891486 3
-35.146828 99.326516 8.640843 3
-33.044181 96.975732 9.243553 3
-30.861151 94.693825 9.741680 3
-27.874570 93.276096 9.084200 3
-23.267865 93.709225 6.014968 3
-18.710409 94.219069 2.911910 3
-8.774910 101.235402 -8.473048 2
-4.313387 102.082887 -11.788710 2
-0.898298 101.768839 -13.577834 2
0.861024 99.406204 -12.785463 2
2.873275 97.342621 -12.379804 3
5.489707 96.081732 -12.962889 3
7.836304 94.469396 -13.113868 3
11.216428 94.350054 -15.047477 3
11.536102 89.786918 -11.695669 3
12.497718 86.031360 -9.359185 1
15.271994 84.998997 -10.228423 1
17.786262 83.584328 -10.647476 1
20.029467 81.731903 -10.566697 1
22.000478 79.397826 -9.951417 1
16.347226 63.497846 5.768654 4
1.596618 30.042284 40.570379 9
12.826296 43.611469 23.271820 9
17.897898 46.185883 18.201602 9
22.326580 47.756986 14.293642 9
26.316753 48.640275 11.180215 9
30.139305 49.341870 8.305997 9
33.744656 49.726351 5.805732 9
37.206528 49.924802 3.533457 9
40.538669 49.945032 1.474818 9
43.585354 49.375192 0.042304 9
46.384392 48.240808 -0.806896 9
49.001220 46.647756 -1.194405 9
51.594033 44.980244 -1.512904 9
54.227428 43.415631 -1.938476 9
56.829687 41.748195 -2.268874 9
58.584687 37.376325 -0.002577 9
59.246277 29.113210 5.923266 9
59.251217 17.927486 14.494545 9
68.021579 37.692446 -6.110816 5
70.981647 37.394905 -7.728655 5
73.905253 37.061379 -9.299157 5
76.803459 36.728816 -10.857485 5
79.658210 36.312152 -12.327194 5
82.475860 35.822163 -13.720479 5
85.271795 35.318619 -15.092693 5
88.031864 34.718099 -16.371113 5
90.777591 34.120199 -17.645420 5
93.520024 33.589991 -18.972301 5
96.220814 32.881213 -20.139308 5
98.906561 32.136836 -21.272494 5
101.587443 31.423471 -22.429183 5
104.245410 30.586049 -23.479466 5
106.852570 29.301714 -24.159054 5
109.395820 27.248021 -24.213414 5
111.891110 24.288681 -23.548711 5
114.430095 21.326597 -22.912790 5
116.985028 17.867653 -21.910834 6
119.756310 17.995155 -23.787673 6
122.464042 16.973383 -24.749644 6
125.167605 15.709077 -25.526847 6
127.878253 14.441059 -26.308774 6
130.596322 13.059392 -27.011772 6
133.325346 11.616411 -27.678077 6
136.068880 10.049010 -28.261862 6
138.830179 8.390441 -28.790636 6
141.613670 6.610108 -29.243961 6
144.424041 4.696456 -29.616106 6
147.267909 2.613712 -29.884128 6
-42.257260 106.175410 12.605188 3
-38.235186 105.632637 10.615202 3
-36.114904 103.314733 11.195093 3
-34.004377 100.973678 11.796820 3
-31.874574 98.637294 12.380519 3
-29.757719 96.271582 12.992910 3
-27.391262 94.160077 13.247999 3
-23.938667 93.260651 11.872409 3
-10.729479 103.654220 -4.453922 2
-6.496847 104.116939 -7.396595 2
-2.719859 104.154216 -9.724954 2
0.462070 103.550645 -11.182206 2
2.829961 101.965879 -11.363522 2
4.647628 99.661896 -10.638536 2
6.465126 97.324090 -9.888886 2
9.127069 96.132593 -10.569984 3
11.459489 94.496156 -10.697950 3
14.492184 93.901898 -12.085590 3
15.801900 90.738398 -10.378085 3
16.000639 85.733754 -6.529245 1
18.682043 84.552553 -7.242422 1
21.069126 82.908613 -7.409952 1
20.181872 42.166453 25.369145 9
25.637473 45.869252 19.055971 9
29.919768 47.409735 15.176663 9
33.884905 48.470219 11.870861 9
37.651343 49.267345 8.893960 9
39.281801 45.081364 11.176365 9
44.159311 48.848732 5.158935 9
46.987013 47.688863 4.303049 9
49.627179 46.050593 3.938787 9
52.279657 44.437196 3.544626 9
54.918312 42.773492 3.196136 9
57.597036 41.217119 2.735417 9
59.122200 35.946198 5.919486 9
59.201451 25.456753 14.114939 9
66.077795 38.053971 -0.126513 5
69.170901 38.058121 -2.085581 5
72.188823 37.913693 -3.882950 5
75.173977 37.765866 -5.659454 5
78.093719 37.467899 -7.279145 5
80.981378 37.141527 -8.858703 5
83.846991 36.825911 -10.435206 5
86.672598 36.425171 -11.921973 5
89.461897 35.937345 -13.319792 5
92.233916 35.451984 -14.711012 5
94.975737 34.881628 -16.018783 5
97.702307 34.304064 -17.313631 5
100.412892 33.706531 -18.585063 5
103.108099 33.082644 -19.828454 5
105.748888 32.054373 -20.722504 5
108.326844 30.379640 -21.072150 5
110.849764 27.879083 -20.741944 5
113.167470 22.093441 -17.708855 5
115.815406 19.922992 -17.723030 5
118.673685 21.432826 -20.757879 6
121.373114 20.302589 -21.625049 6
124.075840 19.162729 -22.489371 6
126.786134 18.223613 -23.518331 6
129.496402 17.242724 -24.517119 6
132.209382 16.034946 -25.342594 6
134.930731 14.734368 -26.103439 6
137.662744 13.381421 -26.832819 6
140.408643 11.943923 -27.507666 6
143.171032 10.430756 -28.136660 6
145.956202 8.780388 -28.675777 6
148.763803 7.065147 -29.181446 6
-45.928562 112.066391 15.312719 3
-41.301517 111.962423 12.542407 3
-39.214259 109.625698 13.169916 3
-37.109455 107.292686 13.781365 3
-34.972911 104.977305 14.356563 3
-32.840563 102.644774 14.946222 3
-30.710764 100.295091 15.549316 3
-28.587279 97.922610 16.172785 3
-26.417067 95.582915 16.738276 3
-23.833246 93.688792 16.680753 3
-11.340781 103.191367 1.158415 2
-4.311872 106.886190 -6.228760 2
-1.200127 106.135512 -7.553995 2
0.789628 104.041491 -7.087197 2
4.320753 103.910471 -9.182730 2
6.895063 102.607254 -9.728602 2
8.610687 100.159148 -8.808282 2
10.079476 97.321215 -7.418491 3
12.073570 95.173656 -6.920673 3
15.123500 94.568302 -8.339381 3
17.107780 92.396137 -7.819357 3
16.523910 86.139095 -2.373432 1
19.478323 85.354003 -3.592249 1
27.476549 40.562461 27.624622 9
33.198251 45.292093 20.173082 9
37.478223 47.115249 15.982734 9
41.235937 47.930314 12.936213 9
44.452762 47.564857 11.184693 9
47.335076 46.415615 10.276606 9
50.029231 44.784039 9.875459 9
52.716896 43.126157 9.497492 9
55.454166 41.604334 8.975937 9
58.138451 39.915751 8.620518 9
59.181093 32.858890 13.640358 9
59.254787 21.961085 22.373729 9
67.075244 37.885856 4.528619 5
70.243700 38.079474 2.337716 5
73.330740 38.119389 0.320747 5
76.365650 38.097215 -1.614840 5
79.345743 37.985033 -3.444806 5
82.274775 37.778834 -5.168312 5
85.173817 37.560821 -6.865063 5
88.030822 37.259099 -8.469415 5
90.854272 36.898910 -10.007127 5
93.652842 36.515031 -11.511759 5
96.422915 36.072050 -12.952473 5
99.170069 35.589142 -14.348285 5
101.907632 35.155165 -15.779260 5
104.588763 34.366644 -16.890636 5
107.214801 33.105830 -17.588648 5
109.780884 31.127212 -17.672847 5
112.311648 28.420121 -17.150758 5
114.880090 25.698036 -16.643328 5
117.321366 19.969488 -13.639568 6
120.290725 23.823475 -18.681496 6
122.992277 22.825838 -19.652777 6
125.691832 21.698491 -20.520659 6
128.395578 20.577421 -21.398440 6
131.103730 19.454016 -22.279349 6
133.815563 18.434129 -23.247935 6
136.528787 17.487871 -24.278688 6
139.250911 16.329612 -25.147145 6
141.983864 15.080672 -25.952038 6
144.732720 13.708115 -26.670279 6
147.495648 12.306097 -27.376305 6
-44.428196 118.248584 14.535369 3
-42.292181 115.962944 15.100167 3
-40.192929 113.635825 15.721256 3
-38.075505 111.313902 16.324781 3
-35.915501 109.020407 16.875833 3
-33.811857 106.661304 17.515764 3
-31.679484 104.315735 18.124443 3
-29.533666 101.968949 18.723888 3
-27.393282 99.600690 19.342995 3
-25.245508 97.222837 19.963692 3
-23.027448 94.904592 20.488233 3
-6.794338 108.655241 -1.308220 2
-2.316731 109.429311 -4.803785 2
1.050811 109.004552 -6.594713 2
2.367971 106.096435 -5.011456 2
3.651810 103.078314 -3.316879 2
5.931219 101.303463 -3.294177 2
10.490220 102.632784 -7.311896 2
11.145800 98.668458 -4.433379 2
13.297675 96.729709 -4.197525 3
15.312247 94.571957 -3.693326 3
15.634172 89.787915 0.075406 3
31.221591 30.482341 39.195512 9
40.525845 44.237450 21.794766 9
44.184042 44.779469 18.977199 9
47.215848 43.830523 17.796723 9
49.966457 42.155664 17.397003 9
52.711653 40.456168 17.019406 9
55.475152 38.798842 16.593316 9
58.200722 37.010369 16.298482 9
57.619224 24.261554 27.207107 9
58.461296 15.351183 34.016909 9
67.852305 36.840827 10.152007 5
71.175363 37.487371 7.450217 5
74.355784 37.782227 5.130108 5
77.495133 38.092787 2.822168 5
80.528700 38.122559 0.813395 5
83.524493 38.140030 -1.162191 5
86.458928 38.015812 -2.982380 5
89.351219 37.819813 -4.717401 5
92.213830 37.603854 -6.418144 5
95.046456 37.355336 -8.073997 5
97.840350 36.999071 -9.617201 5
100.613393 36.634149 -11.141187 5
103.348978 36.112696 -12.513110 5
106.038523 35.295493 -13.612548 5
108.655081 33.783401 -14.092751 5
111.199581 31.287084 -13.715885 5
113.761646 28.564007 -13.165394 5
115.738802 15.540254 -3.741651 5
119.189318 26.904681 -15.390564 6
121.894079 25.994783 -16.433503 6
124.597439 25.089221 -17.480733 6
127.297732 24.054804 -18.421412 6
130.000564 23.096966 -19.428521 6
132.705408 21.995394 -20.320196 6
135.415166 20.876818 -21.202784 6
138.132413 19.686100 -22.032577 6
140.849707 18.679072 -23.015406 6
143.569742 17.693112 -24.019082 6
146.299793 16.605539 -24.947382 6
149.044877 15.397590 -25.788206 6
-47.572542 124.540059 16.536608 3
-45.386092 122.298387 17.038661 3
-43.291520 119.974799 17.669091 3
-41.193543 117.644351 18.301942 3
-39.060827 115.334054 18.893798 3
-36.927522 113.014051 19.492325 3
-34.812522 110.665394 20.125971 3
-32.647630 108.351375 20.696394 3
-30.510892 105.996994 21.318318 3
-28.371322 103.630228 21.947723 3
-26.224577 101.254369 22.578972 3
-24.057264 98.882950 23.191805 3
-21.875583 96.509262 23.795969 3
-19.537671 94.295486 24.160860 3
-2.437616 109.476059 0.087618 2
1.302708 109.446542 -2.324528 2
3.918613 108.116628 -2.897343 2
5.231344 105.137415 -1.217154 2
8.005507 104.019652 -2.076054 2
11.020946 103.268516 -3.405558 2
11.532537 99.060470 -0.160109 2
13.885080 97.363671 -0.254453 3
15.220354 94.150875 1.604079 3
18.125313 93.257651 0.463082 3
39.401960 30.238952 39.946877 9
43.214189 30.701952 37.039543 9
45.914324 28.231097 37.349888 9
48.503597 25.366121 38.065865 9
51.360859 23.212377 38.001158 9
53.997437 20.304783 38.719220 9
56.648582 17.322850 39.489200 9
59.397542 14.549149 40.016806 9
68.215853 34.153733 17.584952 5
71.864710 35.848633 13.732259 5
75.224925 36.704868 10.779268 5
78.488337 37.403442 8.022632 5
81.606341 37.681978 5.716593 5
84.699335 38.046262 3.353414 5
87.700434 38.153965 1.267089 5
90.650187 38.171724 -0.710240 5
93.545233 38.051278 -2.535506 5
96.410236 37.914562 -4.328211 5
99.246804 37.762026 -6.089788 5
102.034874 37.422803 -7.662401 5
104.787924 36.947417 -9.097735 5
107.461975 35.847396 -9.953536 5
110.055466 33.846719 -9.995457 5
112.617786 31.160537 -9.438358 5
115.246822 28.900595 -9.287307 5
118.053083 29.374442 -11.566412 6
120.774350 28.672148 -12.795855 6
123.487145 27.913703 -13.973364 6
126.194023 27.102524 -15.103532 6
128.897276 26.234449 -16.184381 6
131.599241 25.345800 -17.248169 6
134.302607 24.327086 -18.204182 6
137.008326 23.332984 -19.183766 6
139.716630 22.346753 -20.172933 6
142.437186 21.165500 -21.006737 6
145.167199 19.955553 -21.823857 6
147.890523 18.972527 -22.829437 6
-51.297153 130.424029 19.288253 3
-48.514067 128.626333 19.010456 3
-46.400765 126.321420 19.619699 3
-44.279841 124.015545 20.223967 3
-42.153137 121.706677 20.826252 3
-40.034273 119.382431 21.446414 3
-37.925658 117.038976 22.089395 3
-35.778380 114.718939 22.685484 3
-33.640182 112.379274 23.303973 3
-31.495083 110.033386 23.922540 3
-29.360618 107.663059 24.568730 3
-27.192917 105.310713 25.176366 3
-25.021459 102.946735 25.790877 3
-22.847388 100.568634 26.415190 3
-20.680019 98.164608 27.065789 3
-18.479811 95.777439 27.679060 3
-15.927272 93.784692 27.713257 3
1.216806 109.481646 2.616578 2
4.952135 109.491319 0.117287 2
6.767447 107.140654 0.952463 2
7.994409 103.975524 2.888309 2
11.224330 103.456429 1.184325 2
12.513049 100.284184 3.083768 2
13.251666 96.225616 6.120837 3
71.485545 29.806130 24.731340 5
75.689814 33.789545 18.444505 5
79.241928 35.516268 14.553247 5
82.544194 36.452342 11.515218 5
85.765448 37.284933 8.620786 5
88.832482 37.585042 6.291298 5
91.867762 37.939471 3.935402 5
94.831050 38.099188 1.796165 5
97.741685 38.138079 -0.203509 5
100.609662 38.089055 -2.098887 5
103.436841 37.932079 -3.873848 5
106.193019 37.341861 -5.226013 5
108.842453 35.770495 -5.656313 5
111.434257 33.371513 -5.331047 5
114.038054 30.696483 -4.775377 5
114.590272 -6.918068 27.449462 5
119.617755 30.692800 -8.551688 6
122.354182 30.210631 -9.988469 6
125.075128 29.579605 -11.286480 6
127.786953 28.844522 -12.488850 6
130.494008 28.115760 -13.694187 6
133.197811 27.265894 -14.793089 6
135.947465 24.130094 -13.942841 6
138.603153 25.546042 -16.974088 6
141.307909 24.634195 -18.022093 6
144.024502 23.533446 -18.915160 6
146.736342 22.603327 -19.953593 6
-55.117526 136.327350 22.138924 3
-51.629781 134.990762 20.954522 3
-49.524432 132.680231 21.579253 3
-47.412362 130.368962 22.199809 3
-45.271416 128.073884 22.786014 3
-43.164639 125.744928 23.425422 3
-41.026383 123.433395 24.027609 3
-38.913715 121.091510 24.674008 3
-36.768756 118.767312 25.282397 3
-34.628389 116.428545 25.906633 3
-32.471704 114.093131 26.516506 3
-30.312399 111.747893 27.133085 3
-28.158322 109.383904 27.769666 3
-25.987075 107.022041 28.392391 3
-23.812656 104.647594 29.023901 3
-21.648285 102.244964 29.687093 3
-19.455096 99.854585 30.319470 3
-17.249998 97.458066 30.948933 3
4.094846 103.735754 10.802744 2
7.964858 103.906228 8.010739 2
83.116954 33.267633 19.461099 5
86.606308 35.186171 15.366804 5
89.858681 36.258832 12.186316 5
92.254761 32.524955 13.863840 5
96.048036 37.544964 6.804181 5
99.028820 37.892770 4.453158 5
101.950505 38.084177 2.281368 5
104.807371 38.007842 0.391686 5
107.544275 37.014815 -0.601375 5
110.191851 35.059778 -0.678535 5
112.799303 32.317246 -0.028608 5
115.274906 26.945942 3.047575 5
118.411095 32.006714 -3.600037 6
121.180728 31.745364 -5.266986 6
123.927456 31.309560 -6.763442 6
126.660805 30.847666 -8.227783 6
129.382066 30.318853 -9.624610 6
132.094582 29.638634 -10.881134 6
134.800755 29.015478 -12.184260 6
137.504193 28.267725 -13.375028 6
140.205955 27.490763 -14.538935 6
142.910340 26.628212 -15.628825 6
145.616811 25.743869 -16.701026 6
148.327219 24.828565 -17.748660 6
-185.640175 139.229825 116.381069 0
-173.135502 139.810337 107.106824 0
-161.400445 140.348538 98.409699 0
-150.352167 140.853466 90.223517 0
-139.927709 141.329151 82.500548 0
-130.079514 141.775375 75.207700 0
-120.717164 142.215397 68.260594 0
-112.146805 142.474920 62.031547 0
-109.131828 140.005476 62.165531 3
-100.940175 140.377091 56.100137 3
-93.101390 140.750184 50.280432 3
-85.667727 141.081213 44.782474 3
-78.540261 141.412794 39.498372 3
-71.722068 141.731306 34.442632 3
-65.181424 142.044567 29.585954 3
-58.925231 142.337048 24.947255 3
-54.973204 141.233381 23.187828 3
-52.651707 139.066437 23.534391 3
-50.532022 136.759511 24.149453 3
-48.421795 134.441006 24.781906 3
-46.288535 132.134070 25.388009 3
-44.162925 129.815290 26.010481 3
-42.022212 127.501468 26.618154 3
-39.893184 125.170421 27.249907 3
-37.749412 122.842756 27.868545 3
-35.627962 120.485859 28.529612 3
-33.461885 118.157299 29.134006 3
-31.319164 115.796043 29.784701 3
-29.161984 113.435069 30.425303 3
-26.998725 111.065876 31.069396 3
-24.816617 108.700432 31.697181 3
-22.620520 106.333744 32.316592 3
-20.426477 103.948196 32.954855 3
90.498878 32.472731 20.757859 5
93.949731 34.770007 16.266437 5
97.162094 36.077828 12.842514 5
100.256597 36.997254 9.854620 5
103.253448 37.559415 7.260344 5
106.115763 37.285976 5.521132 5
108.855905 35.966547 4.820089 5
111.475890 33.149621 5.567210 5
114.134198 30.282360 6.333834 5
115.859092 10.869154 22.825056 5
119.943286 32.279896 0.480650 6
122.737388 32.233626 -1.416674 6
125.506508 32.099567 -3.216415 6
128.253671 31.802389 -4.852036 6
130.985318 31.400355 -6.381098 6
133.704764 30.980235 -7.884965 6
136.415254 30.456363 -9.287836 6
139.120733 29.835248 -10.598376 6
141.821813 29.188336 -11.882112 6
144.523957 28.444680 -13.078187 6
147.226829 27.664584 -14.241317 6
-196.116106 146.662355 125.241572 0
-183.889487 146.677924 116.432181 0
-172.442939 146.658217 108.217559 0
-161.961251 146.499251 100.826467 0
-153.483983 145.721360 95.449128 0
-143.593635 145.744710 88.317034 0
-134.224954 145.756462 81.571690 0
-125.329143 145.760501 75.174354 0
-116.815588 145.783622 69.035071 0
-110.090241 145.102686 64.832408 0
-104.067028 144.199220 61.340848 3
-96.596437 144.198480 55.975729 3
-89.442899 144.198321 50.838677 3
-82.584600 144.199169 45.913573 3
-76.013950 144.194159 41.201266 3
-69.690500 144.196623 36.660329 3
-63.602552 144.204419 32.284298 3
-57.958409 144.073069 28.356390 3
-54.370739 142.701042 27.053863 3
-51.652822 140.784936 26.880077 3
-49.422630 138.542931 27.358859 3
-47.315213 136.210877 28.009926 3
-45.161785 133.907219 28.602472 3
-43.048725 131.566966 29.258676 3
-40.893693 129.252213 29.861941 3
-38.783400 126.893406 30.538919 3
-36.604432 124.582395 31.123150 3
-34.463461 122.229927 31.773858 3
-32.300739 119.885621 32.402212 3
-30.147700 117.520768 33.057367 3
-27.974534 115.161635 33.693605 3
-25.773616 112.815943 34.298301 3
-23.598441 110.430495 34.959141 3
97.957869 32.042461 21.680979 5
101.301088 34.380113 17.140881 5
103.656462 28.913959 20.587104 5
107.329214 35.290394 12.043804 5
109.302457 24.811414 20.443369 5
112.681192 29.552911 13.635954 5
115.435990 26.906361 14.170180 5
118.577489 30.911504 8.219159 6
121.466907 31.736488 5.417131 6
124.297556 32.079332 3.107613 6
127.093640 32.296173 0.940865 6
129.859944 32.255393 -0.963522 6
132.604996 32.155605 -2.797099 6
135.334167 31.860562 -4.436358 6
138.050821 31.507247 -6.011640 6
140.758124 31.083772 -7.514066 6
143.460262 30.568366 -8.926234 6
146.159203 29.988327 -10.275031 6
-201.421811 147.098167 137.233850 0
-191.996665 145.886763 131.399758 0
-179.857096 145.922112 122.390679 0
-168.364017 145.972334 113.847509 0
-157.488125 146.027070 105.758148 0
-147.219129 146.068789 98.131306 0
-137.469399 146.114635 90.885976 0
-128.481244 146.033045 84.324699 0
-133.953978 139.196392 94.797923 0
-111.863775 145.822630 72.254899 0
-106.531632 144.476260 69.587863 0
-99.388382 144.192352 64.585366 3
-92.035729 144.188281 59.166270 3
-84.978339 144.193387 53.957775 3
-78.220913 144.193694 48.976429 3
-71.728439 144.198457 44.187603 3
-65.509128 144.192173 39.611890 3
