ply
format ascii 1.0
element vertex 1354
property float x
property float y
property float z
property int scalar_Label
end_header
-20.277020 -21.996490 46.002946 9
-24.282661 -26.145568 43.774089 9
-28.342949 -30.414441 41.529810 9
-27.923288 -33.264648 42.073382 9
-37.877534 -39.762036 36.226853 9
-46.193155 44.254125 30.523663 9
-40.411219 41.530267 34.141021 9
-35.458896 38.880839 37.252959 9
-31.449015 36.270652 39.789628 9
-27.882575 33.709357 42.059691 9
-28.686211 30.820297 41.636866 9
-27.375158 28.128961 42.529829 9
-24.982550 25.586363 44.098763 9
-22.885594 23.055648 45.492783 9
-21.136269 20.519847 46.680003 9
-19.604233 17.986448 47.740996 9
-18.446098 15.423382 48.579553 9
-17.433783 12.856562 49.336395 9
-16.681549 10.260397 49.941497 9
-16.194947 7.624972 50.391866 9
-15.895362 4.957070 50.736180 9
-15.873600 2.230873 50.919217 9
-16.089326 -0.554139 50.966273 9
-16.537415 -3.405010 50.881078 9
-17.301867 -6.350530 50.613032 9
-18.473627 -9.425069 50.107643 9
-20.021584 -12.634373 49.385067 9
-21.987824 -16.003348 48.420985 9
-24.623868 -19.619803 47.064312 9
-28.065758 -23.548116 45.234994 9
-32.842605 -27.982233 42.616112 9
-34.757567 -31.604894 41.744770 9
-37.023405 -35.399589 40.677132 9
-46.969772 41.348106 34.318017 9
-41.816934 38.667045 37.477601 9
-37.707031 36.022114 40.015957 9
-34.159974 33.418105 42.222800 9
-35.393164 30.451804 41.556590 9
-33.518250 27.773295 42.772957 9
-31.072078 25.196584 44.341604 9
-29.009911 22.621851 45.687027 9
-27.184535 20.056206 46.897984 9
-25.722938 17.473288 47.898347 9
-24.451412 14.888141 48.792755 9
-23.538194 12.266245 49.480529 9
-22.819359 9.624800 50.060392 9
-22.304863 6.955305 50.526695 9
-22.100631 4.229640 50.816501 9
-22.155859 1.448026 50.960788 9
-22.442518 -1.392181 50.976877 9
-23.047698 -4.319197 50.813514 9
-24.029152 -7.357976 50.437232 9
-25.335551 -10.508312 49.879616 9
-27.054530 -13.804712 49.089762 9
-29.347397 -17.306035 47.973567 9
-32.364464 -21.075253 46.444155 9
-36.421051 -25.231530 44.318050 9
-41.812311 -29.902079 41.425169 9
-41.352290 -32.822422 41.994798 9
-49.133602 38.402713 37.275291 9
-44.216199 35.762573 40.229460 9
-41.070377 33.083803 42.149967 9
-42.353708 30.069563 41.476271 9
-39.905029 27.402112 43.005240 9
-37.420531 24.787864 44.563625 9
-35.356154 22.171954 45.883735 9
-33.509215 19.567638 47.084666 9
-32.018525 16.947743 48.085255 9
-30.786788 14.315599 48.942812 9
-29.855436 11.655767 49.633427 9
-29.177161 8.966617 50.185167 9
-28.727300 6.244300 50.612841 9
-28.571063 3.468245 50.878894 9
-28.695751 0.631265 50.991348 9
-29.127044 -2.281732 50.935954 9
-29.844996 -5.276502 50.725091 9
-30.951541 -8.387354 50.300522 9
-32.505467 -11.642237 49.629401 9
-34.513883 -15.058166 48.709048 9
-37.153828 -18.699097 47.438918 9
-40.667747 -22.655520 45.681622 9
-46.853067 -27.488983 42.407231 9
-48.838802 -31.179401 41.566511 9
-99.260255 35.670065 12.683775 8
-87.826203 32.974350 19.313343 8
-69.390350 31.069278 29.961717 9
-48.524318 29.767448 42.002933 9
-48.389649 26.830704 42.174577 9
-44.213573 24.340438 44.668547 9
-41.878095 21.712240 46.117574 9
-40.062009 19.061471 47.278343 9
-38.536566 16.403937 48.281927 9
-37.294325 13.731280 49.132866 9
-36.423321 11.019825 49.781366 9
-35.790319 8.280661 50.303812 9
-35.412120 5.502789 50.691067 9
-35.341375 2.667456 50.913747 9
-35.559824 -0.231754 50.982885 9
-36.089878 -3.209342 50.886509 9
-36.966480 -6.283672 50.605705 9
-38.283333 -9.488683 50.088589 9
-40.037629 -12.838361 49.338088 9
-42.323609 -16.371907 48.302624 9
-46.761221 -20.546263 46.074063 9
-54.031291 -25.624311 42.277521 9
-55.765425 -29.248679 41.606120 9
-95.118582 32.700490 19.912643 8
-87.057181 29.928708 24.501062 8
-55.276723 29.421794 42.334319 9
-55.136913 26.444804 42.510666 9
-55.618584 23.399724 42.351553 9
-56.257241 20.322403 42.116478 9
-48.889401 18.271700 46.348558 9
-45.974345 15.744457 48.108816 9
-44.348171 13.079176 49.160980 9
-43.316699 10.347357 49.892161 9
-42.709566 7.559328 50.397740 9
-42.354468 4.732911 50.773866 9
-42.404870 1.830113 50.936200 9
-42.700074 -1.129454 50.974384 9
-43.454186 -4.199910 50.771002 9
-44.796215 -7.425346 50.256250 9
-47.361446 -10.974965 49.082580 9
-59.308492 -16.902017 42.775948 9
-63.065461 -20.983678 40.990419 9
-102.823865 32.406180 20.440609 8
-94.720013 29.586112 24.938793 8
-88.510360 26.764802 28.415256 8
-83.647898 23.936944 31.168228 8
-82.731640 20.779059 31.787660 8
-64.794093 19.656442 41.651691 9
-65.860781 16.449761 41.211536 9
-65.662755 13.393249 41.468949 9
-64.473138 10.485073 42.274293 9
-63.717132 7.527518 42.855762 9
-69.286787 3.501107 40.034067 9
-69.316950 0.356314 40.217677 9
-74.191093 -3.722965 37.805745 8
-75.507808 -7.191700 37.325742 8
-65.858280 -8.363233 42.747040 9
-67.877118 -11.942033 41.910944 9
-85.433262 -19.201544 32.776467 8
-89.163208 -23.462701 31.072358 8
-105.096100 -30.921716 22.881452 8
-150.420155 137.338345 -125.427105 0
-149.595236 139.893397 -124.537497 0
-148.712704 142.332871 -123.741549 0
-147.893796 144.803665 -122.908890 0
-146.566799 146.657985 -122.631101 0
-142.484014 145.454033 -125.183082 0
-139.403816 145.450821 -126.674797 0
-136.213822 145.399053 -128.252451 0
-133.893405 146.316991 -128.947046 0
-130.571222 146.252148 -130.614165 0
-126.345800 145.367615 -133.127600 0
-122.989366 145.435056 -134.767655 0
-119.557809 145.503013 -136.454608 0
-116.841949 146.307084 -137.447104 0
-147.886486 137.990117 -122.927008 0
-147.064704 140.531198 -122.074114 0
-146.218769 142.998640 -121.276665 0
-145.438921 145.498453 -120.441485 0
-142.525057 145.600602 -121.761847 0
-139.333933 145.464640 -123.334846 0
-136.158437 145.417871 -124.866947 0
-132.933278 145.389984 -126.422670 0
-129.641207 145.365225 -128.017949 0
-126.919266 145.976398 -129.051228 0
-122.896518 145.374952 -131.285752 0
-119.508353 145.474048 -132.897713 0
-116.040971 145.571162 -134.558760 0
-113.640109 146.707749 -135.231005 0
-145.385695 138.694252 -120.408140 0
-144.560933 141.214577 -119.596626 0
-143.753077 143.710212 -118.797352 0
-142.905792 146.120094 -118.064445 0
-139.256139 145.468644 -120.051473 0
-136.093530 145.425516 -121.540364 0
-132.863038 145.381862 -123.069575 0
-129.704745 145.482139 -124.507772 0
-127.175352 146.270445 -125.345829 0
-123.860891 146.337236 -126.890299 0
-119.412319 145.400739 -129.434150 0
-115.900898 145.447305 -131.099466 0
-112.525413 145.691865 -132.620562 0
-143.679568 136.826713 -118.737374 0
-142.883323 139.408886 -117.905820 0
-142.062408 141.917584 -117.126929 0
-141.305609 144.454794 -116.314426 0
-140.186755 146.558657 -115.868955 0
-136.054633 145.459535 -118.237137 0
-132.832007 145.413321 -119.727966 0
-129.537843 145.365451 -121.260440 0
-126.149775 145.296860 -122.853565 0
-123.731593 146.240878 -123.560355 0
-119.343622 145.353070 -125.993884 0
-115.886754 145.439996 -127.576267 0
-112.294696 145.477008 -129.252430 0
-109.535209 146.328600 -130.193667 0
-141.135353 137.523441 -116.250596 0
-140.376199 140.131031 -115.421070 0
-139.581394 142.653709 -114.652561 0
-138.812575 145.162722 -113.886394 0
-137.139495 146.677475 -113.963958 0
-132.800125 145.443010 -116.434475 0
-129.498277 145.376716 -117.941866 0
-126.114421 145.301790 -119.497721 0
-123.684543 146.223699 -120.202547 0
-119.904397 145.900879 -122.060056 0
-115.774906 145.342126 -124.185309 0
-112.270411 145.449282 -125.751032 0
-108.702198 145.572881 -127.347581 0
-106.188544 146.685334 -128.051603 0
-138.639859 138.289157 -113.729792 0
-137.867163 140.864586 -112.949150 0
-137.120116 143.424434 -112.171675 0
-136.348222 145.915883 -111.441609 0
-132.834745 145.540438 -113.128440 0
-129.452962 145.381485 -114.673623 0
-126.115432 145.342110 -116.156584 0
-122.738156 145.336575 -117.650512 0
-120.221452 146.217714 -118.401622 0
-116.849044 146.342457 -119.854744 0
-112.163634 145.346877 -122.364535 0
-108.570188 145.438866 -123.946072 0
-105.072069 145.688433 -125.428485 0
-136.884321 136.426843 -112.021982 0
-136.138535 139.060593 -111.226214 0
-135.351933 141.605445 -110.491999 0
-134.625720 144.173051 -109.730035 0
-133.661907 146.454156 -109.194610 0
-129.485666 145.464324 -111.383066 0
-126.106730 145.372298 -112.869113 0
-122.689357 145.317122 -114.363911 0
-120.163639 146.179570 -115.108153 0
-116.379005 145.912720 -116.862519 0
-112.111999 145.294513 -118.975961 0
-108.495955 145.356292 -120.540094 0
-104.895492 145.507259 -122.069664 0
-102.107416 146.421765 -122.946173 0
-134.369864 137.213575 -109.504644 0
-133.626722 139.833584 -108.741574 0
-132.914771 142.443102 -107.976854 0
-132.153833 144.959531 -107.276843 0
-130.656655 146.694821 -107.203325 0
-126.072856 145.377119 -109.645534 0
-122.672401 145.328100 -111.093686 0
-119.254281 145.335609 -112.533913 0
-116.654180 146.172991 -113.308205 0
-112.102493 145.280399 -115.597119 0
-108.457277 145.305458 -117.148605 0
-104.788882 145.387124 -118.695472 0
-101.200927 145.613243 -120.159476 0
-131.866266 138.024679 -106.987715 0
-131.135769 140.642236 -106.247706 0
-130.389204 143.201012 -105.543902 0
-129.670592 145.748502 -104.839763 0
-126.189865 145.530416 -106.343297 0
-122.670790 145.353558 -107.853105 0
-119.286358 145.382179 -109.235030 0
-115.764257 145.354362 -110.702154 0
-112.184568 145.349356 -112.191268 0
-108.467725 145.298403 -113.761839 0
-104.781383 145.353349 -115.286671 0
-100.987431 145.393614 -116.869302 0
-97.609776 145.859252 -118.124669 0
-129.368371 138.854356 -104.474705 0
-128.629879 141.448588 -103.773163 0
-127.916126 144.027492 -103.074001 0
-127.004751 146.371973 -102.548397 0
-122.672658 145.382038 -104.650569 0
-119.220107 145.335535 -106.052669 0
-115.729415 145.327450 -107.462148 0
-112.157811 145.319745 -108.910642 0
-108.564357 145.368010 -110.353859 0
-104.738076 145.288812 -111.945460 0
-100.969659 145.340699 -113.472151 0
-97.257796 145.517872 -114.936827 0
-94.529991 146.570765 -115.685501 0
-127.543842 137.007169 -102.711715 0
-126.831214 139.656297 -101.999036 0
-126.136692 142.281820 -101.294194 0
-125.451918 144.876341 -100.603034 0
-123.986315 146.677439 -100.512482 0
-119.219462 145.350757 -102.858818 0
-115.718796 145.322904 -104.242730 0
-112.149179 145.306626 -105.655713 0
-108.497476 145.292751 -107.106471 0
-104.805836 145.321044 -108.564257 0
-100.979476 145.311678 -110.095507 0
-97.855661 145.967122 -111.116486 0
-93.452195 145.634554 -113.006309 0
-125.026733 137.858685 -100.193944 0
-124.325917 140.505092 -99.503368 0
-123.627472 143.113049 -98.831455 0
-122.954692 145.706833 -98.160613 0
-119.410612 145.547165 -99.565504 0
-115.694984 145.306081 -101.070372 0
-112.130376 145.284349 -102.445909 0
-108.636841 145.400678 -103.751579 0
-104.850423 145.333478 -105.240323 0
-101.004607 145.296115 -106.747765 0
-97.164514 145.344486 -108.229480 0
-93.262948 145.422071 -109.731367 0
-90.069219 146.143890 -110.741714 0
-122.482103 138.695627 -97.700709 0
-121.805150 141.352273 -97.022617 0
-121.147219 143.987009 -96.350591 0
-120.278347 146.383110 -95.844545 0
-115.753941 145.365828 -97.876658 0
-112.222284 145.362484 -99.196589 0
-109.622385 146.259740 -99.866079 0
-104.831451 145.291003 -101.997949 0
-101.152052 145.385003 -103.357178 0
-97.320406 145.427174 -104.797233 0
-93.362298 145.445274 -106.299238 0
-89.412479 145.551962 -107.774513 0
-86.671809 146.682498 -108.453860 0
-120.644172 136.892651 -95.856919 0
-119.987042 139.596074 -95.175056 0
-119.316074 142.244620 -94.521886 0
-118.633789 144.843413 -93.894683 0
-117.203236 146.712666 -93.787202 0
-112.198534 145.335840 -96.063064 0
-109.689599 146.304107 -96.657406 0
-104.972483 145.387841 -98.686347 0
-101.256913 145.438125 -100.035544 0
-97.420098 145.463654 -101.442889 0
-93.481310 145.485191 -102.894701 0
-89.475070 145.534184 -104.368194 0
-85.498943 145.688853 -105.802058 0
-118.101519 137.773836 -93.337004 0
-117.451107 140.469879 -92.679725 0
-116.826119 143.149656 -92.023767 0
-116.160068 145.751954 -91.412316 0
-112.411878 145.524178 -92.809519 0
-108.667371 145.381646 -94.182800 0
-105.035842 145.417492 -95.463612 0
-101.314168 145.451166 -96.782269 0
-97.518340 145.499471 -98.127880 0
-93.616056 145.538612 -99.519764 0
-89.595078 145.562989 -100.964282 0
-85.479622 145.596196 -102.445478 0
-82.295045 146.425416 -103.345896 0
-115.561413 138.671582 -90.816141 0
-114.925388 141.368101 -90.177518 0
-114.278421 144.015054 -89.562908 0
-113.399698 146.414669 -89.110158 0
-108.797555 145.482163 -90.986972 0
-105.108453 145.455467 -92.270588 0
-101.413366 145.500296 -93.538737 0
-97.629291 145.546399 -94.842167 0
-93.701535 145.552505 -96.212827 0
-89.754837 145.624300 -97.574858 0
-85.614075 145.624493 -99.031803 0
-81.420732 145.669673 -100.498623 0
-113.657663 136.860041 -88.922882 0
-113.022144 139.584363 -88.294271 0
-112.421909 142.301482 -87.660515 0
-111.788575 144.949166 -87.063317 0
-110.172993 146.688379 -87.075038 0
-105.184814 145.496978 -89.109748 0
-101.509976 145.547617 -90.332259 0
-97.755390 145.606464 -91.583629 0
-93.818613 145.592789 -92.922853 0
-89.877344 145.656620 -94.245054 0
-85.776958 145.675883 -95.639284 0
-79.595205 144.186037 -98.195039 3
-111.091303 137.774734 -86.388864 0
-110.489205 140.517442 -85.766887 0
-109.851542 143.188152 -85.181815 0
-109.238368 145.843930 -84.597245 0
-105.297642 145.570462 -85.961007 0
-101.572079 145.565935 -87.179784 0
-97.821820 145.617281 -88.394440 0
-93.959315 145.652961 -89.654664 0
-89.991059 145.682628 -90.955674 0
-83.990472 144.203079 -93.367369 3
-79.706336 144.184663 -94.795386 3
-108.519538 138.699254 -83.854976 0
-107.907523 141.420740 -83.264804 0
-107.333936 144.138315 -82.667436 0
-106.391053 146.496966 -82.292787 0
-101.683532 145.626634 -84.031434 0
-97.911304 145.647775 -85.224473 0
-94.085710 145.702044 -86.428992 0
-88.231171 144.211352 -88.719370 3
-84.090918 144.206530 -90.048952 3
-79.833485 144.196456 -91.421668 3
-75.493847 144.211693 -92.817935 3
-106.590215 136.918474 -81.879185 0
-105.978887 139.667210 -81.299281 0
-105.369568 142.379289 -80.732454 0
-104.824858 145.110733 -80.143994 0
-101.771961 145.668076 -80.927736 0
-98.021287 145.695817 -82.075063 0
-92.325633 144.210671 -84.239886 3
-88.306242 144.207165 -85.485876 3
-84.192865 144.211908 -86.762431 3
-79.950941 144.201692 -88.086721 3
-75.592835 144.190689 -89.451215 3
-71.149392 144.205735 -90.839221 3
-103.981585 137.851356 -79.331186 0
-103.417705 140.631173 -78.750272 0
-102.820209 143.342871 -78.200803 0
-102.235310 146.029294 -77.657547 0
-96.280542 144.199971 -79.919103 3
-92.358198 144.183653 -81.095955 3
-88.386208 144.207507 -82.280341 3
-84.275177 144.202630 -83.517365 3
-80.039088 144.185281 -84.798681 3
-75.725772 144.196088 -86.099370 3
-71.278817 144.195907 -87.446826 3
-98.971172 139.969971 -77.161153 3
-98.400446 142.728001 -76.612148 3
-96.301693 144.174295 -76.844669 3
-92.457235 144.211447 -77.946606 3
-88.448914 144.194625 -79.112797 3
-84.346629 144.185522 -80.307312 3
-80.164219 144.198031 -81.522706 3
-75.839140 144.187695 -82.788613 3
-71.413809 144.191174 -84.083493 3
-66.884353 144.209020 -85.408472 3
-96.370999 140.964497 -74.577278 3
-95.812213 143.722656 -74.045007 3
-92.512291 144.203771 -74.847296 3
-88.504718 144.176773 -75.976319 3
-84.454467 144.197597 -77.108195 3
-80.281165 144.205276 -78.280647 3
-75.993410 144.210908 -79.488633 3
-71.552579 144.190187 -80.749119 3
-67.024957 144.196691 -82.030390 3
-93.790174 141.991233 -71.974965 3
-92.579259 144.206290 -71.768718 3
-88.603336 144.193754 -72.846489 3
-84.541466 144.193973 -73.946878 3
-80.366782 144.189194 -75.081501 3
-76.085904 144.188515 -76.246489 3
-71.715960 144.208260 -77.433403 3
-67.180068 144.195845 -78.675761 3
-62.536101 144.198414 -79.946730 3
-91.672598 140.179405 -69.906216 3
-91.136692 142.974027 -69.395694 3
-88.670040 144.185695 -69.757658 3
-84.614123 144.179702 -70.818409 3
-80.511597 144.219304 -71.882959 3
-76.215349 144.194707 -73.015210 3
-71.839091 144.197598 -74.164351 3
-67.333964 144.195122 -75.350839 3
-62.701137 144.192701 -76.573223 3
-57.953452 144.203651 -77.825175 3
-89.007204 141.179080 -67.297602 3
-88.519876 144.004250 -66.786931 3
-84.732547 144.201948 -67.695392 3
-80.582279 144.193110 -68.743173 3
-76.347953 144.204054 -69.809617 3
-71.980226 144.201060 -70.914753 3
-67.484289 144.192783 -72.055426 3
-62.908968 144.218282 -73.210709 3
-58.138907 144.200039 -74.427053 3
-86.859530 139.368458 -65.161375 3
-86.350753 142.203732 -64.671051 3
-84.835596 144.212698 -64.604102 3
-80.679968 144.188319 -65.616394 3
-76.457473 144.196755 -66.639415 3
-72.136179 144.216288 -67.685643 3
-67.650175 144.202605 -68.780662 3
-63.060098 144.204829 -69.899273 3
-58.340064 144.208413 -71.050959 3
-53.461043 144.198150 -72.246117 3
-84.170488 140.393329 -62.512693 3
-83.719509 143.265750 -62.019576 3
-80.795403 144.197808 -62.506499 3
-76.572594 144.194379 -63.491352 3
-72.236558 144.191301 -64.503829 3
-67.821850 144.217511 -65.529932 3
-63.231194 144.206465 -66.606189 3
-58.504368 144.192352 -67.716301 3
-53.660705 144.192996 -68.852131 3
-81.502852 141.453021 -59.839589 3
-80.896139 144.196581 -59.425560 3
-76.682621 144.188834 -60.368686 3
-72.364714 144.187565 -61.334857 3
-67.961436 144.210076 -62.316404 3
-63.356385 144.176534 -63.355349 3
-58.681941 144.186498 -64.402246 3
-53.899820 144.215737 -65.470545 3
-48.895806 144.191810 -66.600317 3
-79.275601 139.630840 -57.614847 3
-78.806987 142.508299 -57.160172 3
-76.798719 144.188514 -57.266201 3
-72.514556 144.200585 -58.181154 3
-68.089381 144.195016 -59.130421 3
-63.543252 144.191171 -60.106013 3
-58.904552 144.212877 -61.097299 3
-54.073182 144.194950 -62.138290 3
-49.141851 144.206120 -63.195949 3
-44.013312 144.186118 -64.302734 3
-76.525544 140.670595 -54.916818 3
-76.092464 143.567732 -54.468546 3
-72.647743 144.202000 -55.055814 3
-68.255252 144.208188 -55.953705 3
-63.740412 144.213995 -56.877149 3
-59.093899 144.217151 -57.828494 3
-54.305646 144.215344 -58.810246 3
-49.364116 144.205775 -59.825307 3
-44.281777 144.201837 -60.868670 3
-73.787783 141.738946 -52.194024 3
-72.796328 144.215482 -51.946676 3
-68.362888 144.179910 -52.818131 3
-63.884937 144.200317 -53.688458 3
-59.237385 144.190469 -54.597415 3
-54.490540 144.204406 -55.521675 3
-49.592403 144.210529 -56.477013 3
-44.509598 144.192287 -57.472895 3
-39.294492 144.189577 -58.492012 3
-71.423257 139.863429 -49.886802 3
-71.036208 142.815967 -49.454238 3
-68.525488 144.192176 -49.685177 3
-64.035978 144.192037 -50.518545 3
-59.452203 144.214229 -51.365447 3
-54.693730 144.206863 -52.249675 3
-49.780013 144.189223 -53.164315 3
-44.772139 144.206504 -54.090297 3
-39.567776 144.196061 -55.057314 3
-68.681217 140.974472 -47.103198 3
-68.258093 143.893009 -46.699466 3
-64.200299 144.193939 -47.364786 3
-59.617414 144.204326 -48.169804 3
-54.898915 144.211597 -48.998760 3
-50.005850 144.194377 -49.862001 3
-44.988999 144.192006 -50.744109 3
-39.810731 144.184359 -51.654990 3
-32.792478 143.127435 -53.061419 3
-65.849540 142.038788 -44.322089 3
-64.360821 144.193860 -44.231599 3
-59.801820 144.208574 -44.988451 3
-55.051287 144.181184 -45.783086 3
-50.253778 144.215247 -46.575105 3
-45.233270 144.196436 -47.411774 3
-39.318553 143.703501 -48.471088 3
-63.436727 140.179588 -41.890875 3
-63.034948 143.136220 -41.509742 3
-59.965620 144.199217 -41.831730 3
-55.289734 144.210316 -42.563426 3
-50.453529 144.204863 -43.321725 3
-45.153052 143.989547 -44.183419 3
-60.564359 141.262094 -39.049856 3
-60.172285 144.220477 -38.682142 3
-55.476378 144.204891 -39.376394 3
-50.557162 144.131016 -40.110633 3
-43.558716 142.791491 -41.332439 3
-58.017526 139.331489 -36.550770 3
-57.686089 142.361870 -36.180939 3
-55.672005 144.206353 -36.204837 3
-49.852870 143.516810 -37.100754 3
-22.449285 110.010118 -41.821398 3
-40.541618 126.746516 -37.306848 3
-55.102698 140.433042 -33.643398 3
-54.775674 143.461081 -33.288545 3
-55.822216 1.800879 -46.137424 9
-55.774784 7.640756 -45.526009 9
-54.748875 12.099678 -45.191882 9
-53.193989 15.814722 -45.006101 9
-51.240704 18.987483 -44.929462 9
-48.756647 21.491587 -44.993434 9
-45.288218 22.835997 -45.311958 9
-39.435739 21.484684 -46.238750 9
-31.816590 18.290452 -47.598602 9
-21.851383 105.567461 -38.785343 3
-40.086218 122.739429 -34.482278 3
-52.864747 135.421419 -31.385149 3
-52.492567 138.483093 -31.050490 3
-52.159945 141.537276 -30.709842 3
-150.000737 -4.064165 -29.282869 7
-149.992740 3.719769 -28.621217 7
-149.671471 10.489419 -28.090042 7
-144.863668 7.392143 -29.068018 7
-111.191667 -1.918670 -34.743431 8
-111.543760 5.339695 -34.042742 8
-110.716664 10.359521 -33.705816 8
-109.220107 14.127214 -33.572507 8
-106.910815 16.489985 -33.676660 8
-103.180014 16.571973 -34.182296 8
-98.128053 14.673808 -35.048029 8
-92.383646 11.877356 -36.088140 8
-68.964890 -10.531078 -41.337641 9
-67.298150 -6.596871 -41.190201 9
-69.672046 2.913622 -39.974424 9
-67.674226 6.136038 -39.931833 9
-68.199672 12.701307 -39.234303 9
-69.389622 19.963488 -38.379595 9
-67.443011 22.975717 -38.340990 9
-65.004269 25.329567 -38.427019 9
-62.570108 27.679652 -38.509734 9
-60.007254 29.864973 -38.622045 9
-57.491174 32.104971 -38.719902 9
-54.874749 34.225482 -38.839272 9
-51.680338 35.687146 -39.094312 9
-47.753535 36.355741 -39.517872 9
-42.696577 35.840644 -40.199043 9
-37.359825 35.131604 -40.931512 9
-31.594714 34.086171 -41.748090 9
-18.216562 25.260795 -44.297185 9
-11.164245 23.316846 -45.357526 9
-3.363661 20.798596 -46.565168 9
6.065704 16.881703 -48.112747 9
-21.264203 101.076373 -35.693261 3
-39.671631 118.714716 -31.603098 3
-50.499919 130.218265 -29.064808 3
-50.173185 133.380683 -28.732674 3
-49.833384 136.496343 -28.404931 3
-149.997439 -11.213679 -26.082182 7
-148.239795 -7.172512 -26.038011 7
-145.333406 -5.847936 -26.360459 7
-150.076893 12.209739 -24.317872 7
-149.445333 17.974114 -23.972011 7
-145.790665 17.231495 -24.548400 7
-142.003909 16.320840 -25.153264 7
-138.127044 15.339969 -25.773109 7
-134.111524 14.202611 -26.421316 7
-129.914258 12.841004 -27.109058 7
-125.464324 11.142471 -27.854853 7
-120.452406 8.574442 -28.742939 7
-116.684755 8.387620 -29.269635 8
-115.752177 13.175095 -29.012838 8
-113.984283 16.414635 -28.989267 8
-112.262223 19.661336 -28.955759 8
-110.353032 22.537913 -28.973939 8
-108.022787 24.697533 -29.103065 8
-105.013988 25.786555 -29.406006 8
-101.050717 25.454012 -29.947750 8
-96.719825 24.661500 -30.572163 8
-92.404327 23.997378 -31.180559 8
-85.547770 19.812577 -32.407583 8
-80.639105 18.593570 -33.131838 8
-75.436201 17.098888 -33.913378 8
-69.934483 15.342599 -34.751439 8
-69.750739 20.727638 -34.304317 9
-68.854701 25.064321 -34.033469 9
-67.686030 28.967981 -33.830822 9
-65.053051 30.987314 -33.970525 9
-62.402705 32.988831 -34.110529 9
-59.809322 35.063058 -34.233737 9
-57.067647 36.967171 -34.386701 9
-54.241643 38.785238 -34.554137 9
-50.883846 40.021003 -34.834484 9
-46.938247 40.647684 -35.236760 9
-41.873142 40.128052 -35.872984 9
-36.636329 39.534603 -36.532532 9
-31.291743 38.941811 -37.200881 9
-25.821127 38.335021 -37.881393 9
-20.205655 37.700319 -38.577418 9
-14.133671 36.738009 -39.353002 9
-8.115939 35.962451 -40.100576 9
-1.888732 35.119072 -40.874387 9
4.626415 34.144028 -41.689290 9
19.900974 25.364433 -44.242221 9
28.075114 23.348028 -45.335332 9
37.103891 20.776995 -46.573304 9
-20.745213 96.580391 -32.532174 3
-39.250918 114.637295 -28.677160 3
-48.090057 124.876697 -26.659648 3
-47.756676 128.105863 -26.341865 3
-47.446627 131.312510 -26.021312 3
-150.189606 -18.137473 -22.698371 7
-148.721018 -13.218991 -22.594498 7
-145.341687 -12.873955 -23.050253 7
-141.938894 -12.530261 -23.505712 7
-138.518553 -12.172860 -23.959037 7
-150.408347 20.799457 -20.155373 7
-147.340581 21.196923 -20.550271 7
-140.162138 13.313784 -22.052283 7
-140.097450 19.933297 -21.617747 7
-136.527651 19.541304 -22.123342 7
-132.906717 19.136235 -22.633249 7
-129.207442 18.671228 -23.154211 7
-125.477487 18.238648 -23.673526 7
-121.648890 17.719088 -24.208287 7
-117.583411 16.882577 -24.792426 7
-115.378821 19.288664 -24.904972 8
-113.437554 22.095624 -24.951873 8
-111.435775 24.755521 -25.013468 8
-109.358272 27.253795 -25.092766 8
-106.642859 28.731167 -25.322567 8
-103.150531 29.041073 -25.730869 8
-99.090695 28.567561 -26.263456 8
-94.972576 28.100851 -26.799113 8
-90.837099 27.701568 -27.328231 8
-86.605502 27.258581 -27.868627 8
-82.309435 26.820604 -28.412703 8
-77.892368 26.314511 -28.972705 8
-73.368429 25.765870 -29.544886 8
-69.734810 26.463907 -29.911593 9
-69.059373 30.947923 -29.632268 9
-67.059632 33.699312 -29.639797 9
-64.279060 35.477372 -29.811088 9
-61.637909 37.433830 -29.948399 9
-58.881792 39.262750 -30.105373 9
-56.121528 41.099351 -30.258464 9
-53.039781 42.588286 -30.472404 9
-49.559640 43.666138 -30.760949 9
-45.280451 43.925621 -31.202280 9
-40.229631 43.444786 -31.786670 9
-35.066472 42.953746 -32.380162 9
-29.909026 42.577138 -32.959193 9
-24.491180 42.046395 -33.575383 9
-18.920061 41.479249 -34.206914 9
-13.295182 40.977645 -34.834155 9
-7.432385 40.368501 -35.491628 9
-1.515840 39.832757 -36.143804 9
4.495230 39.333869 -36.798039 9
10.795439 38.701273 -37.489666 9
17.318811 38.005116 -38.205337 9
24.221527 37.120585 -38.972212 9
31.125240 36.381590 -39.720905 9
38.131837 35.701670 -40.469533 9
45.978677 34.488264 -41.347169 9
-38.940878 110.596128 -25.681666 3
-45.576156 119.347674 -24.174872 3
-45.248687 122.656368 -23.870374 3
-149.597990 -18.503175 -18.941160 7
-146.273490 -17.964522 -19.371155 7
-143.003066 -17.260950 -19.780815 7
-139.735628 -16.517070 -20.183809 7
-136.468480 -15.739945 -20.580862 7
-150.431769 21.615071 -16.651277 7
-149.133906 25.643819 -16.598010 7
-145.708477 25.244937 -17.069905 7
-142.117598 24.601020 -17.573686 7
-138.537500 24.070981 -18.065920 7
-134.910462 23.540831 -18.560528 7
-131.223907 22.989882 -19.060241 7
-127.538634 22.531338 -19.550632 7
-123.727280 21.937613 -20.061113 7
-119.764216 21.175992 -20.596748 7
-116.685040 22.002501 -20.923371 8
-114.398064 24.166664 -21.067473 8
-112.354870 26.701004 -21.155349 8
-110.260303 29.117121 -21.253002 8
-107.739229 30.843323 -21.441228 8
-104.562773 31.576691 -21.766375 8
-100.756663 31.417486 -22.218937 8
-96.783801 31.093859 -22.697719 8
-92.749704 30.768312 -23.179804 8
-88.663786 30.456738 -23.662970 8
-84.511164 30.140684 -24.150045 8
-80.266353 29.789067 -24.645899 8
-75.961969 29.449587 -25.143535 8
-71.599158 29.125896 -25.642473 8
-68.581916 30.590186 -25.865214 9
-68.589830 35.817226 -25.490207 9
-65.849444 37.590545 -25.653098 9
-63.111059 39.378096 -25.810739 9
-60.323880 41.121001 -25.972770 9
-57.542897 42.885884 -26.128510 9
-54.684738 44.579215 -26.293552 9
-51.401728 45.823897 -26.531997 9
-47.519360 46.458701 -26.873837 9
-42.822790 46.292977 -27.355338 9
-37.926672 46.013145 -27.861503 9
-32.908895 45.708446 -28.377465 9
-27.724584 45.339089 -28.910660 9
-22.469324 45.006185 -29.443520 9
-17.089883 44.660405 -29.985043 9
-11.681297 44.396108 -30.518251 9
-6.093429 44.073893 -31.068790 9
-0.255305 43.636866 -31.647942 9
5.767832 43.154061 -32.243617 9
11.985603 42.624379 -32.856622 9
18.281581 42.155062 -33.466849 9
24.749972 41.668629 -34.089433 9
31.711535 40.907216 -34.775798 9
38.610213 40.341121 -35.434198 9
-38.687690 106.552531 -22.626975 3
-42.984105 113.644222 -21.599066 3
-42.646894 117.024078 -21.311824 3
-5.873287 93.194849 -26.688411 3
-150.377248 -24.186584 -15.221006 7
-147.536577 -22.402879 -15.528058 7
-144.127298 -21.975096 -15.964845 7
-140.690292 -21.563105 -16.401531 7
-137.244095 -21.122456 -16.833693 7
-133.808376 -20.610610 -17.256840 7
-130.339974 -20.122084 -17.680751 7
-150.105443 28.369978 -12.944990 7
-146.784973 28.108234 -13.376008 7
-143.422774 27.838214 -13.808784 7
-139.976700 27.481667 -14.252184 7
-136.507910 27.161584 -14.692723 7
-130.541048 22.334220 -15.652464 7
-129.454373 26.544298 -15.574940 7
-125.764827 26.066703 -16.037977 7
-122.063758 25.655884 -16.494995 7
-118.316450 25.251677 -16.953052 7
-115.090219 25.788543 -17.297813 8
-112.987020 28.177526 -17.412218 8
-110.932364 30.611489 -17.514629 8
-108.483265 32.404874 -17.691934 8
-105.612855 33.557140 -17.947179 8
-101.877161 33.451735 -18.363503 8
-98.003661 33.221097 -18.797816 8
-94.129513 33.069984 -19.223550 8
-90.139908 32.836394 -19.662243 8
-86.096386 32.611717 -20.101942 8
-82.016040 32.420917 -20.539276 8
-77.774822 32.102122 -20.996737 8
-73.507656 31.838919 -21.449193 8
-69.699361 32.241642 -21.809627 9
-69.011339 36.561642 -21.607066 9
-67.035284 39.234139 -21.632729 9
-64.224521 40.891814 -21.801434 9
-61.428010 42.582602 -21.962286 9
-58.673226 44.337257 -22.110585 9
-55.877893 46.061150 -22.260484 9
-52.714535 47.397224 -22.467052 9
-49.176160 48.361382 -22.729822 9
-44.852274 48.542270 -23.115275 9
-40.267098 48.530734 -23.533779 9
-35.321055 48.239350 -24.000467 9
-30.291062 47.963915 -24.469038 9
-25.165099 47.695413 -24.941075 9
-19.919618 47.414575 -25.419924 9
-14.546143 47.117975 -25.906429 9
-9.071883 46.835676 -26.395813 9
-3.507027 46.580242 -26.886083 9
2.246482 46.267118 -27.391912 9
8.100654 45.980784 -27.899142 9
14.116533 45.672007 -28.416559 9
20.347515 45.301940 -28.951477 9
26.663747 44.985951 -29.483789 9
-38.465203 102.486782 -19.516640 3
-40.282263 107.735294 -18.930262 3
-40.003438 111.242863 -18.651631 3
-11.249481 93.032723 -22.438384 3
-5.623816 92.887509 -22.878672 3
-149.343725 -25.616179 -11.497569 7
-145.876728 -25.315091 -11.939975 7
-142.330715 -25.144871 -12.392031 7
-138.859258 -24.744014 -12.822058 7
-135.324629 -24.433154 -13.258260 7
-131.789517 -24.067997 -13.687785 7
-128.265607 -23.625762 -14.108339 7
-150.420655 29.729846 -9.492889 7
-147.427460 30.083967 -9.842579 7
-144.129816 29.884866 -10.245072 7
-140.789722 29.674951 -10.648872 7
-137.402488 29.448292 -11.054687 7
-133.992630 29.253069 -11.457723 7
-130.498196 28.978422 -11.869407 7
-126.965739 28.713308 -12.280793 7
-123.388391 28.447598 -12.692986 7
-119.853528 28.330094 -13.089991 7
-81.202456 -29.330209 -19.782610 8
-113.463837 29.398961 -13.740953 8
-111.284425 31.597244 -13.877744 8
-109.027610 33.653523 -14.024741 8
-106.227327 34.874222 -14.262455 8
-102.729216 35.083121 -14.615076 8
-98.966818 34.970538 -15.005586 8
-95.020028 34.671315 -15.419344 8
-91.093301 34.483234 -15.821250 8
-87.136855 34.334473 -16.219691 8
-83.138774 34.209360 -16.616524 8
-79.074360 34.076762 -17.015632 8
-74.883767 33.862925 -17.426478 8
-70.622886 33.645616 -17.839551 8
-68.191416 35.772310 -17.950826 9
-67.996679 40.603100 -17.702906 9
-65.166777 42.199720 -17.870725 9
-62.325047 43.800771 -18.034748 9
-59.543213 45.489198 -18.183793 9
-56.759857 47.192517 -18.327473 9
-53.798759 48.717485 -18.492552 9
-46.975702 46.104014 -19.234163 9
-42.397457 46.047272 -19.623999 9
-41.701734 50.106635 -19.427582 9
-36.948714 49.970110 -19.827446 9
-32.096935 49.827840 -20.230958 9
-27.126316 49.663932 -20.640633 9
-21.921819 49.372620 -21.072497 9
-16.724883 49.192477 -21.491340 9
-11.425602 49.019465 -21.912649 9
-6.003725 48.838743 -22.338845 9
-0.498590 48.689819 -22.763996 9
5.155018 48.518135 -23.196710 9
-14.018124 69.716373 -20.239621 1
-14.428989 74.448116 -19.858745 1
-37.755133 97.972116 -16.418559 3
-37.468676 101.611654 -16.160663 3
-37.235455 105.242801 -15.895364 3
-16.681780 93.041356 -18.269754 3
-11.167694 92.861532 -18.658709 3
-5.673490 92.803502 -19.031859 3
-0.656022 93.199061 -19.331531 3
-150.340326 -30.930681 -7.566064 7
-148.135083 -27.466533 -7.773747 7
-144.588937 -27.319898 -8.217509 7
-141.053404 -27.086842 -8.652820 7
-137.472133 -26.899568 -9.089608 7
-133.874087 -26.688442 -9.522647 7
-130.223185 -26.530841 -9.958101 7
-126.595407 -26.260849 -10.382740 7
-150.350096 30.289881 -6.143436 7
-147.735852 31.379348 -6.418313 7
-144.433276 31.130768 -6.803856 7
-141.173860 31.036959 -7.175823 7
-137.846578 30.881945 -7.552700 7
-134.546777 30.846143 -7.918617 7
-131.127491 30.661089 -8.297572 7
-127.687663 30.511582 -8.673157 7
-122.096493 26.753753 -9.386729 7
-120.723010 30.279572 -9.417624 7
-117.145734 30.112642 -9.794575 7
-113.720212 30.262330 -10.140661 8
-111.558973 32.457634 -10.283337 8
-109.321728 34.513134 -10.433906 8
-106.608266 35.835278 -10.653404 8
-103.197180 36.142837 -10.973847 8
-99.493362 36.083748 -11.331698 8
-95.705757 35.978059 -11.694631 8
-91.865494 35.874119 -12.057718 8
-87.985243 35.791494 -12.418891 8
-84.016081 35.666142 -12.785164 8
-80.002888 35.561768 -13.149695 8
-75.877140 35.391872 -13.522198 8
-71.772594 35.331074 -13.883128 8
-69.415615 37.504528 -13.987262 9
-68.654458 41.602392 -13.861738 9
-65.870653 43.222643 -14.017892 9
-63.075225 44.846131 -14.169939 9
-60.264203 46.469388 -14.318350 9
-57.463959 48.123219 -14.459431 9
-54.492940 49.607775 -14.617776 9
-51.261693 50.837584 -14.804807 9
-43.789290 47.620376 -15.550308 9
-42.905654 51.441985 -15.408485 9
-38.211726 51.328667 -15.764420 9
-33.480437 51.269089 -16.114994 9
-28.528240 51.083822 -16.483706 9
-23.521795 50.943560 -16.848477 9
-18.373313 50.766654 -17.220205 9
-13.347553 50.803784 -17.565100 9
-8.087059 50.722315 -17.928038 9
-2.530103 50.477816 -18.315812 9
-18.142183 68.826497 -16.100349 1
-18.525831 73.533657 -15.765783 1
-34.841167 91.541344 -13.516852 3
-34.596436 95.309118 -13.275520 3
-34.333501 99.007898 -13.035363 3
-22.054071 93.132580 -14.198712 3
-16.615595 92.893181 -14.542362 3
-11.099948 92.701177 -14.882246 3
-5.535206 92.579377 -15.214843 3
-0.040829 92.615822 -15.526477 3
4.814737 93.213827 -15.754014 3
-150.316473 -29.815679 -3.594846 7
-145.884853 -31.852218 -4.163078 7
-143.605706 -28.586774 -4.402939 7
-139.994422 -28.510573 -4.835936 7
-136.411959 -28.303349 -5.258267 7
-132.770358 -28.166568 -5.682878 7
-129.099336 -28.028970 -6.105268 7
-125.404985 -27.875612 -6.524452 7
-150.426209 31.146897 -2.788909 7
-147.708810 31.997016 -3.076930 7
-144.513211 31.933599 -3.428257 7
-141.303632 31.906733 -3.775769 7
-138.047549 31.855251 -4.123999 7
-134.700847 31.702328 -4.479002 7
-131.377334 31.659661 -4.824632 7
-127.992725 31.575098 -5.172616 7
-124.592118 31.530375 -5.516546 7
-121.144844 31.473812 -5.860559 7
-117.606506 31.335672 -6.210557 7
-113.862684 30.940080 -6.581787 8
-111.702060 33.108820 -6.732762 8
-109.477913 35.157984 -6.887869 8
-106.803022 36.513177 -7.098429 8
-103.468146 36.909000 -7.390922 8
-99.804422 36.882571 -7.720147 8
-96.038920 36.782376 -8.055599 8
-92.238260 36.707482 -8.388341 8
-88.398281 36.653139 -8.718773 8
-84.517817 36.619005 -9.046896 8
-80.546255 36.540233 -9.378984 8
-76.544664 36.500138 -9.707050 8
-72.454667 36.425719 -10.038273 8
-69.787169 38.183035 -10.184559 9
-69.154922 42.409735 -10.074049 9
-66.313679 43.934629 -10.232156 9
-63.494554 45.505163 -10.381569 9
-60.724880 47.151226 -10.519010 9
-57.934461 48.791271 -10.652984 9
-54.952061 50.238918 -10.803751 9
-51.881620 51.618301 -10.958480 9
-48.204027 52.386257 -11.177639 9
-43.816393 52.472304 -11.471441 9
-39.199863 52.406688 -11.782427 9
-34.461134 52.307517 -12.097702 9
-29.645086 52.223930 -12.411766 9
-24.720953 52.128914 -12.727784 9
-19.793957 52.125812 -13.033652 9
-14.655473 52.020096 -13.352327 9
-9.797542 52.267688 -13.629246 9
-21.284448 67.152540 -12.121579 1
-21.074938 71.356541 -11.893044 1
-20.909312 75.532755 -11.658203 1
-31.553400 88.727933 -10.280081 3
-31.359861 92.580475 -10.055638 3
-27.176200 93.151110 -10.243185 3
-21.963589 92.976078 -10.526841 3
-16.579067 92.768174 -10.816323 3
-11.050704 92.555048 -11.108196 3
-9.965880 95.769869 -10.944764 3
-7.120716 97.669824 -10.951390 2
-8.621166 102.717544 -10.526560 2
-4.637662 103.808448 -10.633126 2
0.890238 103.894500 -10.877652 2
129.505443 20.904844 -22.746526 6
138.716658 20.449345 -23.181671 6
-150.190903 -28.963623 0.336319 7
-146.580668 -29.027556 -0.093295 7
-142.992372 -28.967666 -0.514314 7
-139.359072 -28.945999 -0.934715 7
-135.689236 -28.938329 -1.353402 7
-131.998325 -28.907361 -1.768441 7
-128.276784 -28.873013 -2.180897 7
-124.526498 -28.829308 -2.590460 7
-150.386053 31.761690 0.529154 7
-147.489445 32.227696 0.224815 7
-144.348935 32.256428 -0.103176 7
-141.152283 32.236914 -0.432372 7
-137.922505 32.217156 -0.759949 7
-134.689068 32.252749 -1.082358 7
-131.358351 32.175395 -1.410475 7
-128.006934 32.127740 -1.735208 7
-124.615061 32.076267 -2.058757 7
-119.242590 28.788606 -2.604976 7
-117.737327 32.015637 -2.698695 7
-113.868188 31.396403 -3.058734 8
-111.741805 33.595918 -3.213598 8
-109.479591 35.563760 -3.379019 8
-106.799052 36.890428 -3.586642 8
-103.496936 37.316477 -3.858567 8
-99.858456 37.308466 -4.161832 8
-96.182574 37.316636 -4.462575 8
-92.421137 37.275602 -4.765984 8
-88.645809 37.287856 -5.063962 8
-84.759536 37.223467 -5.367016 8
-80.855756 37.211229 -5.664719 8
-76.851803 37.144807 -5.965886 8
-72.778203 37.068143 -6.266974 8
-69.722863 38.323623 -6.451814 9
-69.485758 43.010770 -6.331822 9
-66.641038 44.508363 -6.483639 9
-63.837449 46.074295 -6.625003 9
-61.049545 47.676992 -6.758601 9
-58.229854 49.262565 -6.889323 9
-55.442032 50.903100 -7.010544 9
-52.275273 52.154568 -7.164017 9
-48.646458 52.952434 -7.357222 9
-44.354277 53.115357 -7.609185 9
-39.798501 53.087879 -7.878617 9
-35.251696 53.155634 -8.137971 9
-30.426835 53.035457 -8.415220 9
-25.594240 53.000843 -8.683412 9
-20.663242 52.965010 -8.951143 9
-15.713009 53.004767 -9.210529 9
-10.822335 53.190962 -9.453980 9
-20.358953 66.309909 -8.336448 1
-20.571024 70.885745 -8.097868 1
-15.516679 70.869964 -8.341687 1
-10.261698 70.780772 -8.593033 1
-28.022427 89.767170 -6.756949 3
-27.355122 93.222768 -6.596008 3
-21.953535 92.883429 -6.850670 3
-16.609029 92.694992 -7.088741 3
-13.393025 94.232980 -7.130720 3
-9.957388 95.644911 -7.183651 3
-10.898846 100.310179 -6.856799 2
-10.083329 103.630398 -6.677036 2
-5.220919 104.070252 -6.829581 2
-0.383833 104.612918 -6.968837 2
-0.790243 108.785744 -6.671400 2
130.002870 25.957845 -16.892196 6
138.924670 25.732496 -17.205133 6
148.142309 25.489108 -17.520739 6
-149.880833 -28.578008 4.230388 7
-146.254136 -28.705533 3.815480 7
-142.630253 -28.751797 3.406353 7
-138.999789 -28.742374 3.002256 7
-135.305793 -28.807150 2.598018 7
-131.584776 -28.858349 2.197049 7
-127.816893 -28.937077 1.797576 7
-124.040510 -28.958987 1.403245 7
-150.127351 31.927965 3.811014 7
-147.032410 31.984236 3.497964 7
-143.883761 31.992688 3.184930 7
-140.708048 32.009055 2.874479 7
-137.553027 32.123395 2.571177 7
-134.290356 32.098058 2.263029 7
-131.019933 32.121520 1.959512 7
-127.689403 32.101622 1.655788 7
-124.345210 32.122089 1.356314 7
-120.970018 32.153523 1.059551 7
-117.543158 32.163578 0.763659 7
-113.766613 31.680201 0.440905 8
-111.590109 33.782178 0.273331 8
-109.382442 35.816870 0.108245 8
-106.693142 37.113556 -0.096110 8
-103.438846 37.594997 -0.347037 8
-99.801515 37.573275 -0.627224 8
-96.130919 37.573763 -0.904123 8
-92.412584 37.577383 -1.178935 8
-88.650490 37.591628 -1.451156 8
-84.794962 37.552151 -1.725150 8
-80.900166 37.535056 -1.995823 8
-76.928981 37.494031 -2.266367 8
-72.896875 37.452331 -2.535202 8
-69.784619 38.618845 -2.714949 9
-69.526357 43.260521 -2.635819 9
-66.709655 44.774862 -2.777926 9
-63.995228 46.427560 -2.904827 9
-61.166096 47.964882 -3.035496 9
-58.359027 49.547407 -3.157902 9
-55.554278 51.152247 -3.273735 9
-52.432746 52.436088 -3.410142 9
-48.902715 53.321476 -3.574283 9
-44.681393 53.539501 -3.789116 9
-40.151592 53.518953 -4.021370 9
-35.556025 53.518215 -4.250274 9
-30.880509 53.525471 -4.476752 9
-26.064960 53.485814 -4.705429 9
-13.659420 46.383531 -5.537840 9
-16.577260 53.810621 -5.122636 9
-15.738356 57.645287 -5.006660 4
-21.920849 67.681765 -4.333650 1
-20.870197 71.116383 -4.230656 1
-15.754289 71.030502 -4.437362 1
-12.732922 72.802777 -4.473270 1
-17.455924 80.990456 -3.914700 1
-24.444728 90.795548 -3.190333 3
-22.245760 93.030710 -3.156238 3
-16.750938 92.709055 -3.358162 3
-14.698123 95.121452 -3.298413 3
-10.246041 95.742404 -3.405083 3
-11.733076 100.794681 -3.079565 2
-10.685482 103.926411 -2.931769 2
-4.285018 103.261989 -3.151089 2
-4.607734 107.370811 -2.895743 2
-1.452424 109.065356 -2.873699 2
3.514488 109.595587 -2.964541 2
133.623834 28.898742 -11.302428 6
142.448080 28.816409 -11.510681 6
-148.557733 -30.713800 8.054963 7
-146.297121 -27.490908 7.740233 7
-142.635085 -27.671850 7.345752 7
-138.962395 -27.800177 6.955693 7
-135.221340 -28.006786 6.566415 7
-131.492407 -28.107702 6.183187 7
-127.743737 -28.176168 5.804057 7
-123.946335 -28.272526 5.427154 7
-149.383226 31.107125 7.055879 7
-146.278521 31.152892 6.756934 7
-143.177686 31.263112 6.463051 7
-140.042245 31.362345 6.171637 7
-136.871948 31.452696 5.882720 7
-133.618507 31.449109 5.592923 7
-130.364359 31.505723 5.308136 7
-127.108363 31.618621 5.028382 7
-123.767100 31.644559 4.747757 7
-120.423256 31.728334 4.472268 7
-117.054082 31.831313 4.200371 7
-113.508525 31.713718 3.921206 8
-111.377801 33.873221 3.750307 8
-109.143776 35.852882 3.577770 8
-106.397066 37.051245 3.373803 8
-103.074942 37.424011 3.133837 8
-99.435001 37.392188 2.876677 8
-95.791847 37.425085 2.625296 8
-92.172257 37.558123 2.381746 8
-88.392976 37.539449 2.132873 8
-84.592135 37.563576 1.888822 8
-80.691750 37.528816 1.644105 8
-76.744107 37.507733 1.402649 8
-72.789595 37.552621 1.167491 8
-69.775683 38.826568 1.006284 9
-69.433268 43.348591 1.041228 9
-66.627946 44.863066 0.907001 9
-63.905183 46.492677 0.784987 9
-61.099255 48.043523 0.663536 9
-58.364557 49.693705 0.553528 9
-55.527126 51.248249 0.442873 9
-52.418194 52.532238 0.320113 9
-48.922197 53.440240 0.177729 9
-41.320427 50.143651 -0.236555 9
-40.282113 53.723499 -0.196452 9
-35.719141 53.739723 -0.387542 9
-31.059800 53.746715 -0.576447 9
-26.276452 53.721655 -0.764711 9
-21.377089 53.677183 -0.951476 9
-16.924013 54.137846 -1.099871 4
-16.958505 58.746050 -0.950155 4
-22.657114 68.318727 -0.434813 1
-20.836844 71.056623 -0.397860 1
-15.843375 71.063860 -0.553723 1
-13.806862 73.650852 -0.516216 1
-13.821003 77.926803 -0.346448 1
-16.592890 84.367972 -0.005410 1
-20.741257 91.752121 0.418369 3
-17.068767 92.860262 0.375414 3
-14.850003 95.130629 0.426378 3
-12.556689 97.354014 0.479613 2
-12.594179 101.299801 0.673202 2
-10.797026 103.870079 0.766372 2
-7.671107 105.501695 0.791408 2
-6.924634 108.815116 0.955677 2
-2.509273 109.613298 0.925148 2
3.200477 109.624265 0.835551 2
130.594903 30.594469 -5.663221 6
139.262698 30.553353 -5.783961 6
148.075562 30.583833 -5.893023 6
-148.793327 -28.971849 11.980346 7
-146.684425 -25.453279 11.649061 7
-143.003986 -25.742786 11.273601 7
-139.310759 -25.979807 10.902146 7
-135.625644 -26.119214 10.535634 7
-131.860164 -26.358592 10.170803 7
-128.084704 -26.538756 9.810372 7
-150.429346 27.566954 10.555295 7
-148.405950 29.818268 10.312055 7
-145.336141 29.952750 10.029240 7
-142.247195 30.103095 9.750185 7
-139.114149 30.222825 9.473788 7
-135.910240 30.266303 9.198781 7
-132.715699 30.385463 8.928964 7
-129.499401 30.522213 8.662962 7
-126.258752 30.672799 8.400717 7
-122.961660 30.783849 8.140691 7
-119.596558 30.840572 7.882316 7
-115.318661 29.476754 7.582396 8
-113.142106 31.574923 7.395357 8
-111.050057 33.784226 7.219100 8
-108.677774 35.541954 7.034562 8
-105.936688 36.743501 6.836753 8
-102.600707 37.091860 6.613390 8
-99.010571 37.128403 6.382214 8
-95.346815 37.127615 6.152815 8
-91.669714 37.177050 5.928514 8
-87.914430 37.188300 5.705960 8
-84.114340 37.210123 5.487055 8
-80.257817 37.229109 5.271302 8
-76.341799 37.243877 5.058667 8
-72.383380 37.278480 4.850207 8
-69.849801 39.135851 4.724815 9
-69.161371 43.221060 4.704813 9
-66.416068 44.797230 4.580913 9
-63.668543 46.387649 4.463431 9
-60.937137 48.013590 4.353378 9
-58.181482 49.629206 4.248642 9
-55.340276 51.169130 4.146039 9
-52.261948 52.475906 4.037704 9
-48.674166 53.276625 3.909630 9
-44.500479 53.522047 3.758338 9
-40.014855 53.523723 3.598627 9
-35.481287 53.561276 3.444502 9
-30.865231 53.602010 3.294402 9
-26.139510 53.622810 3.147198 9
-21.333038 53.655289 3.004628 9
-17.218995 54.417171 2.905501 4
-11.675403 53.945358 2.744202 9
-21.687171 67.436484 3.354766 1
-20.829163 71.019315 3.433566 1
-15.868282 71.042263 3.320764 1
-13.789942 73.581866 3.354536 1
-13.201274 77.349538 3.465085 1
-15.403464 83.329271 3.710530 1
-17.218490 88.869967 3.940229 3
-17.090856 92.781428 4.084091 3
-14.342174 94.636069 4.114981 3
-10.587837 95.762006 4.108928 3
-12.571014 101.156297 4.361633 2
-10.725834 103.682337 4.451633 2
-6.044097 104.206028 4.428145 2
-5.840508 107.908687 4.601329 2
-2.735796 109.599476 4.660061 2
2.798600 109.711804 4.629295 2
129.242019 31.203051 -0.172424 6
137.763851 31.219133 -0.208329 6
146.607400 31.192533 -0.238145 6
-150.423847 -23.797065 15.869129 7
-145.800209 -26.485966 15.506949 7
-143.816828 -22.785515 15.160828 7
-140.146381 -23.057489 14.811742 7
-136.362534 -23.501769 14.465475 7
-132.611247 -23.786305 14.123470 7
-128.854928 -23.999869 13.785616 7
-150.144805 27.704780 13.869827 7
-147.090212 27.852320 13.595739 7
-142.139286 24.306848 13.288293 7
-140.942756 28.227312 13.060042 7
-137.831794 28.420554 12.798174 7
-134.691390 28.611114 12.540222 7
-131.516380 28.791637 12.286076 7
-128.260488 28.882889 12.034530 7
-124.995537 29.016497 11.787426 7
-121.701139 29.157202 11.544301 7
-118.355533 29.270433 11.304575 7
-114.717329 28.968590 11.061008 8
-112.620459 31.190339 10.869536 8
-110.537615 33.408460 10.685499 8
-108.176359 35.178138 10.499435 8
-105.321841 36.206169 10.303736 8
-101.880455 36.400804 10.094456 8
-98.283665 36.431649 9.885348 8
-94.654479 36.483308 9.680545 8
-90.983595 36.543921 9.479835 8
-87.231716 36.562061 9.281948 8
-83.457747 36.620491 9.089035 8
-79.601724 36.641259 8.899100 8
-75.677256 36.646201 8.712725 8
-71.727092 36.692083 8.531562 8
-69.662441 39.123804 8.424761 9
-68.828148 43.019891 8.369420 9
-66.105945 44.615440 8.252593 9
-63.353694 46.192103 8.141380 9
-60.603194 47.788285 8.036969 9
-57.776842 49.317522 7.936574 9
-55.008938 50.931844 7.845121 9
-51.888036 52.185690 7.747727 9
-48.308559 52.989111 7.640718 9
-44.066064 53.157283 7.516972 9
-39.579448 53.153235 7.391932 9
-35.078519 53.218486 7.274092 9
-30.408265 53.200619 7.158132 9
-25.727217 53.259592 7.049933 9
-20.877616 53.245755 6.944160 9
-16.606880 53.857647 6.867102 4
-16.536130 58.349905 6.943191 4
-20.758306 66.590698 7.171721 1
-20.694594 70.871142 7.258275 1
-15.890014 71.017981 7.191906 1
-12.479484 72.424613 7.180691 1
-10.316760 74.902551 7.218349 1
-14.076510 82.178555 7.454012 1
-14.052506 86.268984 7.571398 1
-13.493342 89.882186 7.677167 3
-12.771817 93.329094 7.783498 3
-11.312777 96.187376 7.873131 3
-8.953135 98.370750 7.942307 2
-8.788579 102.149784 8.083118 2
-6.193928 104.163999 8.159102 2
-0.494862 104.049731 8.155369 2
