ply
format ascii 1.0
element vertex 1397
property float x
property float y
property float z
property int scalar_Label
end_header
-89.298673 19.447570 -30.425932 8
-88.724846 25.408107 -29.347963 8
-84.474710 24.177481 -30.464456 8
-78.188295 19.303672 -32.728736 8
-72.289683 15.433646 -34.713449 8
-62.397582 4.755718 -38.880987 9
-61.509447 10.203519 -37.974772 9
-61.475714 16.930359 -36.638156 9
-59.249785 19.817486 -36.520735 9
-57.103583 22.785865 -36.371600 9
-54.845103 25.527169 -36.291860 9
-52.480480 28.065876 -36.275358 9
-45.803412 24.055306 -38.456064 9
-47.238649 32.301275 -36.518856 9
-43.837120 33.275291 -37.031243 9
-39.011299 32.270539 -38.233321 9
-33.963649 31.082398 -39.518849 9
-29.088172 30.261707 -40.696641 9
-23.535881 28.659331 -42.171269 9
-16.437107 25.192984 -44.338386 9
40.497011 131.370977 -35.745482 3
42.291558 134.126273 -35.606011 3
44.142186 136.846620 -35.486190 3
45.991428 139.570024 -35.366401 3
48.340189 141.999106 -35.411195 3
51.844621 143.773110 -35.830655 3
57.784210 144.211436 -37.030122 3
64.765823 144.183115 -38.544030 3
71.923359 144.197039 -40.088918 3
79.383140 144.191544 -41.703813 3
87.123221 144.187915 -43.380001 3
95.164372 144.184641 -45.122320 3
103.510317 144.189496 -46.930170 3
112.175056 144.205374 -48.806103 3
118.068194 145.685950 -49.806907 0
127.708088 145.562798 -51.922651 0
137.034021 145.769058 -53.909639 0
147.730645 145.565145 -56.272249 0
155.931332 146.620028 -57.858395 0
-149.494241 -13.398798 -20.946917 7
-146.333029 -12.505078 -21.394032 7
-142.988731 -12.245544 -21.998811 7
-149.848138 22.436293 -14.024173 7
-147.131111 23.641651 -14.326304 7
-143.904921 23.230345 -15.037761 7
-140.617088 22.723160 -15.780131 7
-137.288962 22.194741 -16.534969 7
-133.881489 21.538563 -17.330303 7
-130.425319 20.853665 -18.141203 7
-126.879741 20.036384 -18.995479 7
-123.272779 19.173993 -19.870968 7
-119.544675 18.122371 -20.806953 7
-115.543729 16.528107 -21.900775 8
-114.625506 22.447124 -20.954056 8
-112.406542 25.095145 -20.888277 8
-110.310483 27.948796 -20.759526 8
-108.005607 30.262182 -20.775504 8
-105.191269 31.432380 -21.110541 8
-101.789228 31.383113 -21.794659 8
-98.083906 30.786652 -22.643551 8
-94.284056 30.100681 -23.528747 8
-90.517347 29.582164 -24.376047 8
-86.635380 28.940889 -25.270111 8
-82.662679 28.233630 -26.195290 8
-78.592170 27.455087 -27.154011 8
-74.334371 26.455209 -28.192594 8
-70.066263 25.557392 -29.214412 8
-53.979705 4.849576 -36.351598 9
-61.211262 23.579250 -31.357927 9
-59.975551 27.916059 -30.783663 9
-57.458416 30.121642 -30.869789 9
-54.803846 32.098354 -31.027288 9
-52.216602 34.170851 -31.153731 9
-49.587238 36.172276 -31.302603 9
-46.584907 37.629482 -31.629678 9
-42.995822 38.274919 -32.228405 9
-38.372289 37.539970 -33.296057 9
-33.405501 36.451135 -34.500032 9
-28.041093 34.961452 -35.860138 9
-22.647351 33.579233 -37.206461 9
-16.656658 31.577856 -38.790227 9
-11.460952 30.739812 -39.995325 9
-6.153156 29.888427 -41.226129 9
0.815219 27.169521 -43.143856 9
9.926138 22.132442 -45.930558 9
36.353329 113.934711 -34.181131 3
34.313770 119.483709 -32.737499 3
36.154577 122.219144 -32.609224 3
37.956935 124.978867 -32.469131 3
39.828880 127.690112 -32.352799 3
41.629044 130.448668 -32.213566 3
43.445589 133.196062 -32.080297 3
45.258018 135.946486 -31.946173 3
47.092960 138.684254 -31.819547 3
49.200103 141.262237 -31.778773 3
52.295683 143.274976 -32.045560 3
57.382043 144.191875 -32.923429 3
64.266592 144.198260 -34.338780 3
71.438209 144.183725 -35.817609 3
78.827945 144.194325 -37.337316 3
86.508997 144.198900 -38.918712 3
94.503235 144.195785 -40.566638 3
102.833194 144.183936 -42.285964 3
111.448629 144.198228 -44.060001 3
119.218787 144.776834 -45.557401 0
126.760159 145.606343 -46.962517 0
135.764513 145.925737 -48.763131 0
-147.110948 -20.338086 -18.705418 7
-144.704591 -16.483621 -18.473768 7
-141.412006 -15.918130 -19.004637 7
-149.722041 23.551989 -10.303053 7
-147.330790 25.751121 -10.366986 7
-144.150789 25.400491 -11.041624 7
-140.976580 25.153719 -11.696621 7
-137.733482 24.784838 -12.387007 7
-134.467010 24.436808 -13.078304 7
-131.148134 24.030457 -13.790346 7
-127.836049 23.731419 -14.481943 7
-124.375158 23.129919 -15.256768 7
-120.891016 22.570210 -16.028725 7
-117.332981 21.927632 -16.829991 7
-115.312674 25.044931 -16.658996 8
-112.888277 27.126915 -16.752210 8
-110.677104 29.646783 -16.725758 8
-108.432887 32.030690 -16.730284 8
-105.741004 33.402813 -17.003190 8
-102.351596 33.319172 -17.672475 8
-98.833194 33.045148 -18.401036 8
-95.255260 32.734780 -19.147792 8
-91.576410 32.313064 -19.934210 8
-87.872077 31.933005 -20.718241 8
-84.062006 31.446208 -21.542046 8
-80.179415 30.922602 -22.386652 8
-76.160689 30.255415 -23.283529 8
-72.212122 29.812314 -24.126793 8
-68.032224 29.073847 -25.067992 8
-62.051354 25.479623 -26.870260 9
-61.801823 31.343181 -25.866703 9
-59.128264 33.213268 -26.048916 9
-56.441766 35.060034 -26.237997 9
-53.814370 36.994606 -26.400066 9
-51.157799 38.882191 -26.576391 9
-48.374454 40.585761 -26.810446 9
-45.117003 41.626649 -27.255341 9
-41.292412 41.918480 -27.944588 9
-36.692687 41.227299 -28.960439 9
-31.837368 40.306337 -30.067207 9
-26.930558 39.438750 -31.174590 9
-21.728247 38.313927 -32.385561 9
-16.534790 37.331474 -33.569516 9
-11.019828 36.082523 -34.863776 9
-5.079373 34.462435 -36.307268 9
1.080369 32.740328 -37.811799 9
7.195584 31.231213 -39.269780 9
12.875759 30.368609 -40.527806 9
19.280697 28.835283 -42.046823 9
27.852491 25.110750 -44.378983 9
29.950555 101.847937 -31.094509 3
28.095141 107.522657 -29.722126 3
29.957044 110.264804 -29.597148 3
31.813505 113.006343 -29.471399 3
33.642882 115.763572 -29.337755 3
35.438048 118.541165 -29.193995 3
37.276415 121.284627 -29.064919 3
39.133415 124.013398 -28.942276 3
40.917328 126.790138 -28.797016 3
42.745156 129.536223 -28.665963 3
44.570044 132.284145 -28.534191 3
46.387347 135.037401 -28.400172 3
48.216227 137.784694 -28.269656 3
50.152521 140.470021 -28.171312 3
52.862032 142.710117 -28.303287 3
57.089169 144.112004 -28.880817 3
63.797744 144.198718 -30.176928 3
70.917050 144.192296 -31.570048 3
78.280623 144.195447 -33.009423 3
85.933914 144.192323 -34.506763 3
93.862399 144.199584 -36.056286 3
102.133992 144.192342 -37.675696 3
110.729126 144.191026 -39.357558 3
119.643233 144.207920 -41.098818 3
123.684080 146.626905 -41.461460 0
-149.798639 -21.195130 -14.328036 7
-146.656212 -20.016616 -14.722206 7
-143.317694 -19.557726 -15.274671 7
-139.945739 -19.175841 -15.846259 7
-149.716759 25.052229 -6.536119 7
-147.236743 26.888009 -6.693681 7
-144.139486 26.743927 -7.301762 7
-141.033732 26.646391 -7.903422 7
-137.850015 26.390944 -8.546279 7
-134.639659 26.139527 -9.193309 7
-131.415062 25.928160 -9.836091 7
-128.129206 25.630784 -10.504772 7
-124.793658 25.287116 -11.190461 7
-121.452506 25.014065 -11.865104 7
-118.053349 24.680516 -12.560715 7
-115.564822 26.590127 -12.705762 8
-113.112202 28.547012 -12.835899 8
-110.935442 31.087375 -12.815375 8
-108.657718 33.342190 -12.861940 8
-106.005217 34.749765 -13.122019 8
-102.809093 35.023346 -13.675823 8
-99.324054 34.764599 -14.373750 8
-95.844460 34.596781 -15.055105 8
-92.231740 34.248198 -15.791857 8
-88.579825 33.911160 -16.533839 8
-84.887175 33.584569 -17.281522 8
-81.149425 33.262408 -18.036738 8
-77.392875 32.993186 -18.786341 8
-73.433997 32.460627 -19.618280 8
-67.014127 27.891162 -21.594834 8
-62.060390 26.005735 -22.841931 9
-60.739811 30.115906 -22.392716 9
-60.400594 35.667785 -21.515300 9
-57.699146 37.425108 -21.722938 9
-54.957033 39.122922 -21.948095 9
-52.261241 40.894264 -22.151943 9
-49.541144 42.633778 -22.365555 9
-46.508040 43.936765 -22.711553 9
-43.029191 44.647853 -23.241103 9
-38.794051 44.384363 -24.077169 9
-34.233549 43.780055 -25.031683 9
-29.658690 43.263088 -25.973870 9
-24.871975 42.579988 -26.983642 9
-20.045052 41.958436 -27.990284 9
-14.924325 41.088186 -29.093817 9
-9.654733 40.161542 -30.234521 9
-4.307286 39.269286 -31.383716 9
1.360457 38.134357 -32.633703 9
7.122752 37.030183 -33.895898 9
13.243455 35.667595 -35.268653 9
19.839784 33.939423 -36.792036 9
26.797414 31.993891 -38.419518 9
33.143709 30.863235 -39.794250 9
39.430984 29.941071 -41.122296 9
21.816964 95.454769 -26.681716 3
23.701523 98.213908 -26.561176 3
25.548638 100.995405 -26.429679 3
27.367774 103.790951 -26.290402 3
29.224594 106.549492 -26.164262 3
31.038719 109.334527 -26.025485 3
32.906034 112.073954 -25.904194 3
34.712101 114.854109 -25.764390 3
36.573527 117.590230 -25.642207 3
38.400795 120.347885 -25.509821 3
40.207439 123.117145 -25.371441 3
41.993230 125.898057 -25.227017 3
43.888182 128.605692 -25.115199 3
45.690808 131.374018 -24.975688 3
47.496193 134.140510 -24.836820 3
49.351941 136.876920 -24.712261 3
51.223559 139.606591 -24.591616 3
53.579127 142.057486 -24.608258 3
57.237108 143.782260 -24.990539 3
63.357988 144.185049 -26.055650 3
70.423399 144.188161 -27.364111 3
77.706185 144.213416 -28.708854 3
85.337042 144.199630 -30.124575 3
93.223348 144.205268 -31.584075 3
101.459425 144.191569 -33.111464 3
-148.897457 -22.564367 -10.714362 7
-145.538430 -22.161837 -11.273865 7
-142.134408 -21.877948 -11.859853 7
-138.713442 -21.600888 -12.449499 7
-149.737465 26.617079 -2.804320 7
-147.020265 27.615926 -3.148892 7
-143.026788 24.659530 -4.352954 7
-140.860175 27.429138 -4.315398 7
-137.739612 27.319646 -4.907943 7
-134.590813 27.200380 -5.506750 7
-131.399190 27.034746 -6.120282 7
-128.204366 26.934030 -6.723651 7
-124.962237 26.781584 -7.343404 7
-121.682273 26.607733 -7.972998 7
-118.340880 26.359276 -8.625175 7
-115.574403 27.548198 -8.943886 8
-113.255448 29.768929 -9.016698 8
-111.028225 32.144948 -9.047619 8
-108.761735 34.379087 -9.107716 8
-106.145349 35.822081 -9.356720 8
-103.001791 36.166167 -9.875827 8
-99.592238 36.021773 -10.520499 8
-96.153208 35.893135 -11.167545 8
-92.592704 35.604221 -11.861679 8
-89.062894 35.454918 -12.527533 8
-85.416778 35.167886 -13.235932 8
-81.734120 34.898187 -13.947704 8
-78.032042 34.677193 -14.654736 8
-74.277107 34.446826 -15.372334 8
-70.490937 34.246493 -16.090288 8
-66.474580 33.750578 -16.896536 8
-61.979976 32.583136 -17.895927 9
-61.287491 37.507462 -17.234965 9
-58.561424 39.174176 -17.461147 9
-55.816331 40.817193 -17.694024 9
-53.064047 42.456568 -17.928254 9
-50.324256 44.122056 -18.155527 9
-47.507699 45.687301 -18.412147 9
-44.168375 46.543494 -18.875898 9
-40.355797 46.802523 -19.519940 9
-36.013314 46.427732 -20.360326 9
-31.527328 45.962033 -21.240535 9
-27.016884 45.565571 -22.113474 9
-22.309858 45.022824 -23.044623 9
-17.520879 44.485966 -23.988960 9
-12.522838 43.805922 -24.993210 9
-7.529677 43.245988 -25.976690 9
-2.289103 42.512542 -27.031792 9
2.947862 41.902827 -28.065731 9
8.610990 40.938378 -29.232405 9
14.301242 40.076765 -30.386733 9
20.264275 39.055407 -31.614911 9
26.489042 37.899780 -32.910831 9
32.952194 36.646508 -34.264386 9
39.879282 35.080609 -35.750490 9
9.294486 93.208984 -20.886577 3
13.857020 93.530384 -21.642523 3
19.295887 93.186982 -22.661348 3
22.790347 94.584042 -23.051946 3
24.799370 97.245547 -22.973097 3
26.648437 100.031982 -22.845038 3
28.460861 102.839277 -22.706553 3
30.349778 105.579283 -22.592023 3
32.186383 108.353995 -22.462039 3
34.018867 111.126144 -22.331203 3
35.814976 113.919837 -22.189879 3
37.665497 116.669748 -22.064774 3
39.515833 119.417148 -21.939504 3
41.335867 122.183347 -21.805269 3
43.150207 124.951390 -21.669185 3
44.980790 127.707475 -21.537378 3
46.846710 130.440833 -21.414978 3
48.664525 133.205815 -21.278374 3
50.502106 135.959630 -21.146536 3
52.322637 138.725787 -21.009125 3
54.444879 141.317879 -20.952830 3
57.659541 143.296529 -21.188877 3
62.877059 144.196349 -21.953769 3
69.919431 144.191803 -23.187428 3
77.192975 144.201131 -24.458685 3
84.753161 144.202689 -25.780803 3
-147.994386 -23.931121 -7.082095 7
-144.585818 -23.680601 -7.666386 7
-141.129592 -23.545963 -8.275401 7
-137.665636 -23.375636 -8.879660 7
-149.637746 27.763141 0.793655 7
-146.634439 27.791910 0.253911 7
-143.595808 27.771433 -0.298660 7
-140.537457 27.755235 -0.853369 7
-137.462041 27.752847 -1.408327 7
-134.367323 27.758982 -1.964706 7
-131.241345 27.742616 -2.529216 7
-128.041024 27.594339 -3.125699 7
-123.708127 24.617572 -4.341376 7
-121.635021 27.496786 -4.287855 7
-118.347983 27.344157 -4.898067 7
-115.601244 28.537128 -5.212237 8
-113.227928 30.588293 -5.332151 8
-110.980946 32.880174 -5.393141 8
-108.700394 35.047130 -5.477772 8
-106.092971 36.477196 -5.728789 8
-102.981637 36.859821 -6.223632 8
-99.624570 36.793903 -6.827724 8
-94.591739 33.498561 -8.206870 8
-92.767310 36.593060 -8.068991 8
-89.259086 36.450751 -8.708656 8
-85.702499 36.294773 -9.358038 8
-82.132081 36.190278 -10.001345 8
-78.465924 35.992780 -10.674491 8
-74.749624 35.788940 -11.356531 8
-70.991288 35.595235 -12.043565 8
-67.151300 35.348680 -12.751924 8
-62.073339 33.203804 -13.959825 9
-61.820508 38.784894 -13.167514 9
-59.120908 40.451791 -13.387645 9
-56.354702 42.023115 -13.632843 9
-53.649427 43.693397 -13.851714 9
-50.940775 45.365140 -14.070080 9
-48.184897 46.977611 -14.304686 9
-44.959859 47.953375 -14.715607 9
-41.300511 48.379790 -15.283632 9
-37.112694 48.167447 -16.038512 9
-32.726623 47.785848 -16.852290 9
-28.295842 47.443375 -17.666954 9
-23.790283 47.103393 -18.493203 9
-19.326378 46.911140 -19.288973 9
-14.583383 46.477220 -20.168423 9
-9.760194 46.052533 -21.059286 9
-4.836442 45.616645 -21.968134 9
0.224659 45.132359 -22.906896 9
5.478628 44.544885 -23.893384 9
10.966883 43.819278 -24.939970 9
16.453349 43.218519 -25.966178 9
-2.447728 68.138510 -18.933077 1
-0.619215 71.014138 -18.802573 1
4.004229 71.070016 -19.578565 1
8.672124 71.171726 -20.354138 1
-2.811774 91.288785 -15.311115 3
-3.484205 96.210027 -14.437750 3
4.360234 93.303890 -16.210726 3
8.365965 94.016166 -16.775694 3
13.556047 93.761908 -17.689018 3
19.052678 93.351440 -18.677267 3
23.565774 93.878985 -19.353595 3
25.906517 96.269325 -19.374510 3
27.727916 99.084641 -19.241210 3
29.595218 101.854766 -19.121738 3
31.445696 104.631327 -18.997535 3
33.302258 107.397111 -18.875125 3
35.116855 110.188925 -18.740719 3
36.956037 112.957383 -18.613170 3
38.805743 115.714458 -18.488256 3
40.620002 118.493464 -18.353080 3
42.409691 121.286230 -18.210741 3
44.274758 124.025743 -18.088428 3
46.120159 126.778112 -17.959910 3
47.974073 129.525208 -17.832733 3
49.769630 132.309949 -17.689010 3
51.643773 135.046795 -17.564996 3
53.450057 137.827314 -17.421905 3
55.435267 140.504948 -17.323868 3
58.224177 142.729787 -17.429878 3
62.509256 144.146328 -17.910992 3
69.376449 144.218854 -19.031960 3
-147.241279 -24.717447 -3.325028 7
-143.796502 -24.590485 -3.924201 7
-140.321000 -24.509868 -4.533845 7
-136.832957 -24.406127 -5.141291 7
-149.102356 27.463019 4.078628 7
-146.115961 27.540867 3.559280 7
-143.080816 27.525285 3.019706 7
-140.047465 27.577473 2.490779 7
-137.013770 27.687181 1.970735 7
-133.928918 27.709654 1.430917 7
-130.820936 27.730635 0.887953 7
-127.710929 27.807866 0.353439 7
-124.539667 27.787569 -0.203991 7
-121.356168 27.801634 -0.757723 7
-118.137741 27.794681 -1.319281 7
-115.510552 29.240476 -1.577720 8
-113.055335 31.067866 -1.752798 8
-110.819387 33.353598 -1.825782 8
-108.528083 35.467727 -1.930797 8
-105.898658 36.825765 -2.197122 8
-102.840479 37.297558 -2.658311 8
-99.510362 37.264647 -3.234754 8
-96.137060 37.214470 -3.819847 8
-92.739475 37.186690 -4.404850 8
-89.248705 37.052951 -5.019296 8
-85.765899 37.007845 -5.618929 8
-82.210531 36.903703 -6.237942 8
-78.596336 36.770810 -6.869769 8
-74.962131 36.679752 -7.497980 8
-71.260378 36.550765 -8.141718 8
-67.518002 36.432739 -8.789587 8
-62.122005 33.749102 -10.073702 9
-60.587638 37.294321 -9.834772 9
-59.486833 41.427501 -9.439379 9
-56.720702 42.965601 -9.686302 9
-54.014179 44.601548 -9.908284 9
-51.319401 46.261689 -10.123690 9
-48.495653 47.747671 -10.383946 9
-45.429396 48.914852 -10.728371 9
-41.855747 49.426378 -11.248601 9
-37.837728 49.407062 -11.916486 9
-33.581685 49.158678 -12.655031 9
-29.253709 48.908717 -13.404434 9
-24.918827 48.741240 -14.141975 9
-20.460404 48.512112 -14.907371 9
-15.905813 48.260811 -15.690453 9
-11.216188 47.946297 -16.503431 9
-6.359356 47.538638 -17.355825 9
-1.509514 47.243039 -18.189668 9
-0.843122 51.669927 -17.660543 4
-9.317711 65.915030 -14.227000 4
-9.768388 71.175077 -13.393455 1
-5.199481 71.091795 -14.145866 1
-0.695202 71.165476 -14.863813 1
-8.806283 83.953568 -11.695141 1
-13.715088 93.191508 -9.558474 3
-11.512255 95.313318 -9.603469 3
-8.187685 96.379918 -9.981791 3
-8.279849 100.652831 -9.341245 2
-7.150028 103.738462 -9.069459 2
-3.124643 104.216486 -9.642895 2
1.677060 104.087836 -10.428481 2
18.794119 93.529310 -14.715355 3
24.067111 93.403495 -15.573211 3
27.008784 95.296863 -15.760154 3
28.856445 98.097551 -15.637532 3
30.703883 100.890174 -15.514800 3
32.546603 103.679157 -15.390590 3
34.404114 106.450433 -15.270088 3
36.235715 109.235785 -15.142121 3
38.053216 112.026316 -15.009886 3
39.899478 114.791734 -14.884678 3
41.730185 117.565045 -14.754569 3
43.601140 120.308266 -14.634044 3
45.416919 123.087692 -14.498134 3
47.274698 125.838137 -14.371917 3
49.117506 128.598591 -14.240574 3
50.905409 131.394163 -14.094053 3
52.755104 134.151773 -13.961680 3
54.628900 136.897216 -13.833648 3
56.483989 139.657213 -13.699212 3
58.939468 142.076773 -13.708944 3
62.637940 143.819832 -14.014147 3
-149.769044 -26.216050 0.927990 7
-146.626227 -24.978614 0.528040 7
-143.155584 -24.955963 -0.078874 7
-139.666785 -24.927741 -0.686617 7
-136.135077 -24.975461 -1.309655 7
-148.467997 26.838379 7.302454 7
-145.457250 26.845497 6.780128 7
-142.457635 26.947055 6.272959 7
-138.537177 24.382098 5.274249 7
-136.442469 27.265911 5.274639 7
-133.394434 27.390215 4.766259 7
-130.281234 27.393712 4.232961 7
-127.196407 27.533747 3.723138 7
-124.057514 27.591277 3.195144 7
-120.897648 27.657052 2.666075 7
-117.735396 27.777204 2.144930 7
-115.224135 29.478318 1.935470 8
-112.817105 31.392046 1.772014 8
-110.582348 33.653920 1.683209 8
-108.259425 35.674869 1.550433 8
-105.633250 37.019934 1.282273 8
-102.496072 37.312439 0.795985 8
-99.212626 37.362268 0.255785 8
-95.880515 37.379986 -0.295148 8
-92.495652 37.362174 -0.857909 8
-89.091046 37.375141 -1.418506 8
-85.593769 37.285862 -2.006047 8
-82.051940 37.189348 -2.600354 8
-78.509511 37.165025 -3.183939 8
-74.939471 37.164366 -3.767470 8
-71.292739 37.106286 -4.369436 8
-67.598967 37.045218 -4.977917 8
-62.150102 34.258047 -6.224373 9
-60.387579 37.419825 -6.097028 9
-59.657459 42.100161 -5.603067 9
-56.949531 43.698603 -5.829483 9
-54.192710 45.232920 -6.070623 9
-51.528541 46.911342 -6.276434 9
-48.722480 48.396576 -6.528827 9
-45.713931 49.618148 -6.846763 9
-42.245963 50.246895 -7.314638 9
-38.249650 50.229186 -7.950482 9
-34.114163 50.110004 -8.620269 9
-29.918671 49.998615 -9.296915 9
-25.594198 49.811638 -10.002372 9
-21.292990 49.742091 -10.686862 9
-16.791803 49.519305 -11.421623 9
-13.639849 50.970232 -11.718870 4
-14.374888 56.914197 -10.802957 4
-15.018297 62.609008 -9.933321 4
-14.049112 66.387188 -9.571839 1
-14.075358 71.181298 -8.916764 1
-9.104802 70.570863 -9.767260 1
-8.790322 74.915866 -9.222771 1
-17.624496 88.516298 -6.004575 3
-17.991272 93.202184 -5.305694 3
-15.905036 95.382915 -5.325024 3
-12.968084 96.744180 -5.585686 3
-11.603106 99.620359 -5.396107 2
-11.131737 103.297105 -4.958330 2
-7.711400 104.241890 -5.345727 2
-5.172197 106.020160 -5.482258 2
-4.308782 109.278215 -5.157671 2
-0.550400 110.022956 -5.619630 2
24.250035 93.194879 -11.710382 3
27.947298 94.458656 -12.087181 3
30.018214 97.083380 -12.026794 3
31.846359 99.898553 -11.901548 3
33.667802 102.710911 -11.774066 3
35.532684 105.483087 -11.657130 3
37.372515 108.268846 -11.532902 3
39.233797 111.034089 -11.413156 3
41.066116 113.816540 -11.285026 3
42.897357 116.596275 -11.155496 3
44.707568 119.387685 -11.019553 3
46.556156 122.150903 -10.891703 3
48.387561 124.924715 -10.758165 3
50.236610 127.686805 -10.627289 3
52.070703 130.459072 -10.491112 3
53.932724 133.215280 -10.359734 3
-149.675932 -24.422217 5.102699 7
-146.178858 -24.612418 4.476063 7
-142.695466 -24.668884 3.868952 7
-139.141156 -24.898112 3.232066 7
-149.766529 22.641730 10.454895 7
-147.684678 25.732156 10.451256 7
-144.705492 25.860759 9.959056 7
-141.720270 26.023485 9.471463 7
-138.763430 26.320498 9.005764 7
-134.753888 23.658899 8.025570 7
-132.675572 26.560080 8.009674 7
-129.614511 26.715211 7.515447 7
-126.501152 26.787400 7.004707 7
-123.393114 26.931685 6.504935 7
-120.250943 27.047007 5.997933 7
-117.108937 27.219963 5.499411 7
-114.736917 29.243542 5.344127 8
-112.448024 31.414385 5.221388 8
-110.232760 33.700872 5.125940 8
-107.878506 35.636266 4.968631 8
-105.173407 36.801773 4.666039 8
-102.057140 37.131058 4.200612 8
-98.754752 37.136616 3.668888 8
-95.431364 37.166182 3.138392 8
-92.090256 37.226461 2.610468 8
-88.739990 37.333413 2.088400 8
-85.273660 37.291258 1.531974 8
-81.789884 37.287792 0.979192 8
-78.273670 37.296580 0.424565 8
-74.690251 37.259899 -0.144256 8
-71.103103 37.288648 -0.703980 8
-67.463174 37.301031 -1.272080 8
-62.125423 34.679644 -2.420448 9
-60.361553 37.814784 -2.315955 9
-59.583603 42.396220 -1.881603 9
-56.905358 44.020186 -2.098063 9
-54.174376 45.573201 -2.329411 9
-51.512481 47.235345 -2.534957 9
-48.779191 48.803908 -2.761011 9
-34.654652 34.720944 -6.644408 9
-42.280665 50.585571 -3.531303 9
-38.426067 50.737676 -4.096604 9
-34.400296 50.739794 -4.704451 9
-30.165267 50.555147 -5.365107 9
-25.944625 50.475498 -6.008602 9
-21.629950 50.365525 -6.668024 9
-17.312429 50.338839 -7.315478 9
-16.681273 54.712414 -6.859376 4
-16.904831 59.980902 -6.161679 4
-17.174592 65.180746 -5.463871 4
-16.718778 69.462104 -4.987633 1
-14.015447 71.229558 -5.159799 1
-12.856086 74.650868 -4.892630 1
-16.857630 83.394205 -3.187778 1
-23.160559 94.232236 -0.876595 3
-19.017697 94.283373 -1.471561 3
-17.805377 97.289154 -1.258150 3
-13.483356 97.269606 -1.884632 3
-11.986514 99.999671 -1.744508 2
-11.609561 103.744918 -1.309167 2
-7.722301 104.246025 -1.799864 2
-6.543597 107.222809 -1.576463 2
-5.226462 110.050316 -1.390676 2
-0.599071 110.025135 -2.050847 2
12.078566 103.342121 -4.733731 2
28.678197 93.790857 -8.351039 3
31.089737 96.141542 -8.375970 3
32.948603 98.938301 -8.261391 3
34.807599 101.727853 -8.145803 3
36.643324 104.528864 -8.023419 3
38.481841 107.321796 -7.900525 3
40.319502 110.110310 -7.776120 3
42.157791 112.894157 -7.650448 3
44.003973 115.669114 -7.525095 3
45.870305 118.427942 -7.402752 3
47.710944 121.202974 -7.272646 3
-149.432432 -23.240585 9.136784 7
-145.959143 -23.405794 8.529734 7
-142.443373 -23.642158 7.910571 7
-138.915053 -23.835406 7.296080 7
-149.713989 23.980232 14.021351 7
-146.790949 24.276516 13.563184 7
-143.769565 24.306421 13.063214 7
-140.829388 24.640709 12.610226 7
-137.849528 24.898798 12.144849 7
-134.851391 25.150464 11.677862 7
-131.822552 25.364076 11.203954 7
-128.788318 25.612644 10.734885 7
-125.698492 25.764822 10.248785 7
-122.597579 25.943050 9.765706 7
-119.494259 26.168524 9.289295 7
-115.581864 24.512887 8.486986 8
-114.213113 28.922701 8.733915 8
-111.950863 31.144160 8.609015 8
-109.787742 33.534683 8.519883 8
-107.405705 35.398044 8.342155 8
-104.638253 36.424697 8.016573 8
-101.457665 36.620053 7.539363 8
-98.206738 36.730093 7.044102 8
-94.960963 36.910045 6.559263 8
-91.613240 36.953149 6.045969 8
-88.220562 36.976910 5.525762 8
-84.788075 36.994141 5.000856 8
-79.698217 34.134083 3.911060 8
-77.884359 37.159437 3.965814 8
-74.344782 37.190012 3.432493 8
-70.786893 37.258539 2.902749 8
-67.155589 37.275257 2.358418 8
-62.091213 35.083236 1.356831 9
-60.133732 37.892972 1.377174 9
-59.369894 42.476947 1.775101 9
-56.714292 44.120409 1.566004 9
-54.030380 45.727736 1.350876 9
-51.347047 47.343588 1.138995 9
-48.636270 48.929284 0.921892 9
-45.662741 50.164623 0.628921 9
-42.264844 50.854516 0.214397 9
-38.350814 50.912290 -0.344846 9
-34.295484 50.862214 -0.934599 9
-30.193877 50.833681 -1.526269 9
-26.054611 50.838871 -2.117164 9
-21.827914 50.818012 -2.721257 9
-17.634135 50.919068 -3.304178 4
-17.809151 56.210150 -2.660218 4
-17.926455 61.312997 -2.044168 4
-4.286867 50.828852 -5.193087 9
-17.931572 70.926565 -0.907267 1
-14.071888 71.403170 -1.387684 1
-20.441808 82.793720 0.855135 1
-24.248291 91.162386 2.383932 3
-23.283564 94.423413 2.643615 3
-19.535675 94.855235 2.181909 3
-17.749681 97.275767 2.231608 3
-13.459808 97.276441 1.647741 3
-12.401244 100.408394 1.887338 2
-11.642402 103.781032 2.199127 2
-7.690639 104.211575 1.720045 2
-4.994343 105.827732 1.558430 2
-4.049046 108.995402 1.826132 2
-0.761514 110.124789 1.529118 2
3.996649 110.065925 0.889784 2
29.126867 93.354937 -4.542462 3
32.212986 95.157707 -4.721392 3
34.089740 97.946949 -4.613577 3
35.959173 100.735221 -4.502566 3
37.812220 103.529966 -4.386228 3
39.640169 106.337796 -4.262581 3
41.503135 109.114662 -4.145129 3
-149.421724 -21.180471 13.252885 7
-145.009408 -24.927952 12.175079 7
-142.425125 -21.795663 12.032385 7
-138.885047 -22.112612 11.418417 7
-148.586319 21.723613 17.040799 7
-145.710162 22.230566 16.616787 7
-142.758401 22.529712 16.163645 7
-139.758382 22.725237 15.695461 7
-136.786396 23.051352 15.246305 7
-133.806716 23.397176 14.800137 7
-130.806788 23.728475 14.351768 7
-127.775972 24.020129 13.897172 7
-124.679571 24.187692 13.422941 7
-121.609821 24.475497 12.966650 7
-118.527072 24.778704 12.512195 7
-115.508165 25.280930 12.089000 8
-113.571572 28.328760 12.078517 8
-111.445374 30.854602 11.991331 8
-109.243855 33.149873 11.872891 8
-106.806170 34.887337 11.667087 8
-103.959068 35.746441 11.316579 8
-100.778253 35.946682 10.854086 8
-97.531101 36.069560 10.376469 8
-94.231185 36.148924 9.889098 8
-90.922212 36.272876 9.407161 8
-87.557934 36.354592 8.915284 8
-84.192888 36.497926 8.431819 8
-80.752220 36.568139 7.932432 8
-77.315141 36.709498 7.443116 8
-73.821055 36.816759 6.944563 8
-70.267832 36.890753 6.436586 8
-66.654835 36.934794 5.919466 8
-62.083772 35.526677 5.120284 9
-61.658274 40.693272 5.584486 9
-59.014045 42.339947 5.376293 9
-56.384947 44.013169 5.175493 9
-53.711534 45.625615 4.964720 9
-51.107524 47.344610 4.777231 9
-48.419847 48.950437 4.568839 9
-45.343088 50.032046 4.254213 9
-41.921685 50.681956 3.849204 9
-38.062481 50.804986 3.330990 9
-34.049281 50.801024 2.780797 9
-30.036092 50.875039 2.241466 9
-25.850679 50.811457 1.666657 9
-21.659057 50.822967 1.101678 9
-18.068381 51.631948 0.706124 4
-17.966811 56.570974 1.227694 4
-17.971962 61.523923 1.767662 4
-17.953016 66.341078 2.292213 1
-20.928209 74.355350 3.566135 1
-24.215397 82.480124 4.895843 1
-21.918680 84.453429 4.814547 1
-24.567231 91.572454 5.953944 3
-23.294085 94.499538 6.117219 3
-19.383020 94.755981 5.641386 3
-17.743714 97.310999 5.720263 3
-13.428779 97.275961 5.164330 3
-12.875061 100.872716 5.505526 2
-11.276825 103.448557 5.599245 2
-7.702867 104.216962 5.236912 2
-3.411424 104.402544 4.719042 2
-3.232642 108.255234 5.146882 2
-0.660838 109.999591 5.031262 2
3.936306 110.066107 4.468590 2
29.139684 93.277407 -0.639045 3
33.129989 94.339748 -1.003359 3
35.203154 96.977071 -0.941069 3
143.380988 17.441092 -23.736929 6
-149.777806 -17.743933 17.483067 7
-146.275405 -18.260814 16.868187 7
-142.728282 -18.831572 16.244699 7
-149.785837 17.064690 20.286708 7
-147.317229 19.019061 20.047533 7
-144.392872 19.445188 19.613848 7
-141.435976 19.803587 19.172161 7
-138.514565 20.306528 18.750633 7
-135.537280 20.677276 18.312159 7
-132.568723 21.111622 17.883013 7
-129.567654 21.493180 17.447157 7
-126.535273 21.831610 17.005596 7
-123.513580 22.240756 16.574313 7
-120.427192 22.527723 16.125631 7
-117.330799 22.837700 15.680107 7
-115.305316 25.735384 15.618007 8
-112.924679 27.724158 15.428117 8
-110.802021 30.254556 15.325729 8
-107.316191 29.730053 14.761805 8
-106.087984 34.123914 14.957440 8
-103.151610 34.802487 14.583676 8
-99.953765 34.979781 14.130882 8
-96.682008 35.066011 13.662114 8
-93.431824 35.254843 13.208176 8
-90.125376 35.393666 12.744483 8
-86.779136 35.518420 12.276604 8
-83.407911 35.658904 11.809331 8
-80.002983 35.800715 11.340186 8
-76.547013 35.915854 10.864259 8
-73.081295 36.078054 10.394016 8
-69.534001 36.167503 9.908651 8
-65.952309 36.267450 9.422319 8
-62.058345 35.938945 8.856641 9
-61.190073 40.391253 9.147891 9
-58.533397 42.012653 8.936718 9
-55.892095 43.661920 8.733075 9
-53.275308 45.351727 8.539381 9
-50.679781 47.076010 8.354635 9
-47.915190 48.567561 8.128243 9
-42.653595 46.651840 7.250274 9
-30.113771 35.115542 4.497407 9
-37.523761 50.367627 6.934468 9
-33.575336 50.445461 6.428708 9
-29.564239 50.518525 5.917289 9
-25.484910 50.582820 5.399166 9
-21.368347 50.679197 4.882394 9
-17.585910 51.250961 4.458190 4
-17.397662 56.081657 4.916040 4
-25.753824 70.596632 7.422592 1
-25.530557 74.994927 7.838486 1
-24.917907 78.874210 8.156103 1
-23.280930 81.576901 8.229669 1
-21.198274 83.783051 8.200175 1
-23.993382 91.054083 9.293831 3
-23.187744 94.456266 9.549689 3
-18.981473 94.407758 9.035539 3
-17.670590 97.280219 9.180229 3
-13.351274 97.230681 8.657795 3
-9.693676 97.889301 8.292389 2
-9.130440 101.468759 8.609697 2
-7.452761 103.984380 8.683571 2
-3.245678 104.238010 8.217904 2
1.328556 104.247834 7.685499 2
6.091167 104.184224 7.125921 2
23.691361 93.444318 3.905318 3
99.485172 35.354110 -11.270886 5
119.019462 25.005329 -14.663153 6
127.374384 24.029498 -15.723070 6
135.859576 23.127961 -16.785239 6
144.584434 22.220708 -17.870926 6
-149.796116 -15.640819 21.478950 7
-147.304948 -12.543251 21.293688 7
-143.651231 -13.713521 20.628962 7
-149.351411 17.162786 23.692188 7
-146.293310 17.146983 23.209011 7
-143.214988 17.128371 22.725491 7
-140.106485 17.078806 22.238110 7
-136.982417 17.047069 21.752630 7
-134.012027 17.523039 21.330107 7
-131.052233 18.061856 20.916775 7
-128.056930 18.534384 20.496336 7
-125.049394 19.009693 20.077323 7
-121.987323 19.380761 19.645617 7
-118.924583 19.792598 19.219880 7
-115.510029 19.390660 18.685276 8
-114.264152 24.202470 18.858409 8
-112.176238 26.887667 18.753438 8
-110.047733 29.407461 18.633273 8
-107.823778 31.654715 18.481899 8
-105.168168 32.933094 18.198434 8
-102.192391 33.546278 17.821822 8
-98.932830 33.617484 17.366640 8
-95.705786 33.813979 16.928711 8
-92.441619 33.994192 16.487395 8
-89.149493 34.178554 16.045593 8
-85.872222 34.447876 15.615578 8
-82.476819 34.558261 15.159954 8
-79.098363 34.760804 14.717057 8
-75.662107 34.922447 14.266210 8
-72.137250 34.995909 13.799524 8
-68.615705 35.140887 13.342220 8
-62.074923 30.467641 12.095918 9
-61.600641 35.664629 12.459922 9
-60.548339 39.820282 12.665709 9
-57.917862 41.480717 12.462545 9
-55.304364 43.169762 12.267151 9
-52.709695 44.889391 12.079932 9
-50.105657 46.598564 11.893822 9
-47.359234 48.113146 11.676287 9
-44.213002 49.093611 11.365811 9
-40.689528 49.603477 10.970724 9
-36.798321 49.685007 10.495922 9
-32.863366 49.783206 10.020422 9
-28.861519 49.870394 9.539014 9
-24.790033 49.946400 9.051419 9
-20.659015 50.026792 8.560326 9
-16.541710 50.201230 8.082695 9
-16.012390 54.639734 8.423977 4
-24.195194 68.963957 10.706127 1
-24.008248 73.421463 11.096153 1
-23.633073 77.580006 11.439544 1
-22.318319 80.643794 11.574415 1
-20.386980 83.016658 11.576063 1
-17.878745 84.779327 11.456676 1
-18.495777 89.739946 12.002588 3
-18.927227 94.406660 12.502230 3
-15.830337 95.516898 12.262502 3
-13.341342 97.250289 12.154746 3
-8.996305 97.249052 11.672841 3
-4.762592 97.434161 11.224797 2
-4.312402 101.129690 11.546163 2
-2.366044 103.438331 11.567700 2
1.698396 103.896679 11.174920 2
84.533320 37.023268 -4.586005 5
91.001550 36.912794 -5.288126 5
97.539372 36.870720 -5.986346 5
104.500759 36.612825 -6.747679 5
122.564349 27.712687 -9.582428 6
130.363409 27.250896 -10.444301 6
138.374028 26.784472 -11.324071 6
146.545407 26.358393 -12.211455 6
-149.945016 -13.072123 25.467452 7
-147.663091 -9.343907 25.326033 7
-150.002947 10.426228 26.854503 7
-147.850494 13.639854 26.710093 7
-144.996216 14.396537 26.314802 7
-142.130035 15.126289 25.919446 7
-139.212370 15.712158 25.510981 7
-136.309997 16.367787 25.112412 7
-133.388706 16.990131 24.712358 7
-130.310023 17.197293 24.266847 7
-127.115698 17.140705 23.791387 7
-123.927022 17.164412 23.325123 7
-120.687068 17.118163 22.850429 7
-117.443970 17.129646 22.382321 7
-115.570044 20.519224 22.327690 8
-113.306522 22.874763 22.155177 8
-111.284414 25.725619 22.051966 8
-109.220512 28.400759 21.934944 8
-106.848527 30.332907 21.730071 8
-104.080228 31.389877 21.416436 8
-100.972121 31.753705 21.013781 8
-97.792388 32.018814 20.598161 8
-94.563682 32.238836 20.176266 8
-91.317026 32.478749 19.756683 8
-87.996458 32.633554 19.324861 8
-84.668385 32.833440 18.898542 8
-81.336716 33.084439 18.478704 8
-77.966187 33.323018 18.056378 8
-74.516733 33.482951 17.621784 8
-71.040233 33.658854 17.188320 8
-67.545031 33.865566 16.758157 8
-62.068739 30.935531 15.855675 9
-60.373943 34.175170 15.878108 9
-59.647159 38.848816 16.129387 9
-57.133398 40.693582 15.955053 9
-54.584506 42.482130 15.775755 9
-51.991337 44.205516 15.589707 9
-49.388485 45.917907 15.405177 9
-44.443088 44.366725 14.694804 9
-43.402090 48.288816 14.872847 9
-39.793654 48.690100 14.478582 9
-35.920983 48.803678 14.034422 9
-31.982211 48.903832 13.585085 9
-27.994711 49.015779 13.134654 9
-24.000036 49.192812 12.692238 9
-19.873133 49.282023 12.231336 9
-15.714930 49.411205 11.773836 9
-13.684401 52.099518 11.768810 4
-22.606180 67.298164 14.022777 1
-22.389444 71.741155 14.372042 1
-22.148713 76.067214 14.712297 1
-21.264219 79.612489 14.919558 1
-19.604494 82.281123 14.971326 1
-17.221930 84.177083 14.882171 1
-19.683131 91.015632 15.743187 3
-18.941629 94.473998 15.971690 3
-14.696316 94.446350 15.526613 3
-5.056477 89.313973 14.066256 3
-9.012311 97.281601 15.197621 3
-3.796762 96.546599 14.598589 3
1.105072 96.208946 14.071490 3
5.779034 96.173631 13.598966 3
77.929223 37.342591 0.859877 5
84.077831 37.360342 0.253468 5
90.310513 37.424699 -0.352195 5
96.782835 37.409838 -0.984314 5
103.475858 37.340704 -1.638462 5
120.567454 29.173885 -4.085255 6
127.834698 29.076847 -4.787616 6
135.354745 28.927725 -5.514194 6
143.053087 28.791382 -6.251228 6
-150.005445 1.008967 29.925797 7
-147.706764 4.067376 29.720222 7
-145.074531 5.850255 29.406106 7
-142.380675 7.373904 29.073859 7
-139.618446 8.643865 28.722710 7
-136.806092 9.741572 28.359370 7
-133.961748 10.738263 27.990045 7
-131.101000 11.689416 27.619794 7
-128.204942 12.548119 27.243501 7
-125.281783 13.346211 26.863975 7
-122.327187 14.079143 26.480370 7
-119.359568 14.800977 26.098108 7
-115.532622 13.415623 25.488719 8
-94.788181 -28.657517 20.379850 8
-112.294519 21.426457 25.465162 8
-110.271955 24.293314 25.342624 8
-108.200767 26.969331 25.206854 8
-105.731667 28.709473 24.969961 8
-102.840813 29.532675 24.629755 8
-99.653911 29.766770 24.221160 8
-96.444439 30.007978 23.813690 8
-93.224436 30.281465 23.410387 8
-89.944035 30.490831 22.999322 8
-86.709697 30.842793 22.606155 8
-83.377400 31.064690 22.196684 8
-80.050125 31.352345 21.795497 8
-76.647194 31.561519 21.383959 8
-73.195617 31.745791 20.968696 8
-69.737392 31.979496 20.559446 8
-66.260038 32.240990 20.153413 8
-62.031033 31.350139 19.588916 9
-61.276146 36.048070 19.794844 9
-58.723481 37.844804 19.607373 9
-56.189321 39.666570 19.427537 9
-53.699661 41.551264 19.260816 9
-51.124986 43.307984 19.079749 9
-48.516606 45.018328 18.895604 9
-45.543195 46.224449 18.640169 9
-42.298951 47.086233 18.334856 9
-38.629499 47.419077 17.949878 9
-34.755879 47.546090 17.532020 9
-30.882706 47.744809 17.123132 9
-24.107266 44.353743 16.149961 9
-22.870337 48.020050 16.279773 9
-18.764278 48.146441 15.852592 9
-14.611470 48.292984 15.425968 9
-10.409516 48.458427 14.999648 9
-9.650902 52.637778 15.233542 4
-17.496571 66.390649 17.076798 1
-15.906396 69.321925 17.139126 1
-13.409086 71.243714 17.036078 1
-8.976375 71.125518 16.584611 1
-4.578151 71.130191 16.150117 1
-0.069013 71.105824 15.706348 1
-14.304441 89.894144 18.603083 3
31.088293 49.619244 10.953344 9
-5.018013 89.307046 17.665366 3
-3.315577 91.927144 17.722562 3
48.635184 48.054704 9.164778 9
116.728625 -8.699444 -1.983363 6
72.481327 36.798073 5.998575 5
78.454240 36.846934 5.458161 5
84.433548 37.003321 4.931495 5
90.678902 37.047719 4.375997 5
96.972201 37.170885 3.828298 5
103.508833 37.215525 3.257115 5
120.008048 29.499023 1.111132 6
127.063170 29.541569 0.505072 6
134.384316 29.515382 -0.124845 6
141.717368 29.619983 -0.737973 6
149.534918 29.508526 -1.407034 6
-126.187673 -1.061425 29.980672 7
-124.240056 2.784678 29.859979 7
-121.716551 4.924063 29.593883 7
-118.997285 6.495063 29.281580 7
-115.547278 6.186851 28.795241 8
-114.700182 12.392351 28.940405 8
-111.080076 11.661711 28.421548 8
-111.067131 19.481827 28.755951 8
-109.180104 22.687571 28.645844 8
-106.963047 25.060563 28.459870 8
-104.305271 26.423052 28.175649 8
-101.162744 26.756812 27.786649 8
-98.029246 27.156790 27.405846 8
-94.857050 27.523943 27.022671 8
-91.626061 27.822856 26.632991 8
-88.365979 28.117199 26.243550 8
-85.150454 28.547499 25.870191 8
-81.827039 28.826638 25.480448 8
-78.463200 29.087650 25.089053 8
-75.073535 29.359310 24.699237 8
-71.667393 29.658961 24.313036 8
-68.207688 29.924509 23.922986 8
-62.111906 25.915612 23.009773 9
-60.587971 29.501720 23.024857 9
-60.154637 34.726895 23.255456 9
-57.632851 36.585724 23.073552 9
-55.170896 38.529624 22.907160 9
-52.571160 40.261901 22.718031 9
-50.063821 42.129881 22.550801 9
-47.393391 43.763530 22.356791 9
-44.435719 45.005067 22.113617 9
-41.025085 45.653014 21.791964 9
-37.249200 45.861343 21.410191 9
-33.386403 46.022750 21.020821 9
-29.505856 46.231216 20.636758 9
-25.521915 46.378556 20.242713 9
-21.512549 46.567102 19.853010 9
-17.419809 46.726841 19.457539 9
-13.265545 46.887980 19.060483 9
-9.021432 47.020115 18.657202 9
-4.725264 47.170834 18.254577 9
-0.369241 47.333154 17.851500 9
4.044120 47.512056 17.448652 9
-10.513208 68.230844 20.231509 1
-9.012132 71.260601 20.304932 1
-4.410313 71.040236 19.870134 1
0.087296 71.017943 19.463156 1
27.312429 48.382089 15.391186 9
32.242908 48.537387 14.967580 9
37.305933 48.656228 14.534448 9
42.665434 48.589684 14.066518 9
51.750687 45.180176 13.029425 9
68.038805 35.468211 10.900128 5
73.683071 35.706182 10.446666 5
79.576886 35.829566 9.968703 5
85.635656 35.921668 9.480023 5
91.727908 36.099259 9.000957 5
98.056834 36.194829 8.501577 5
104.522708 36.298496 7.997491 5
120.750838 28.793764 6.089636 6
127.617292 28.978081 5.572374 6
134.720136 29.110065 5.038245 6
142.085096 29.179349 4.484589 6
149.600491 29.277354 3.928136 6
-113.898003 -5.639367 31.884932 8
-113.738020 2.703903 32.122593 8
-112.686775 8.466810 32.166048 8
-111.311884 13.212839 32.139212 8
-109.552957 16.879160 32.032036 8
-107.394994 19.513857 31.844043 8
-104.773974 21.052792 31.564861 8
-102.420820 23.158358 31.343083 8
-99.284384 23.572809 30.969501 8
-96.127816 23.989980 30.597926 8
-92.941698 24.392550 30.226626 8
-89.740870 24.812485 29.858606 8
-86.503840 25.209200 29.489835 8
-83.244630 25.612384 29.123139 8
-79.928412 25.959662 28.752098 8
-76.596508 26.330632 28.384656 8
-73.207047 26.652317 28.013174 8
-69.780188 26.964386 27.641595 8
-66.376274 27.370601 27.281012 8
-61.897910 26.066475 26.734342 9
-61.175665 30.920329 26.866207 9
-58.728166 32.929835 26.692354 9
-56.331063 35.004784 26.531325 9
-53.901521 37.016983 26.368575 9
-51.437782 38.968395 26.203995 9
-48.893687 40.796674 26.029903 9
-46.091635 42.258191 25.816606 9
-42.993687 43.323137 25.558852 9
-39.436037 43.793240 25.230608 9
-35.598371 43.945275 24.863465 9
-31.785820 44.199543 24.508574 9
-27.875343 44.394537 24.145838 9
-23.882126 44.555205 23.778105 9
-19.879769 44.776849 23.417477 9
-15.855903 45.043523 23.062038 9
-11.706601 45.231825 22.695536 9
-7.494536 45.421805 22.328250 9
-3.242898 45.642553 21.964020 9
1.129190 45.804479 21.590608 9
5.620592 45.914998 21.208662 9
10.125797 46.093712 20.834575 9
14.670572 46.312551 20.464560 9
19.364327 46.458792 20.082558 9
24.122651 46.625588 19.701570 9
28.941494 46.819089 19.322452 9
33.984326 46.880982 18.921818 9
39.004649 47.059057 18.535870 9
44.573502 46.811975 18.083390 9
56.525597 40.770976 16.744285 9
70.066079 33.621351 15.211860 5
75.749114 33.844912 14.799737 5
81.506264 34.107709 14.390616 5
87.484641 34.285805 13.964808 5
93.635863 34.429097 13.529693 5
99.853060 34.632274 13.100228 5
107.393921 33.880765 12.510254 5
122.871769 26.996638 10.897419 6
129.713890 27.216487 10.443839 6
136.579513 27.544681 10.003612 6
143.792061 27.739055 9.535660 6
-110.385611 -4.647015 35.252413 8
-110.325925 3.714859 35.422111 8
-109.126974 8.978848 35.385714 8
-107.254263 12.466677 35.230485 8
-104.864874 14.669441 34.986878 8
-101.909785 15.575467 34.648541 8
-98.875930 16.331454 34.301861 8
-95.818684 17.066350 33.956657 8
-92.708278 17.722161 33.607974 8
-89.568855 18.354517 33.260105 8
-86.402963 18.971728 32.913603 8
-83.188723 19.534692 32.564943 8
-79.983260 20.155618 32.223748 8
-76.697797 20.670128 31.875455 8
-73.384058 21.179470 31.528784 8
-70.947137 23.267846 31.329957 8
-67.502911 23.612504 30.973954 8
-62.102843 20.739174 30.313513 9
-61.823050 26.444127 30.472732 9
-59.519831 28.736529 30.314137 9
-57.167853 30.927929 30.152024 9
-54.826383 33.116281 29.995757 9
-52.431209 35.205716 29.835497 9
-49.973472 37.189841 29.670122 9
-45.122143 35.706408 29.147921 9
-44.537754 40.399121 29.275194 9
-41.191595 41.145011 28.992126 9
-37.477687 41.434806 28.661455 9
-33.667239 41.659066 28.324176 9
-29.790796 41.863847 27.985074 9
-25.984410 42.227099 27.664027 9
-22.001455 42.431917 27.325518 9
-17.982054 42.662599 26.990068 9
-13.880643 42.865071 26.651406 9
-9.750623 43.106848 26.317303 9
-5.535011 43.322017 25.979978 9
-1.220582 43.499663 25.637926 9
3.140602 43.702963 25.298620 9
7.599848 43.876954 24.955299 9
12.106185 44.081120 24.615175 9
16.693146 44.281297 24.273974 9
21.332383 44.510159 23.935751 9
26.166552 44.624056 23.582019 9
30.995345 44.832657 23.239507 9
35.880103 45.073914 22.900341 9
40.891316 45.281635 22.555743 9
47.714627 43.872052 21.992512 9
67.305555 30.807988 19.839902 5
72.898808 31.043579 19.474086 5
78.550112 31.329201 19.113636 5
84.351159 31.586081 18.747588 5
90.312306 31.811215 18.375251 5
96.345515 32.084786 18.007808 5
102.562734 32.316350 17.632242 5
119.635551 23.889551 15.990115 6
126.316340 24.149447 15.600982 6
133.138311 24.421852 15.211001 6
140.126032 24.692720 14.817920 6
147.307947 24.946488 14.419160 6
-101.253313 -0.506536 37.985787 8
-99.509765 3.467511 37.829767 8
-97.023671 5.673059 37.568316 8
-94.300665 7.327367 37.276966 8
-91.449091 8.698525 36.972010 8
-88.546875 9.967460 36.665022 8
-85.525361 11.005350 36.346276 8
-82.495825 12.046951 36.031975 8
-79.389501 12.962234 35.712391 8
-76.229509 13.804369 35.390998 8
-73.031769 14.608851 35.070188 8
-69.765805 15.325445 34.745824 8
-66.501307 16.083134 34.427776 8
-61.853962 14.518281 33.925000 9
-61.682754 20.567711 34.044809 9
-59.927941 23.844064 33.949733 9
-57.723575 26.334874 33.797433 9
-55.439166 28.668142 33.638824 9
-53.104846 30.900291 33.478161 9
-50.762050 33.100371 33.321103 9
-48.389822 35.240078 33.164924 9
-45.677182 36.874793 32.968893 9
-42.502169 37.862974 32.718003 9
-38.946304 38.357282 32.424045 9
-35.198118 38.644844 32.112315 9
-31.421213 38.957894 31.804269 9
-27.518206 39.169986 31.487666 9
-23.606647 39.439880 31.177704 9
-19.639742 39.707863 30.868596 9
-15.600303 39.955287 30.558402 9
-11.526442 40.231868 30.252070 9
-7.343935 40.450502 29.940652 9
-3.142030 40.720848 29.635349 9
1.191733 40.914375 29.322694 9
5.589120 41.114509 29.011280 9
10.058951 41.314035 28.700292 9
14.578759 41.540089 28.392640 9
19.188442 41.751993 28.083858 9
23.811713 42.032668 27.783119 9
28.574711 42.253043 27.475999 9
33.422566 42.474429 27.169228 9
38.366724 42.688853 26.861821 9
43.795434 42.527068 26.510502 9
55.941849 36.138072 25.422288 9
71.278037 27.141520 24.006166 5
76.802373 27.494034 23.695146 5
82.473192 27.814270 23.380277 5
88.280112 28.117163 23.063192 5
94.190315 28.436018 22.747881 5
100.202130 28.775686 22.434925 5
118.693093 18.937781 20.829556 6
125.149045 19.330245 20.509756 6
131.726496 19.741954 20.192026 6
138.480007 20.134450 19.871301 6
145.483338 20.457862 19.540805 6
-61.631244 -12.702289 37.442130 9
-65.469376 1.482885 37.960913 8
-60.648493 -0.291509 37.468683 9
-60.885512 6.889655 37.572598 9
-61.702982 14.824253 37.746874 9
-59.506090 17.467936 37.575550 9
-57.738687 20.772721 37.458754 9
-55.465405 23.202844 37.288772 9
-53.318070 25.801236 37.138344 9
-51.140911 28.319272 36.989602 9
-48.975758 30.825027 36.847306 9
-46.324151 32.586365 36.655478 9
-43.399066 33.955556 36.438747 9
-39.968531 34.629306 36.171855 9
-36.242420 34.940904 35.878938 9
-32.454216 35.230610 35.586248 9
-28.654183 35.568836 35.299455 9
-24.792725 35.890302 35.013261 9
-20.819574 36.133934 34.722425 9
-16.812432 36.404105 34.435571 9
-12.715897 36.633547 34.146934 9
-8.645054 36.966040 33.868954 9
-4.505559 37.286526 33.591728 9
-0.295547 37.596063 33.315278 9
4.056354 37.816528 33.032424 9
8.424635 38.096014 32.756486 9
12.908322 38.325358 32.477450 9
17.415025 38.609696 32.205038 9
22.014272 38.875448 31.932379 9
26.727928 39.103987 31.657584 9
31.524326 39.332696 31.384149 9
36.424142 39.544144 31.110324 9
41.450620 39.719838 30.834178 9
49.562447 37.022913 30.269419 9
69.749978 23.144794 28.559728 5
75.521627 23.224504 28.258833 5
81.304992 23.400730 27.968869 5
87.339266 23.459307 27.667591 5
93.502995 23.517262 27.367020 5
99.688411 23.671521 27.077522 5
107.285014 22.753397 26.672737 5
122.618482 15.613826 25.585823 6
129.049843 16.072030 25.323670 6
135.684329 16.482922 25.057703 6
142.523157 16.853301 24.788499 6
149.457974 17.273413 24.526147 6
-63.516373 -1.401232 41.712317 9
-63.144578 4.781636 41.682108 9
-60.924405 7.557679 41.484137 9
-60.392004 13.156542 41.450688 9
-58.462834 16.265476 41.291850 9
-56.475002 19.219854 41.133331 9
-54.054067 21.432024 40.940115 9
-52.083555 24.328455 40.794775 9
-50.062805 27.101591 40.650425 9
-47.082222 28.395347 40.422725 9
-44.515024 30.316737 40.239384 9
-40.938662 30.781446 39.969008 9
-37.140276 30.987901 39.684855 9
-33.276092 31.169533 39.401516 9
-29.365697 31.356650 39.120934 9
-25.407175 31.548731 38.843076 9
-21.428937 31.784911 38.570656 9
-17.461150 32.103632 38.306498 9
-13.500591 32.498527 38.050389 9
-9.411906 32.801156 37.790373 9
-5.264139 33.102500 37.532827 9
-1.097894 33.453220 37.281502 9
3.210105 33.709961 37.025745 9
7.580056 33.971563 36.772809 9
11.993576 34.261048 36.524480 9
