ply
format ascii 1.0
element vertex 1385
property float x
property float y
property float z
property int scalar_Label
end_header
47.422452 129.231361 19.040633 3
49.305602 132.169007 19.198622 3
51.158700 135.124683 19.365700 3
53.006180 138.083149 19.531948 3
55.120471 140.883984 19.588861 3
58.428527 143.003677 19.172193 3
63.510776 144.163575 18.064700 3
-115.758314 -7.794044 30.394865 8
-114.391238 -1.866961 31.549576 8
-113.070165 3.914997 32.676311 8
-111.410209 8.653761 33.469167 8
-109.490865 12.615421 34.011203 8
-107.079762 15.342051 34.138372 8
-104.244038 17.076717 33.925235 8
-101.033619 18.002665 33.427810 8
-97.817544 18.945284 32.930753 8
-94.555106 19.823163 32.405000 8
-91.274099 20.697526 31.871745 8
-87.943271 21.510607 31.309817 8
-84.719807 22.562752 30.827971 8
-81.502536 23.654136 30.354601 8
-78.313675 24.823389 29.904142 8
-74.906902 25.637706 29.315289 8
-71.452765 26.413492 28.703738 8
-67.971051 27.188287 28.083087 8
-64.492688 28.014512 27.473099 8
-60.422073 27.943621 26.507324 9
-59.317393 32.570996 27.357697 9
-56.716745 34.803746 27.282329 9
-54.104849 37.006042 27.194561 9
-51.474679 39.170475 27.090980 9
-48.851945 41.337002 26.987171 9
-46.084571 43.294223 26.796927 9
-42.876364 44.651677 26.357383 9
-39.267827 45.502264 25.700158 9
-35.323186 45.963408 24.868291 9
-31.381688 46.496600 24.051667 9
-27.290851 46.908504 23.168197 9
-23.189680 47.380248 22.293773 9
-18.972552 47.783681 21.372871 9
-14.736253 48.240076 20.457171 9
-10.430707 48.691242 19.520921 9
-6.035761 49.117626 18.554624 9
-1.532548 49.502827 17.549826 9
2.735206 50.226577 16.678295 9
7.669708 50.309590 15.493007 9
12.430777 50.671471 14.411902 9
17.352488 50.957135 13.271149 9
22.338447 51.271500 12.118494 9
27.415550 51.590184 10.941648 9
32.740118 51.766145 9.668302 9
19.221696 69.841144 17.139633 1
44.243530 51.636229 6.791874 9
59.422484 43.196949 1.105213 9
11.945673 90.887449 23.731473 3
14.289370 93.402109 23.716507 3
19.690773 93.311677 22.347509 3
23.168239 94.938624 21.844010 3
25.125326 97.852305 22.008042 3
26.955403 100.858870 22.222223 3
28.844016 103.807390 22.406157 3
30.656972 106.805043 22.617562 3
32.535954 109.742544 22.796383 3
34.370738 112.705347 22.989450 3
36.238595 115.636597 23.164623 3
38.052013 118.600623 23.358303 3
39.919805 121.520644 23.525949 3
41.736453 124.471415 23.710830 3
43.576640 127.402117 23.882788 3
45.393838 130.344778 24.060697 3
47.247783 133.261416 24.221019 3
49.099195 136.178736 24.379611 3
50.907974 139.121696 24.552161 3
53.380288 141.671464 24.466893 3
57.101904 143.517106 23.906217 3
62.971881 144.201445 22.540421 3
-110.331595 -20.474923 30.477994 8
-111.404538 -8.146369 33.603544 8
-110.745425 -0.620624 35.224907 8
-109.247557 4.595079 36.120541 8
-107.147933 8.228025 36.512443 8
-104.514469 10.554621 36.480150 8
-101.427627 11.851828 36.106014 8
-98.284579 13.039524 35.691912 8
-95.095460 14.148496 35.247246 8
-91.899800 15.265716 34.800981 8
-88.648243 16.295587 34.319956 8
-85.370691 17.303355 33.825949 8
-82.047076 18.254949 33.306581 8
-78.694746 19.187778 32.774372 8
-75.315739 20.108655 32.231338 8
-71.889462 20.984504 31.665207 8
-68.447105 21.873319 31.096348 8
-65.113160 22.982936 30.600665 8
-60.580431 22.178269 29.391806 9
-60.297418 28.238248 30.719607 9
-57.721265 30.555109 30.666429 9
-55.164959 32.884068 30.618426 9
-52.582967 35.157470 30.549755 9
-50.036793 37.469122 30.495897 9
-47.445755 39.702566 30.411835 9
-44.525171 41.466831 30.143252 9
-41.179508 42.661952 29.645465 9
-37.386140 43.294587 28.914764 9
-33.487996 43.850199 28.140309 9
-29.548081 44.416722 27.356536 9
-25.503617 44.917264 26.531488 9
-21.439719 45.463117 25.709994 9
-17.272451 45.953159 24.849712 9
-13.087146 46.494221 23.994512 9
-8.780627 46.966797 23.093428 9
-4.437066 47.473264 22.189052 9
0.065098 47.879670 21.222874 9
4.604640 48.326973 20.254795 9
9.178727 48.818998 19.286282 9
13.906437 49.231966 18.261669 9
18.723267 49.639999 17.212598 9
23.682357 49.993606 16.115466 9
28.580272 50.499719 15.064226 9
33.812982 50.771446 13.879341 9
39.026981 51.160421 12.722350 9
45.713989 50.283302 10.933368 9
64.732171 38.373792 3.775919 5
69.149092 40.035658 3.081100 5
17.168670 90.861822 26.643785 3
18.950746 93.896287 26.876020 3
21.464451 96.302868 26.793559 3
23.301324 99.273422 26.994452 3
25.127477 102.240306 27.195007 3
26.984354 105.171562 27.378310 3
28.823636 108.106960 27.564642 3
30.659986 111.035650 27.748120 3
32.481550 113.967254 27.933694 3
34.304983 116.890041 28.114809 3
36.135565 119.801322 28.289607 3
37.947983 122.719872 28.468272 3
39.767867 125.628421 28.640873 3
41.609207 128.518906 28.802281 3
43.412253 131.431843 28.975711 3
45.252722 134.318404 29.132281 3
47.028505 137.244291 29.310913 3
48.964891 140.071020 29.427099 3
51.782789 142.378819 29.215305 3
55.993431 143.908117 28.495175 3
62.512678 144.196913 26.944180 3
69.762845 144.207813 25.152498 3
-106.253674 -10.355523 36.248255 8
-105.537317 -3.071192 37.721758 8
-103.256513 0.330064 37.994264 8
-100.508643 2.591528 37.911361 8
-97.626844 4.523047 37.724628 8
-94.668362 6.271576 37.479032 8
-91.620018 7.825046 37.169065 8
-88.539168 9.314210 36.836102 8
-85.384783 10.665020 36.454872 8
-82.216899 12.003494 36.066264 8
-78.955057 13.182277 35.620239 8
-75.677374 14.356267 35.167987 8
-72.352559 15.471952 34.690876 8
-68.993204 16.556937 34.197730 8
-65.573112 17.570684 33.673887 8
-60.514039 15.903810 32.199776 9
-58.690714 19.637492 32.620367 9
-58.472089 25.833531 33.932279 9
-55.987228 28.329171 33.932268 9
-53.530823 30.842775 33.940737 9
-51.038305 33.278013 33.922360 9
-48.519337 35.654574 33.883587 9
-45.777457 37.697573 33.720889 9
-42.697622 39.268689 33.378576 9
-39.134542 40.200560 32.787891 9
-35.344150 40.876041 32.089084 9
-31.438348 41.459380 31.342769 9
-27.505944 42.072343 30.595178 9
-23.474932 42.625376 29.810761 9
-19.443508 43.245328 29.038948 9
-15.293940 43.789135 28.222356 9
-11.090512 44.339890 27.393340 9
-6.840366 44.908243 26.555767 9
-2.517476 45.466550 25.697781 9
1.905514 45.987996 24.807399 9
6.377817 46.533027 23.909046 9
10.943825 47.056067 22.982854 9
15.615617 47.549010 22.024302 9
20.451346 47.957446 21.008498 9
25.300022 48.441310 20.003895 9
30.228807 48.933703 18.980879 9
35.342689 49.336614 17.894578 9
40.522236 49.771921 16.798134 9
48.206508 47.984604 14.654687 9
64.727138 38.370160 8.825273 5
70.019991 39.237204 7.787797 5
75.999872 39.596071 6.482882 5
82.224680 39.858844 5.099090 5
23.500015 94.542011 30.139713 3
24.494752 98.224464 30.678565 3
25.452102 101.896224 31.222117 3
26.420005 105.519588 31.751402 3
27.401928 109.094171 32.265557 3
28.793026 112.324410 32.611221 3
30.587967 115.235082 32.794787 3
32.449497 118.089939 32.949553 3
34.255011 120.979741 33.122917 3
36.030805 123.884635 33.304638 3
37.826800 126.770354 33.475976 3
39.642339 129.639097 33.637540 3
41.491733 132.483264 33.784412 3
43.270281 135.371571 33.955262 3
45.043766 138.260972 34.125822 3
47.154704 140.944148 34.173164 3
50.326613 143.006410 33.842328 3
55.142419 144.153271 32.935904 3
62.048336 144.197739 31.310506 3
69.271828 144.202528 29.600144 3
76.775390 144.198733 27.819875 3
-87.700129 -7.509359 37.239957 8
-86.037064 -2.787819 37.890016 8
-83.556661 0.147629 37.989916 8
-80.806295 2.494090 37.907390 8
-77.896290 4.504459 37.719011 8
-74.885570 6.313014 37.465503 8
-71.772636 7.932355 37.149206 8
-68.599724 9.451758 36.797834 8
-65.367241 10.880222 36.413362 8
-60.657618 9.826298 35.192922 9
-58.819477 13.653276 35.605119 9
-58.743839 20.245815 36.970596 9
-56.476007 23.163945 37.098143 9
-54.050423 25.793890 37.130383 9
-51.687070 28.487773 37.187937 9
-49.265825 31.064032 37.207194 9
-46.704319 33.411192 37.147257 9
-43.773525 35.219168 36.894357 9
-40.460833 36.505124 36.449359 9
-36.734198 37.259338 35.803336 9
-32.894011 37.917016 35.111430 9
-29.013156 38.581572 34.410814 9
-25.137220 39.313322 33.723821 9
-21.180746 40.003585 33.009430 9
-17.193588 40.718544 32.292113 9
-13.077700 41.341363 31.526429 9
-8.904202 41.964004 30.746786 9
-4.648946 42.561344 29.942725 9
-0.330502 43.158727 29.123482 9
4.068614 43.739671 28.281826 9
8.516074 44.343272 27.432819 9
13.049299 44.931398 26.560423 9
17.671132 45.505139 25.664207 9
22.408207 46.041335 24.733560 9
27.179257 46.627063 23.804084 9
32.139016 47.110773 22.810800 9
37.166773 47.618358 21.805897 9
42.672106 47.765445 20.620839 9
52.676496 43.856127 17.616980 9
65.841857 37.351087 13.386296 5
71.473254 37.921193 12.254426 5
77.397378 38.338185 11.025085 5
83.472588 38.736690 9.756835 5
89.685506 39.133902 8.456065 5
96.202576 39.398605 7.059293 5
102.726182 39.783047 5.683431 5
119.171926 32.488327 0.553059 6
126.601265 32.579530 -1.087113 6
134.595240 32.390616 -2.911269 6
33.649716 112.844657 35.733315 3
34.567145 116.418514 36.240292 3
35.449422 119.983412 36.752027 3
36.357088 123.497312 37.246599 3
37.281240 126.968854 37.727738 3
38.153667 130.445458 38.220188 3
39.558023 133.547071 38.517464 3
41.339488 136.395998 38.678599 3
43.147295 139.227055 38.828963 3
45.493002 141.731202 38.792310 3
49.125661 143.486131 38.316501 3
54.601081 144.221518 37.222869 3
61.610589 144.185847 35.629871 3
68.786468 144.196631 34.006938 3
76.236068 144.200634 32.319283 3
84.000587 144.185035 30.554993 3
-66.643236 -8.263581 37.077281 8
-65.373489 -2.982818 37.873683 8
-60.638142 -3.990058 36.699571 9
-59.785533 1.843032 37.690099 9
-57.788117 5.564500 38.022153 9
-59.440745 15.232527 40.292441 9
-56.994637 17.938485 40.327347 9
-54.873609 21.122476 40.523713 9
-52.468353 23.812335 40.561912 9
-50.450074 27.054975 40.789278 9
-47.522647 28.897536 40.548813 9
-44.694243 30.889292 40.357582 9
-41.349521 32.149539 39.912892 9
-37.794416 33.149987 39.371949 9
-34.061678 33.953131 38.753949 9
-30.286094 34.752708 38.125345 9
-26.369900 35.423715 37.440989 9
-22.441176 36.139977 36.761988 9
-18.540252 36.951702 36.106676 9
-14.496352 37.646184 35.397312 9
-10.399448 38.341076 34.675932 9
-6.321336 39.123509 33.974743 9
-2.107461 39.812595 33.225674 9
2.084043 40.595393 32.498726 9
6.510773 41.183658 31.683060 9
10.975989 41.805482 30.864856 9
15.466863 42.475599 30.049686 9
20.042930 43.132136 29.212846 9
24.791747 43.689499 28.319073 9
29.576829 44.293670 27.425736 9
34.381905 44.961320 26.539511 9
39.386339 45.519425 25.588626 9
45.614890 45.010594 24.169227 9
58.627889 38.357056 20.112885 9
68.221456 35.184863 17.458724 5
73.841398 35.791926 16.382299 5
79.552401 36.420340 15.289487 5
85.458690 36.984314 14.141433 5
91.488576 37.552289 12.966637 5
97.697088 38.083765 11.745493 5
104.161963 38.523543 10.450707 5
119.657143 31.979901 5.877712 6
126.879445 32.220922 4.380262 6
134.357378 32.408027 2.816461 6
142.105247 32.540508 1.183065 6
150.172373 32.592948 -0.535427 6
44.352048 134.279310 41.659656 3
45.212651 137.731831 42.132214 3
46.083983 141.151322 42.595232 3
48.074908 143.879765 42.684512 3
54.214973 144.201814 41.420642 3
61.131027 144.199955 39.926860 3
68.306617 144.190101 38.374536 3
75.694237 144.206523 36.780374 3
83.380949 144.209691 35.118020 3
91.401255 144.191557 33.378436 3
-63.528115 -5.628329 41.350980 9
-62.624017 0.176558 42.272057 9
-61.125734 4.777248 42.845611 9
-59.347839 8.783519 43.250061 9
-57.347864 12.328988 43.522235 9
-55.291318 15.710465 43.751450 9
-53.088703 18.797427 43.895100 9
-50.799188 21.700262 43.985928 9
-48.144039 24.010200 43.890783 9
-45.184462 25.855877 43.646262 9
-41.781078 27.065950 43.192026 9
-38.148434 27.985475 42.636313 9
-34.448225 28.858649 42.057696 9
-30.697174 29.713181 41.464757 9
-26.961139 30.640015 40.887886 9
-23.210317 31.598141 40.313347 9
-19.436830 32.577826 39.737711 9
-15.531025 33.442892 39.113233 9
-11.546395 34.268084 38.464758 9
-7.463154 35.034482 37.784725 9
-3.368295 35.850484 37.111066 9
0.813053 36.629428 36.412362 9
5.062177 37.397322 35.697269 9
9.444374 38.085250 34.939636 9
13.760450 38.917051 34.221750 9
18.236213 39.646873 33.451784 9
22.820845 40.336684 32.651632 9
27.416490 41.092009 31.860880 9
32.217171 41.717735 31.003645 9
37.007407 42.436493 30.165283 9
42.251440 42.799176 29.167563 9
51.514039 39.465280 26.662162 9
65.933872 31.604849 22.262613 5
71.247014 32.432715 21.335633 5
76.653084 33.268172 20.390451 5
82.265420 34.016067 19.386242 5
88.083538 34.686225 18.324914 5
94.018760 35.361949 17.240026 5
100.101886 36.022347 16.121390 5
107.035795 36.108552 14.721706 5
121.355174 30.517338 10.759149 6
128.351707 30.942281 9.408023 6
135.514718 31.372871 8.023138 6
142.867834 31.797492 6.597483 6
150.643613 32.054501 5.053523 6
51.462265 141.632526 45.603388 3
53.823489 144.187219 45.587103 3
60.701551 144.187790 44.172585 3
67.798832 144.201428 42.714794 3
75.166862 144.207099 41.199238 3
82.824926 144.203403 39.621661 3
90.802717 144.184390 37.974825 3
-56.271330 -18.020113 42.083273 9
-57.953042 -7.401563 44.314512 9
-57.259242 -1.265774 45.281528 9
-55.956233 3.655372 45.912515 9
-54.319149 7.893332 46.356076 9
-52.474926 11.696233 46.681299 9
-50.379856 15.022997 46.872357 9
-47.928117 17.741077 46.884992 9
-45.110497 19.875660 46.721938 9
-41.799516 21.276300 46.331526 9
-38.220754 22.316214 45.824369 9
-34.626134 23.375987 45.317502 9
-30.937614 24.348311 44.776564 9
-27.245002 25.362437 44.242124 9
-23.473474 26.318530 43.681786 9
-19.625335 27.225278 43.097548 9
-15.748008 28.148385 42.510377 9
-11.811350 29.051527 41.907915 9
-7.845313 29.974925 41.303174 9
-3.903818 30.984468 40.718412 9
0.090905 31.986018 40.121678 9
4.148492 32.971371 39.509631 9
8.420571 33.772732 38.822795 9
12.704674 34.627726 38.143006 9
17.095327 35.433419 37.433484 9
21.506617 36.286945 36.728290 9
26.001450 37.122841 36.003489 9
30.679818 37.842927 35.222086 9
35.398976 38.600165 34.439170 9
40.134229 39.419925 33.664074 9
46.629954 38.622199 32.257338 9
64.778312 26.968738 26.644254 5
69.809643 28.026865 25.853402 5
75.032747 28.990999 25.008202 5
80.402942 29.910096 24.126084 5
85.811064 30.885851 23.246445 5
91.613791 31.614359 22.245597 5
97.238085 32.594169 21.324079 5
103.270080 33.334086 20.280097 5
117.546601 27.554967 16.467032 6
124.041601 28.276050 15.328925 6
130.830602 28.886780 14.113574 6
137.660460 29.590728 12.906594 6
144.887049 30.124653 11.591690 6
57.014583 142.085460 48.650731 3
60.242420 144.194590 48.394019 3
67.319749 144.199063 47.011230 3
74.676836 144.189782 45.571113 3
82.259561 144.204650 44.090959 3
90.155969 144.204975 42.546683 3
98.374576 144.196617 40.937645 3
-52.282182 -9.195952 47.334989 9
-51.888303 -2.592239 48.379810 9
-50.647755 2.415401 48.995879 9
-48.902257 6.478298 49.357531 9
-46.694785 9.724210 49.494454 9
-44.038632 12.225742 49.421439 9
-40.792834 13.818436 49.084231 9
-37.356545 15.148812 48.667112 9
-33.902512 16.484105 48.247707 9
-30.359668 17.725406 47.795953 9
-26.793129 18.970421 47.340600 9
-23.117924 20.105710 46.846521 9
-19.415279 21.247734 46.348660 9
-15.646287 22.347566 45.831445 9
-11.832788 23.437685 45.304472 9
-7.907895 24.437370 44.741547 9
-3.953437 25.454377 44.176251 9
0.081760 26.428689 43.588839 9
4.161778 27.407447 42.994025 9
8.309830 28.366148 42.383320 9
12.551384 29.279781 41.747725 9
16.766316 30.286543 41.133136 9
21.038425 31.292774 40.508009 9
25.294041 32.379535 39.899864 9
29.750989 33.317808 39.229157 9
34.365076 34.164260 38.513765 9
38.989744 35.074117 37.807411 9
57.793796 22.132062 32.102747 9
58.407497 27.322626 32.872482 9
69.011288 22.998229 30.162364 5
74.277270 23.901425 29.336395 5
79.585014 24.853888 28.511286 5
84.944356 25.847835 27.683887 5
90.424438 26.824489 26.831322 5
95.898304 27.897339 25.996557 5
101.573281 28.891252 25.111183 5
110.807392 27.060178 23.082534 5
121.484485 24.279909 20.623991 6
127.728209 25.245704 19.628871 6
134.307900 26.059579 18.545657 6
141.034389 26.879000 17.436383 6
148.024985 27.622347 16.265330 6
62.656846 142.563365 51.769184 3
66.854990 144.190869 51.270319 3
74.146069 144.196929 49.920554 3
81.716878 144.196327 48.518022 3
89.549120 144.207583 47.069298 3
97.741676 144.188762 45.548885 3
106.228375 144.184341 43.976683 3
-43.293286 -9.084330 50.140378 9
-42.367236 -3.475431 50.867787 9
-40.078716 -0.158944 50.983551 9
-37.402853 2.508164 50.926234 9
-34.488287 4.790848 50.765002 9
-31.405780 6.818225 50.533261 9
-28.193619 8.662490 50.249464 9
-24.861635 10.350169 49.919626 9
-21.451655 11.950160 49.562314 9
-17.964560 13.470623 49.178997 9
-14.393817 14.909435 48.768165 9
-10.722127 16.250866 48.324191 9
-6.967327 17.525386 47.855173 9
-3.197989 18.824539 47.388123 9
0.693262 20.017724 46.882809 9
4.614812 21.223126 46.374656 9
8.655615 22.337855 45.831191 9
12.743570 23.452565 45.279918 9
16.910265 24.534075 44.709853 9
21.152933 25.589908 44.122712 9
25.522589 26.568876 43.501140 9
29.892079 27.613328 42.890814 9
34.417124 28.560007 42.237607 9
38.977307 29.540510 41.584260 9
43.725712 30.402570 40.878895 9
59.471955 20.542516 36.481453 9
69.425829 16.756877 34.098830 5
74.281375 18.049484 33.446236 5
79.278060 19.282879 32.759681 5
84.454931 20.428473 32.027608 5
89.754695 21.545904 31.269883 5
95.172980 22.644390 30.488796 5
100.836604 23.620610 29.645084 5
111.120530 20.822463 27.369473 5
122.890020 17.052599 24.673414 6
128.034305 18.902379 24.066237 6
132.840188 21.090155 23.574811 6
139.173540 22.158395 22.631499 6
145.585397 23.274768 21.682988 6
67.600807 139.483479 54.507435 3
68.425819 143.047719 54.952960 3
73.612897 144.207644 54.237041 3
81.176658 144.189057 52.910370 3
88.971137 144.197746 51.548454 3
97.099760 144.188211 50.125685 3
105.520367 144.192111 48.654727 3
114.265426 144.202813 47.128839 3
-17.867503 -5.782619 50.657541 9
-16.063800 -1.657065 50.966436 9
-13.516093 1.365584 50.981351 9
-10.606780 3.869396 50.856511 9
-7.442841 6.028178 50.636635 9
-4.115792 7.982566 50.358772 9
-0.643700 9.769158 50.031576 9
2.891102 11.502122 49.686515 9
6.609643 13.038567 49.281124 9
10.375381 14.555392 48.865710 9
14.252013 15.981032 48.418484 9
18.221521 17.343664 47.946830 9
22.266227 18.669129 47.457721 9
26.422518 19.921708 46.939507 9
30.642086 21.160430 46.409460 9
35.001694 22.307094 45.842555 9
39.388336 23.487416 45.277292 9
44.059732 24.439021 44.629653 9
51.735337 22.455298 43.022439 9
72.628523 7.685133 37.209438 5
76.942691 9.564048 36.768340 5
81.480823 11.280758 36.265543 5
86.157935 12.926031 35.729432 5
91.079414 14.411370 35.128559 5
96.079322 15.896827 34.515689 5
101.305905 17.256541 33.846373 5
108.035779 17.410570 32.738299 5
125.066211 9.065905 28.579948 6
130.344586 10.838567 27.969833 6
135.911515 12.453499 27.288046 6
141.707270 13.971080 26.554037 6
147.784346 15.360812 25.754283 6
73.520010 139.932004 57.762751 3
74.275596 143.566892 58.219371 3
80.619735 144.192978 57.274167 3
88.359050 144.208120 56.002211 3
96.439274 144.199752 54.671370 3
104.834279 144.191863 53.289855 3
113.565714 144.183857 51.854070 3
119.326398 145.748396 51.160794 0
9.999466 -10.003277 49.995818 9
10.172889 -3.680527 50.867131 9
12.500791 -0.191038 50.981364 9
15.338830 2.637985 50.918975 9
18.541840 5.019610 50.734239 9
21.973737 7.140717 50.476217 9
25.550625 9.114407 50.174857 9
29.306330 10.912837 49.820644 9
33.246570 12.541757 49.413486 9
37.237136 14.158449 48.997912 9
41.450935 15.582235 48.519756 9
46.382111 16.312194 47.826418 9
90.516951 -3.456394 37.829165 5
93.016503 0.421404 37.994330 5
96.555768 3.314792 37.850262 5
100.638432 5.732123 37.551035 5
105.285747 7.684130 37.094836 5
140.692807 -4.104520 29.710964 6
143.079200 0.285219 29.982144 6
147.044027 3.380383 29.812547 6
79.535820 140.409159 61.102030 3
80.375090 144.032114 61.531946 3
87.805217 144.190473 60.408775 3
95.813381 144.196238 59.174113 3
104.153178 144.191856 57.888158 3
112.793685 144.202846 56.559727 3
118.462472 145.787516 55.935520 0
127.789547 145.778560 54.501369 0
39.719962 -6.961059 50.512152 9
41.101780 -2.189702 50.942113 9
44.013356 0.816072 50.897673 9
85.743436 140.865998 64.508212 3
87.212142 144.195563 64.793333 3
95.181548 144.198181 63.645457 3
103.468640 144.196175 62.452965 3
111.377811 144.537886 61.368337 0
117.668380 145.796657 60.656226 0
126.438096 146.018168 59.433811 0
136.152738 145.980815 58.038839 0
92.054094 141.354350 68.008400 3
94.550652 144.201986 68.084987 3
102.782027 144.204055 66.985133 3
108.598779 145.541386 66.403678 0
116.801712 145.843204 65.355713 0
125.569730 146.038004 64.219265 0
132.721303 147.129855 63.431365 0
143.988207 146.538170 61.852684 0
98.559141 141.829500 71.589318 3
102.137205 144.193453 71.477348 3
107.500675 145.730596 71.032190 0
115.911622 145.903853 70.023199 0
124.664889 146.077820 68.975020 0
132.195496 146.971730 68.181337 0
144.039392 146.099061 66.612186 0
103.856425 138.788487 74.947384 0
103.542471 143.157113 75.569538 0
104.941332 146.638119 75.881386 0
115.123673 145.918627 74.636799 0
123.827321 146.089316 73.682765 0
130.908035 147.161578 73.037216 0
143.017409 146.135677 71.544184 0
153.850241 145.900317 70.306060 0
107.367835 136.657382 78.730479 0
108.101646 140.534467 79.154875 0
108.857467 144.376321 79.575920 0
114.636920 145.791880 79.168746 0
122.338941 146.407256 78.463618 0
132.349952 146.113549 77.406960 0
140.530504 146.825043 76.673121 0
152.426646 146.081853 75.373053 0
163.827729 145.780148 74.186008 0
114.327683 137.064886 82.584534 0
115.078460 140.975213 83.002450 0
115.794867 144.878474 83.426589 0
122.731486 145.849571 82.912281 0
131.499556 146.108688 82.143706 0
141.064174 146.178409 81.282307 0
148.712346 147.259249 80.729320 0
162.171421 146.026777 79.355130 0
173.056907 146.116592 78.389693 0
121.469105 137.479170 86.550234 0
122.274674 141.406695 86.957564 0
122.990288 145.354597 87.379122 0
131.071704 145.913366 86.791350 0
140.305774 146.107105 86.069760 0
148.311520 147.007584 85.539348 0
158.292058 147.217657 84.769046 0
172.322047 145.949463 83.494515 0
182.195344 146.621533 82.800874 0
128.902577 137.851364 90.621287 0
129.631113 141.862196 91.037064 0
130.418580 145.822896 91.447628 0
139.512533 146.053774 90.833882 0
149.366161 146.124334 90.152565 0
157.130602 147.266230 89.751232 0
171.028519 146.015349 88.638919 0
182.855994 145.868819 87.810018 0
136.494396 138.252160 94.825290 0
137.230128 142.307369 95.238587 0
138.198832 146.235780 95.628721 0
148.616824 146.026380 94.982030 0
158.786805 146.120953 94.390821 0
166.937923 147.241954 94.044558 0
181.302533 146.006634 93.061709 0
193.732631 145.809712 92.321097 0
144.316715 138.651661 99.161828 0
145.098183 142.736293 99.569791 0
146.579498 146.493862 99.912720 0
157.978862 146.022321 99.301868 0
168.483640 146.140560 98.807056 0
177.064684 147.232317 98.521991 0
191.995593 145.983711 97.671023 0
205.063988 145.736936 97.031063 0
152.430355 139.027989 103.635392 0
153.180638 143.179535 104.046697 0
155.395960 146.684052 104.338060 0
167.688271 146.009900 103.796345 0
178.573867 146.141711 103.402779 0
190.448401 146.087558 102.958446 0
203.208848 145.917700 102.475498 0
213.285432 146.987466 102.237764 0
160.778154 139.413467 108.262416 0
161.546882 143.612154 108.673402 0
167.190192 145.757465 108.740874 0
177.742392 145.998312 108.479659 0
189.281425 146.045264 108.178322 0
201.192738 146.165137 107.882407 0
214.094803 146.137502 107.552322 0
169.482400 139.760875 113.045428 0
170.229401 144.027307 113.459890 0
177.008738 145.817298 113.527777 0
188.314089 145.926911 113.355839 0
200.034950 146.086969 113.190272 0
212.611741 146.144411 113.008682 0
178.445509 140.119940 118.003843 0
179.211763 144.439232 118.420119 0
187.434460 145.776151 118.504467 0
199.043750 145.947349 118.461480 0
211.067870 146.177923 118.430851 0
187.755296 140.460402 123.145592 0
188.515953 144.846029 123.565927 0
198.187727 145.757733 123.704252 0
207.112281 147.124173 123.891678 0
48.536242 -2.917259 -49.849614 9
46.043960 -8.340171 -49.904765 9
43.384660 -10.158827 -49.914864 9
40.628612 -10.447297 -49.909243 9
37.849233 -10.471495 -49.906085 9
35.060444 -10.446032 -49.908502 9
32.257708 -10.347145 -49.916170 9
29.455445 -10.315489 -49.931149 9
26.638196 -10.221579 -49.951597 9
23.805675 -10.079638 -49.977765 9
20.960846 -9.922110 -50.010161 9
18.099033 -9.725650 -50.048507 9
15.221590 -9.508060 -50.093113 9
12.321503 -9.236392 -50.143592 9
9.409884 -8.981058 -50.200978 9
6.455352 -8.583622 -50.263232 9
3.472140 -8.135483 -50.331708 9
0.461352 -7.651303 -50.406710 9
-2.581608 -7.118173 -50.488196 9
-5.660973 -6.526949 -50.576192 9
-8.828655 -5.676700 -50.668503 9
-12.053072 -4.723226 -50.767285 9
-15.379199 -3.512041 -50.871096 9
-18.974874 -1.466911 -50.974316 9
54.361484 -5.912841 -46.631639 9
51.854355 -12.701145 -46.766753 9
49.309759 -16.521145 -46.833882 9
46.730619 -18.728091 -46.866442 9
44.106394 -19.802728 -46.876198 9
41.428622 -20.033633 -46.870268 9
38.732558 -20.065135 -46.865055 9
36.029358 -20.066655 -46.864898 9
33.323185 -20.087435 -46.871074 9
30.606504 -20.064547 -46.881990 9
27.875312 -19.980534 -46.897229 9
25.143948 -19.953785 -46.919840 9
22.398496 -19.883567 -46.947288 9
19.646172 -19.826195 -46.981037 9
16.871663 -19.691730 -47.018865 9
14.095664 -19.611521 -47.064118 9
11.301946 -19.493694 -47.114542 9
8.492713 -19.357598 -47.170679 9
5.664269 -19.190588 -47.232287 9
2.821805 -19.023227 -47.300178 9
-0.028055 -18.887177 -47.375163 9
-2.914228 -18.658975 -47.454384 9
-5.805011 -18.480376 -47.541272 9
-8.746094 -18.170151 -47.631721 9
-11.700270 -17.884707 -47.729455 9
-14.668625 -17.619709 -47.834436 9
-17.666461 -17.321945 -47.945579 9
-20.686356 -17.021934 -48.063662 9
-23.734916 -16.700606 -48.188392 9
-26.824274 -16.324018 -48.319213 9
-29.954014 -15.900809 -48.456486 9
-33.138949 -15.393693 -48.599684 9
-36.339519 -14.925732 -48.751369 9
-39.581673 -14.423534 -48.910279 9
-42.894074 -13.814793 -49.075348 9
-47.261696 -10.524295 -49.203474 9
60.036475 -5.338443 -43.377554 9
57.395862 -12.315430 -43.579928 9
54.791461 -16.681494 -43.695405 9
52.231970 -20.266252 -43.789208 9
49.688863 -22.958708 -43.856779 9
47.128816 -24.638677 -43.893275 9
44.546988 -25.635471 -43.910415 9
41.923649 -25.949722 -43.908029 9
39.273631 -25.956037 -43.899778 9
36.617539 -25.946771 -43.896397 9
33.960819 -25.978939 -43.899996 9
31.289243 -25.929074 -43.906054 9
28.614541 -25.908598 -43.918686 9
25.931929 -25.880781 -43.936568 9
23.238563 -25.831277 -43.959202 9
20.539101 -25.796301 -43.987943 9
17.833342 -25.775103 -44.022790 9
15.104096 -25.672066 -44.060315 9
12.372863 -25.616628 -44.105252 9
9.625345 -25.532240 -44.154879 9
6.853712 -25.387862 -44.208151 9
4.078989 -25.290586 -44.268944 9
1.296479 -25.216082 -44.336425 9
-1.524969 -25.032691 -44.406042 9
-4.333494 -24.965333 -44.485717 9
-7.188806 -24.770888 -44.567084 9
-10.062435 -24.572230 -44.654499 9
-12.937665 -24.432216 -44.750147 9
-15.844990 -24.240837 -44.850391 9
-18.772828 -24.044327 -44.956885 9
-21.712184 -23.874473 -45.070746 9
-24.697011 -23.624159 -45.188610 9
-27.687150 -23.425141 -45.314822 9
-30.719070 -23.167268 -45.445996 9
-33.800490 -22.835790 -45.581876 9
-36.881242 -22.578425 -45.727102 9
-40.016432 -22.242344 -45.877187 9
-43.221208 -21.796506 -46.031495 9
-46.877981 -20.277726 -46.163293 9
-53.734568 -10.962480 -46.090152 9
62.931345 -5.718510 -40.117469 9
60.222152 -12.801964 -40.394839 9
57.525438 -15.311307 -40.464018 9
55.029548 -22.161819 -40.745096 9
52.454866 -24.443347 -40.816170 9
49.952076 -27.295015 -40.920139 9
47.401309 -28.598881 -40.955941 9
44.881239 -30.028146 -41.003067 9
42.298233 -30.416795 -41.005654 9
39.689107 -30.487668 -40.998140 9
37.070886 -30.500847 -40.992960 9
34.445950 -30.496576 -40.992051 9
31.813408 -30.475444 -40.995459 9
29.176232 -30.467487 -41.004639 9
26.531733 -30.454203 -41.018727 9
23.872401 -30.389730 -41.035555 9
21.209531 -30.357148 -41.059124 9
18.533821 -30.298950 -41.086718 9
15.854727 -30.274898 -41.121214 9
13.161602 -30.225971 -41.159841 9
10.451957 -30.145860 -41.202350 9
7.725443 -30.039781 -41.249043 9
4.991596 -29.957385 -41.302301 9
2.240783 -29.855720 -41.360159 9
-0.526210 -29.742796 -41.423051 9
-3.296780 -29.673046 -41.493543 9
-6.102079 -29.522890 -41.566010 9
-8.905904 -29.438587 -41.647221 9
-11.742048 -29.293611 -41.731475 9
-14.590918 -29.164405 -41.822320 9
-17.447874 -29.066951 -41.920518 9
-20.346548 -28.891238 -42.021271 9
-23.262623 -28.723035 -42.128486 9
-26.200771 -28.549477 -42.241682 9
-29.161843 -28.370547 -42.360954 9
-32.146350 -28.187255 -42.486443 9
-35.153420 -28.004370 -42.618450 9
-38.187023 -27.813139 -42.756714 9
-41.254207 -27.597805 -42.900713 9
-44.456850 -27.103354 -43.040398 9
-48.202807 -25.345586 -43.137606 9
-53.501650 -19.995835 -43.104534 9
103.345169 -1.960435 -37.936807 5
100.301527 -3.117470 -37.865518 5
97.324348 -3.914349 -37.781270 5
94.372993 -4.657582 -37.700308 5
91.447174 -5.326655 -37.621360 5
88.552581 -5.814683 -37.538334 5
85.668618 -6.339184 -37.463125 5
82.803279 -6.773706 -37.388608 5
79.950615 -7.176353 -37.317927 5
77.110178 -7.523246 -37.249651 5
74.281053 -7.776387 -37.181521 5
71.457380 -8.063562 -37.120752 5
68.639815 -8.369667 -37.066470 5
65.828637 -8.594998 -37.012895 5
60.352132 -17.091356 -37.389835 9
57.719694 -20.824876 -37.558256 9
55.126782 -23.723831 -37.684038 9
52.576780 -26.398835 -37.802452 9
50.082558 -29.210157 -37.934440 9
47.613979 -31.632113 -38.048955 9
45.125535 -33.201357 -38.118439 9
42.621012 -34.261100 -38.162858 9
40.069482 -34.638664 -38.171860 9
37.484246 -34.659682 -38.164582 9
34.892856 -34.666509 -38.161238 9
32.297826 -34.687046 -38.163491 9
29.686625 -34.626030 -38.165726 9
27.077701 -34.634907 -38.176914 9
24.455679 -34.600944 -38.190415 9
21.828645 -34.585532 -38.209877 9
19.194209 -34.574242 -38.234475 9
16.545495 -34.530776 -38.262102 9
13.881982 -34.459994 -38.293086 9
11.221600 -34.458665 -38.333129 9
8.541158 -34.408293 -38.375329 9
5.853301 -34.375743 -38.423633 9
3.134565 -34.258315 -38.472129 9
0.419969 -34.215768 -38.530127 9
-2.321916 -34.114774 -38.589969 9
-5.062696 -34.074146 -38.658542 9
-7.837693 -33.957703 -38.728104 9
-10.617224 -33.882276 -38.805388 9
-13.419958 -33.780973 -38.886654 9
-16.250920 -33.641677 -38.971313 9
-19.076278 -33.579489 -39.065868 9
-21.933252 -33.472555 -39.163580 9
-24.832340 -33.295266 -39.263171 9
-27.717383 -33.220837 -39.374224 9
-30.650625 -33.064818 -39.486741 9
-35.702902 -27.116118 -39.295711 9
-36.593802 -32.725599 -39.728494 9
-39.627375 -32.486081 -39.854989 9
-42.871771 -31.777819 -39.963546 9
-46.679881 -29.769983 -40.012385 9
-51.404984 -25.719325 -39.966160 9
-56.201350 -21.766767 -39.936231 9
108.067759 -11.004208 -35.389717 5
104.871287 -13.596356 -35.419344 5
102.009427 -13.989498 -35.314314 5
99.173745 -14.276827 -35.207917 5
96.352922 -14.530646 -35.104698 5
93.542834 -14.778084 -35.006356 5
90.750380 -14.932953 -34.907122 5
87.958440 -15.173176 -34.818710 5
85.178549 -15.359751 -34.731859 5
82.405037 -15.553969 -34.650603 5
79.638663 -15.735263 -34.573524 5
76.878874 -15.896212 -34.500073 5
74.123391 -16.076183 -34.432889 5
71.373929 -16.198234 -34.366693 5
68.627786 -16.310653 -34.304735 5
65.884083 -16.464700 -34.250521 5
60.274250 -8.824708 -33.605779 9
57.884836 -25.286290 -34.697955 9
55.310154 -27.730587 -34.823972 9
52.790308 -30.404399 -34.971333 9
50.297432 -32.682546 -35.096292 9
47.830779 -34.735961 -35.210559 9
45.373003 -36.421061 -35.303893 9
42.875499 -37.283667 -35.344237 9
40.356231 -37.776786 -35.363192 9
37.783814 -37.700990 -35.346659 9
35.214332 -37.708744 -35.340457 9
32.639511 -37.715794 -35.338680 9
30.059369 -37.725973 -35.341613 9
27.468843 -37.705940 -35.346926 9
24.868394 -37.667732 -35.355487 9
22.266886 -37.673049 -35.371653 9
19.645155 -37.604341 -35.387195 9
17.024091 -37.592787 -35.411344 9
14.385013 -37.533471 -35.436777 9
11.737972 -37.486446 -35.467733 9
9.088736 -37.480029 -35.506212 9
6.422060 -37.441432 -35.547175 9
3.742621 -37.397569 -35.592540 9
1.047290 -37.338246 -35.641646 9
-1.652243 -37.314469 -35.698060 9
-4.382598 -37.221458 -35.754611 9
-7.105780 -37.210287 -35.821730 9
-9.861289 -37.132660 -35.889303 9
-12.638704 -37.033615 -35.960494 9
-15.416232 -36.990048 -36.040573 9
-18.227304 -36.890610 -36.122066 9
-21.027805 -36.880286 -36.214785 9
-23.869227 -36.797020 -36.307926 9
-26.736487 -36.693590 -36.405129 9
-29.632311 -36.565975 -36.506227 9
-32.549369 -36.438401 -36.612911 9
-35.488708 -36.309965 -36.725204 9
-38.451209 -36.180337 -36.843174 9
-41.489030 -35.919551 -36.958614 9
-44.959957 -34.659410 -37.016830 9
-49.369997 -31.268702 -36.948484 9
-54.893559 -25.509018 -36.742466 9
-64.616483 -10.546976 -35.981802 8
-67.529404 -11.492764 -36.217024 8
-71.116742 -10.993370 -36.370603 8
-74.768438 -10.442794 -36.528759 8
-78.463202 -9.890848 -36.694700 8
-82.277393 -9.186391 -36.859771 8
-86.142611 -8.476772 -37.032983 8
-90.101562 -7.682840 -37.210034 8
-94.190227 -6.745303 -37.387994 8
-98.404928 -5.683091 -37.568473 8
-102.814050 -4.384467 -37.745925 8
110.662159 -13.958977 -32.435893 5
107.194200 -18.312392 -32.625843 5
104.242162 -19.560090 -32.590328 5
101.458885 -19.721341 -32.478298 5
98.684864 -19.882981 -32.371232 5
95.922094 -20.021889 -32.267314 5
93.163074 -20.202725 -32.171460 5
90.417016 -20.329446 -32.076236 5
87.674554 -20.494765 -31.988761 5
84.942123 -20.614878 -31.902490 5
82.212813 -20.775487 -31.824072 5
79.491419 -20.894817 -31.747072 5
76.775076 -21.002455 -31.673763 5
74.062754 -21.105448 -31.604671 5
71.354494 -21.174174 -31.537410 5
68.648401 -21.245032 -31.474842 5
65.943943 -21.361865 -31.420460 5
60.544693 -21.819133 -31.343204 9
58.030138 -29.034169 -31.874715 9
55.480220 -31.391660 -32.020512 9
52.957478 -33.395099 -32.142652 9
50.479752 -35.566794 -32.283229 9
48.026669 -37.518422 -32.410680 9
45.567593 -38.923706 -32.498318 9
43.099551 -39.940342 -32.558751 9
40.592855 -40.372482 -32.575889 9
38.059552 -40.506776 -32.572959 9
35.510960 -40.525229 -32.564756 9
32.950176 -40.484641 -32.555909 9
30.389993 -40.499172 -32.555739 9
27.824076 -40.515763 -32.559936 9
25.246139 -40.495358 -32.565330 9
22.664972 -40.502531 -32.577206 9
20.071464 -40.481747 -32.591058 9
17.466873 -40.447280 -32.608077 9
14.851253 -40.404141 -32.628699 9
12.234342 -40.404952 -32.657225 9
9.601251 -40.374801 -32.687600 9
6.947731 -40.300849 -32.718829 9
4.288164 -40.253828 -32.756679 9
1.621586 -40.228566 -32.800756 9
-1.055198 -40.211793 -32.850021 9
-3.763344 -40.123102 -32.898067 9
-6.471882 -40.087542 -32.954980 9
-9.201380 -40.027870 -33.014614 9
-11.952529 -39.946264 -33.077211 9
-14.708274 -39.903733 -33.147670 9
-17.491777 -39.823814 -33.219984 9
-20.279220 -39.786214 -33.300506 9
-23.108269 -39.675306 -33.380212 9
-25.957676 -39.561822 -33.464749 9
-28.814882 -39.483483 -33.557113 9
-31.692313 -39.404909 -33.654607 9
-34.598878 -39.304191 -33.755626 9
-37.530913 -39.194568 -33.861285 9
-40.516711 -39.007221 -33.966460 9
-43.718387 -38.352216 -34.041970 9
-47.567287 -36.237477 -34.014337 9
-52.384230 -32.032128 -33.839020 9
-59.699461 -22.427547 -33.275363 9
-64.682516 -18.519432 -33.145527 8
-68.063504 -18.318398 -33.295833 8
-71.529583 -18.007273 -33.444849 8
-75.019579 -17.721713 -33.602603 8
-78.550661 -17.427618 -33.766771 8
-82.145375 -17.083558 -33.934609 8
-85.777730 -16.744895 -34.110216 8
-89.477592 -16.357599 -34.290027 8
-93.238185 -15.939561 -34.475533 8
-97.041197 -15.527863 -34.669475 8
-100.901010 -15.099257 -34.870479 8
-104.950797 -14.429153 -35.064036 8
149.632248 0.234687 -29.997292 6
146.017879 -1.640006 -29.944662 6
142.606816 -2.926722 -29.852815 6
139.310002 -3.911761 -29.743661 6
136.096454 -4.684613 -29.623811 6
132.922166 -5.408761 -29.506206 6
129.798061 -6.023588 -29.385641 6
126.714496 -6.556851 -29.264147 6
123.660224 -7.050278 -29.145002 6
120.627687 -7.534784 -29.030667 6
117.625338 -7.957432 -28.916559 6
114.241187 -10.778741 -29.012516 5
109.973551 -19.644791 -29.634754 5
106.768072 -22.512385 -29.752318 5
103.870990 -23.591623 -29.721920 5
101.134193 -23.630674 -29.606309 5
98.393057 -23.765155 -29.503542 5
95.663777 -23.866387 -29.402377 5
92.935463 -24.030016 -29.311186 5
90.226526 -24.063922 -29.212965 5
87.515369 -24.186824 -29.127012 5
84.812581 -24.276872 -29.042501 5
82.113039 -24.395420 -28.964870 5
79.418529 -24.513982 -28.891557 5
76.731770 -24.555082 -28.815543 5
74.045877 -24.651183 -28.748731 5
71.364017 -24.709143 -28.682690 5
68.683998 -24.779141 -28.621940 5
66.005809 -24.824429 -28.563119 5
60.601316 -21.787606 -28.171407 9
58.152762 -31.942626 -29.052552 9
55.611800 -33.985124 -29.195135 9
53.109794 -36.068054 -29.346065 9
50.639972 -38.052572 -29.492457 9
48.187636 -39.758708 -29.617559 9
45.747472 -41.228324 -29.725068 9
43.283504 -42.114434 -29.782723 9
40.796146 -42.607403 -29.807966 9
38.261051 -42.584087 -29.789275 9
35.729830 -42.643336 -29.782110 9
33.185054 -42.625790 -29.771702 9
30.640549 -42.657325 -29.769739 9
28.088647 -42.676685 -29.770551 9
25.523667 -42.651625 -29.771158 9
22.955949 -42.657646 -29.778584 9
20.376727 -42.640730 -29.787837 9
17.790444 -42.631989 -29.801823 9
15.192967 -42.610982 -29.818671 9
12.586823 -42.594680 -29.839978 9
9.977522 -42.611100 -29.868361 9
7.346900 -42.575444 -29.896009 9
4.713047 -42.575530 -29.931066 9
2.058985 -42.538257 -29.966824 9
-0.602380 -42.521962 -30.008693 9
-3.290472 -42.451585 -30.049820 9
-5.965913 -42.481063 -30.104359 9
-8.683756 -42.405176 -30.153559 9
-11.410846 -42.351128 -30.209116 9
-14.141416 -42.337805 -30.272776 9
-16.902330 -42.276829 -30.336559 9
-19.670998 -42.244913 -30.407478 9
-22.456436 -42.214086 -30.483048 9
-25.264339 -42.169516 -30.561995 9
-28.162555 -41.922507 -30.627542 9
-31.030940 -41.822418 -30.711040 9
-33.891514 -41.799834 -30.806257 9
-36.797951 -41.711076 -30.900503 9
-39.678332 -41.744527 -31.010467 9
-42.814114 -41.202583 -31.075123 9
-46.352493 -39.781777 -31.068934 9
-50.735883 -36.525271 -30.910501 9
-55.466490 -32.703240 -30.711859 9
-64.051098 -20.624677 -29.816751 8
-65.795005 -23.919796 -30.245911 8
-69.232241 -23.558514 -30.368796 8
-72.688056 -23.235419 -30.501270 8
-76.185696 -22.903458 -30.639479 8
-79.728988 -22.557917 -30.783187 8
-83.327987 -22.182704 -30.931239 8
-86.939284 -21.863040 -31.090776 8
-90.575883 -21.573716 -31.259805 8
-94.222295 -21.342573 -31.440648 8
-97.963004 -21.020581 -31.621527 8
-101.705287 -20.774165 -31.815876 8
-105.697020 -20.186539 -31.991299 8
149.736406 -11.458009 -27.714056 6
146.604294 -11.857974 -27.558760 6
143.531359 -12.123327 -27.396846 6
140.446013 -12.514126 -27.251862 6
137.386816 -12.886822 -27.110678 6
134.380789 -13.122104 -26.962078 6
131.369550 -13.456505 -26.827889 6
128.393759 -13.713162 -26.691548 6
125.439028 -13.947463 -26.558104 6
122.504829 -14.155659 -26.427097 6
119.583508 -14.371427 -26.301648 6
116.889501 -13.381261 -26.064978 6
113.186130 -18.366550 -26.409498 5
109.460784 -24.165866 -26.842097 5
106.393873 -26.325403 -26.929081 5
103.577424 -27.025805 -26.879173 5
100.856156 -27.141651 -26.776499 5
98.145609 -27.237729 -26.676091 5
95.440877 -27.349289 -26.581385 5
92.744049 -27.454799 -26.490219 5
90.053699 -27.562778 -26.403404 5
87.371680 -27.644864 -26.318068 5
84.691478 -27.776249 -26.241715 5
82.023791 -27.796262 -26.158160 5
79.354582 -27.907509 -26.087770 5
76.689902 -28.016120 -26.021080 5
74.030437 -28.083623 -25.954152 5
71.374138 -28.127960 -25.888764 5
68.719392 -28.186626 -25.828712 5
66.066129 -28.264613 -25.774502 5
60.620410 -19.375772 -24.747774 9
58.263095 -34.403121 -26.243074 9
55.734469 -36.343288 -26.397322 9
53.238812 -38.230892 -26.550454 9
50.770250 -39.992816 -26.694801 9
48.334127 -41.775983 -26.845453 9
45.904331 -43.221250 -26.965105 9
43.450664 -44.086686 -27.028469 9
40.971593 -44.540993 -27.052865 9
38.455758 -44.593511 -27.039142 9
35.932775 -44.616894 -27.025980 9
33.398653 -44.589026 -27.011079 9
30.864287 -44.607736 -27.004627 9
28.320173 -44.599312 -26.998965 9
25.773507 -44.619846 -26.999945 9
23.218694 -44.632161 -27.003711 9
20.645684 -44.581504 -27.004580 9
18.079151 -44.617754 -27.018172 9
15.490556 -44.579897 -27.027749 9
12.909064 -44.627169 -27.049899 9
10.307854 -44.622204 -27.070357 9
7.686018 -44.570299 -27.089714 9
5.068670 -44.588998 -27.120195 9
2.423306 -44.536301 -27.147104 9
-0.221693 -44.536389 -27.183341 9
-2.888468 -44.500196 -27.219721 9
-5.558092 -44.503794 -27.264139 9
-8.251782 -44.469341 -27.308604 9
-10.965028 -44.418332 -27.355383 9
-13.696138 -44.360052 -27.405483 9
-16.428096 -44.351678 -27.464800 9
-19.185938 -44.312670 -27.525131 9
-21.969473 -44.248385 -27.587095 9
-24.758708 -44.221185 -27.657092 9
-27.555067 -44.225566 -27.734588 9
-30.398054 -44.152432 -27.808611 9
-33.254546 -44.098349 -27.889000 9
-36.127526 -44.055841 -27.975052 9
-39.036642 -43.976412 -28.061981 9
-42.110216 -43.551254 -28.119194 9
-45.445512 -42.578339 -28.127172 9
-49.511700 -40.015434 -27.983916 9
-54.082244 -36.498507 -27.754069 9
-58.765511 -32.964910 -27.530753 9
-64.130639 -28.198231 -27.195977 8
-67.396664 -28.116532 -27.324493 8
-72.841498 -23.643645 -27.035910 8
-74.051517 -27.892442 -27.592478 8
-77.463807 -27.711045 -27.728514 8
-80.895105 -27.561865 -27.873592 8
-84.376915 -27.386147 -28.022255 8
-87.942363 -27.127458 -28.169410 8
-91.530912 -26.901126 -28.326045 8
-95.175997 -26.649014 -28.486889 8
-101.459538 -21.978229 -28.250617 8
-102.442766 -26.404281 -28.852567 8
-106.431189 -25.806869 -29.002930 8
-119.358186 -11.024675 -27.895632 7
-123.591137 -10.519465 -28.080963 7
-127.880545 -10.019524 -28.275155 7
-132.276468 -9.452096 -28.472100 7
-136.792699 -8.803706 -28.671043 7
-141.405023 -8.116925 -28.876062 7
-146.130961 -7.372228 -29.085881 7
148.508490 -16.829841 -24.843700 6
145.476221 -17.033699 -24.684715 6
142.456696 -17.261219 -24.533148 6
139.459779 -17.474398 -24.385035 6
136.489167 -17.653922 -24.238269 6
133.481391 -18.059988 -24.119918 6
130.355938 -19.073846 -24.070339 6
127.248160 -20.154228 -24.033268 6
124.293884 -20.652771 -23.939913 6
121.437175 -20.761261 -23.809752 6
118.583017 -20.921037 -23.689409 6
116.168106 -18.680755 -23.315266 5
112.507949 -23.647204 -23.721559 5
109.047916 -28.018122 -24.071749 5
106.092814 -29.613853 -24.127535 5
103.321513 -30.159486 -24.073786 5
100.627417 -30.239629 -23.973268 5
97.938159 -30.343580 -23.879238 5
95.260818 -30.408436 -23.784744 5
92.589585 -30.476149 -23.694357 5
89.924918 -30.537156 -23.606987 5
87.266851 -30.582651 -23.521617 5
84.610312 -30.671231 -23.444754 5
81.959955 -30.739359 -23.369293 5
79.314844 -30.784563 -23.294914 5
76.672486 -30.839409 -23.225243 5
74.031470 -30.941644 -23.164531 5
71.395541 -30.966111 -23.098633 5
68.761178 -30.975025 -23.034531 5
66.127527 -30.953041 -22.970455 5
60.614650 -15.301803 -21.073329 9
58.363484 -36.499066 -23.440177 9
55.841884 -38.280693 -23.597367 9
53.352573 -40.060342 -23.758323 9
50.893058 -41.800524 -23.918674 9
48.462275 -43.508712 -24.079193 9
46.035437 -44.864621 -24.202986 9
43.588454 -45.705357 -24.271132 9
40.765415 -42.352709 -23.859894 9
38.615993 -46.264529 -24.288500 9
36.103467 -46.300386 -24.274106 9
33.586133 -46.335022 -24.262886 9
31.056077 -46.311993 -24.248334 9
28.518315 -46.282062 -24.236313 9
25.979994 -46.297026 -24.232815 9
23.434779 -46.312242 -24.232700 9
20.877690 -46.301282 -24.232931 9
18.322768 -46.348895 -24.243308 9
15.747031 -46.327858 -24.249161 9
13.163492 -46.315787 -24.259472 9
10.576256 -46.333321 -24.276641 9
7.966130 -46.291690 -24.290453 9
5.354950 -46.295611 -24.313008 9
2.718485 -46.240861 -24.332328 9
0.084669 -46.248088 -24.362328 9
-2.560020 -46.260339 -24.396478 9
-5.236018 -46.203738 -24.426334 9
-7.912725 -46.196529 -24.465505 9
-10.593906 -46.222562 -24.512155 9
-13.314074 -46.166185 -24.553100 9
-16.030670 -46.173636 -24.605095 9
-18.776660 -46.138633 -24.656052 9
-21.550559 -46.071535 -24.707220 9
-24.328422 -46.046668 -24.767091 9
-27.137957 -45.984107 -24.826648 9
-29.950112 -45.968356 -24.895504 9
-32.791389 -45.926926 -24.965520 9
-35.656172 -45.878263 -25.038846 9
-38.538602 -45.839471 -25.117462 9
-41.510750 -45.635837 -25.181937 9
-44.799095 -44.744788 -25.174418 9
-48.576783 -42.821818 -25.057572 9
-53.003517 -39.588905 -24.802011 9
-57.595465 -36.210268 -24.537565 9
-63.460003 -30.329544 -24.006435 8
-66.274460 -31.163349 -24.218167 8
-69.566082 -31.042509 -24.330380 8
-72.889913 -30.921844 -24.447809 8
-76.227500 -30.839210 -24.574632 8
-79.578775 -30.794123 -24.710845 8
-82.990427 -30.699353 -24.847189 8
-86.426101 -30.626201 -24.991423 8
-89.941567 -30.476309 -25.133245 8
-93.490336 -30.337448 -25.282124 8
-97.098033 -30.167503 -25.433776 8
-100.764281 -29.971233 -25.588889 8
-104.459074 -29.801298 -25.753085 8
-108.870922 -28.561793 -25.814276 8
-120.086134 -16.830315 -24.816986 7
-124.161989 -16.553329 -24.999499 7
-128.302790 -16.261299 -25.187940 7
-132.478954 -16.001023 -25.387186 7
-136.772042 -15.656002 -25.585872 7
-141.141283 -15.291289 -25.790774 7
-145.576522 -14.924768 -26.003898 7
150.097629 -22.591389 -22.305655 6
147.099670 -22.788518 -22.155486 6
144.135887 -22.932872 -22.003930 6
141.185094 -23.094680 -21.858857 6
138.247657 -23.272117 -21.720018 6
135.356726 -23.331230 -21.571902 6
132.452170 -23.506436 -21.441454 6
129.579511 -23.611213 -21.307059 6
126.721052 -23.714133 -21.176578 6
123.875869 -23.816568 -21.050115 6
121.043119 -23.919810 -20.927771 6
118.200194 -24.140980 -20.823372 6
115.661790 -22.733693 -20.529326 5
112.094063 -27.318235 -20.953091 5
108.799442 -30.804366 -21.252920 5
105.894152 -32.188591 -21.306619 5
103.151120 -32.653127 -21.254089 5
100.476290 -32.711887 -21.156360 5
97.809552 -32.763660 -21.061325 5
95.145755 -32.848977 -20.973880 5
92.492784 -32.894034 -20.885020 5
89.846098 -32.930711 -20.798577 5
87.205040 -32.958194 -20.714417 5
84.563294 -33.054770 -20.642138 5
81.929145 -33.110642 -20.568238 5
79.298914 -33.164924 -20.497494 5
76.673840 -33.176173 -20.424749 5
74.048865 -33.246882 -20.362675 5
71.426877 -33.306109 -20.302475 5
68.806532 -33.394744 -20.249220 5
66.188529 -33.430645 -20.192661 5
60.616411 -11.599148 -17.345716 9
58.455060 -38.267599 -20.635655 9
55.785018 -35.491878 -20.239635 9
53.453548 -41.609329 -20.964490 9
51.000045 -43.320063 -21.139403 9
48.576280 -45.021981 -21.316781 9
45.858842 -42.308317 -20.940369 9
43.716106 -47.202167 -21.527436 9
41.262126 -47.754982 -21.569759 9
38.759533 -47.771308 -21.547333 9
36.245852 -47.729588 -21.520588 9
33.737335 -47.780930 -21.508661 9
31.219197 -47.795758 -21.495152 9
28.695490 -47.813598 -21.485075 9
26.160716 -47.800601 -21.474147 9
23.625872 -47.833661 -21.472129 9
21.080316 -47.845340 -21.470482 9
18.524424 -47.843903 -21.470265 9
15.948395 -47.782602 -21.465565 9
13.379582 -47.809104 -21.475133 9
10.794319 -47.801036 -21.483461 9
8.206211 -47.827045 -21.499276 9
5.593237 -47.789548 -21.510231 9
