ply
format ascii 1.0
element vertex 1352
property float x
property float y
property float z
property int scalar_Label
end_header
-17.192174 144.207178 122.430855 3
-11.766767 144.169438 121.746674 3
-6.256459 144.189669 121.061694 3
-34.771505 136.739688 126.610384 0
-34.856713 139.786493 127.005948 0
-34.896878 142.764976 127.389574 0
-34.957129 145.718343 127.774365 0
-30.285143 145.782919 127.238276 0
-25.314746 145.760419 126.658284 0
-20.151438 145.722273 126.055973 0
-12.181666 144.201656 124.938435 3
-6.654202 144.196258 124.302688 3
-35.243109 136.910422 129.631364 0
-35.264896 139.903457 129.993684 0
-35.338719 142.891286 130.363282 0
-35.366010 145.812249 130.722024 0
-30.784323 145.916300 130.245223 0
-25.750725 145.840007 129.700353 0
-20.650436 145.822367 129.157991 0
-15.308391 145.765983 128.587621 0
-9.829100 145.736621 128.008606 0
-35.623666 137.022236 132.615350 0
-35.683021 140.027790 132.963908 0
-35.699929 142.967776 133.303313 0
-35.747489 145.890271 133.646226 0
-31.140696 145.964616 133.207060 0
-26.221187 145.941145 132.728672 0
-21.106663 145.899049 132.231869 0
-15.828181 145.862286 131.722603 0
-10.393485 145.840253 131.202872 0
-4.715547 145.790686 130.659459 0
-36.031572 137.152919 135.585814 0
-36.094408 140.148714 135.914356 0
-36.112742 143.077750 136.234491 0
-36.152785 145.983970 136.556822 0
-31.512586 146.023276 136.154673 0
-26.669840 146.030550 135.734073 0
-21.630327 146.015969 135.296796 0
-16.374099 145.974728 134.840719 0
-10.959603 145.946313 134.375492 0
-5.299646 145.888370 133.888981 0
-36.462516 137.299644 138.541799 0
-36.515484 140.276783 138.848468 0
-36.528085 143.190248 139.148450 0
-36.532069 146.062518 139.446515 0
-31.813783 146.040055 139.076025 0
-28.699853 147.058239 138.942749 0
-22.102438 146.104257 138.334451 0
-16.908573 146.082019 137.936616 0
-11.548471 146.066404 137.530088 0
-5.648443 145.860036 137.065305 0
-36.841635 137.413002 141.473149 0
-36.908658 140.387678 141.761645 0
-36.947746 143.306367 142.046082 0
-36.889820 146.128592 142.317662 0
-32.097426 146.046972 141.981466 0
-27.417539 146.123810 141.671966 0
-22.398305 146.091348 141.331939 0
-17.339360 146.131698 141.000058 0
-12.122578 146.179701 140.661984 0
-6.050455 145.861609 140.233388 0
-37.264085 137.555729 144.394138 0
-37.298837 140.497424 144.658717 0
-37.334974 143.402791 144.923631 0
-37.253340 146.199039 145.175030 0
-32.432827 146.086034 144.880421 0
-27.803332 146.178888 144.619774 0
-24.163478 146.933431 144.482607 0
-17.581139 146.074939 144.026294 0
-14.366880 147.223126 143.958620 0
-9.002124 147.250449 143.664614 0
-37.654348 137.677929 147.295709 0
-37.712433 140.623087 147.543334 0
-37.729532 143.504636 147.787277 0
-37.583315 146.249418 148.015051 0
-32.678507 146.071303 147.757123 0
-28.092252 146.177185 147.543471 0
-23.131546 146.150236 147.303776 0
-18.066465 146.157557 147.066118 0
-12.824101 146.161418 146.823829 0
-6.836859 145.858288 146.522829 0
-38.081693 137.825360 150.186361 0
-38.108713 140.738263 150.411528 0
-38.141600 143.618344 150.638383 0
-37.941755 146.318172 150.845364 0
-32.992451 146.098700 150.629908 0
-28.313661 146.135926 150.450145 0
-23.384025 146.114379 150.259871 0
-18.441881 146.178524 150.080519 0
-13.250115 146.195532 149.892086 0
-7.230014 145.858032 149.646952 0
-38.495509 137.964523 153.061282 0
-38.502840 140.852725 153.265910 0
-38.521407 143.712274 153.473078 0
-38.276747 146.373009 153.661548 0
-33.301724 146.123887 153.491266 0
-28.579318 146.121578 153.351557 0
-23.700882 146.116685 153.211424 0
-18.868517 146.229549 153.086276 0
-13.617252 146.197667 152.942488 0
-7.604087 145.848232 152.757029 0
-38.881852 138.086108 155.920798 0
-38.886586 140.961086 156.106735 0
-38.924423 143.821622 156.296955 0
-38.603452 146.423286 156.466197 0
-33.341411 145.985165 156.325316 0
-28.908881 146.145942 156.247937 0
-24.049158 146.137999 156.154659 0
-20.535531 146.990881 156.154166 0
-13.942006 146.176850 155.979017 0
-7.958782 145.828623 155.854535 0
-39.239380 138.189139 158.766646 0
-39.297727 141.087862 158.937113 0
-39.322077 143.928197 159.108313 0
-38.938518 146.479336 159.261181 0
-33.627277 145.996989 159.169221 0
-29.189986 146.141922 159.131963 0
-25.018482 146.523500 159.117774 0
-21.233831 147.200172 159.131898 0
-14.312608 146.182363 159.008175 0
-8.345630 145.827343 158.943340 0
-39.663721 138.337076 161.604527 0
-39.691913 141.204194 161.754901 0
-39.709107 144.028597 161.907852 0
-39.284569 146.542779 162.046961 0
-33.870115 145.982966 162.003289 0
-29.446076 146.123401 162.007080 0
-25.594939 146.680307 162.041277 0
-21.609693 147.225696 162.079918 0
-14.574743 146.127670 162.023679 0
-8.740161 145.830992 162.022167 0
-40.069234 138.473048 164.430163 0
-40.086251 141.321166 164.561915 0
-40.100642 144.132423 164.697067 0
-39.578387 146.574064 164.822206 0
-34.150167 145.992104 164.831848 0
-29.730694 146.122384 164.876230 0
-25.979179 146.725208 164.945614 0
-21.608421 147.035186 165.010070 0
-14.945198 146.134294 165.035066 0
-9.107176 145.820184 165.090746 0
-40.450711 138.593517 167.244927 0
-40.454762 141.421793 167.358494 0
-40.474380 144.225392 167.476182 0
-39.855733 146.595431 167.590070 0
-34.427731 146.000101 167.653688 0
-30.038744 146.135836 167.738953 0
-26.402842 146.793849 167.841245 0
-22.272328 147.227285 167.947423 0
-15.232476 146.094663 168.037252 0
-9.475119 145.810459 168.151099 0
-40.823148 138.708399 170.050469 0
-40.838798 141.532997 170.146339 0
-40.852276 144.321481 170.246561 0
-40.164230 146.636660 170.351823 0
-34.704987 146.008251 170.469591 0
-30.308793 146.126839 170.595172 0
-26.798837 146.846792 170.727535 0
-22.524476 147.183163 170.870724 0
-15.591907 146.096088 171.033539 0
-9.833101 145.795761 171.203986 0
-41.224161 138.842739 172.847345 0
-41.241977 141.657139 172.925464 0
-41.252765 144.432472 173.008463 0
-40.471433 146.677419 173.107375 0
-34.931792 145.985692 173.280986 0
-30.613946 146.139266 173.445955 0
-27.213176 146.911047 173.605538 0
-21.185086 146.221096 173.815364 0
-15.943120 146.093324 174.023238 0
-10.245865 145.811780 174.249419 0
-41.620702 138.974490 175.635961 0
-41.624893 141.768436 175.696831 0
-41.600490 144.510054 175.763690 0
-40.749450 146.700145 175.858206 0
-35.192734 145.984328 176.088193 0
-30.913921 146.148880 176.291763 0
-27.592786 146.955290 176.476748 0
-23.118348 147.147437 176.702955 0
-16.265198 146.074473 177.008000 0
-10.609106 145.800894 177.289162 0
-41.862275 136.186517 178.385107 0
-41.997400 139.093340 178.417779 0
-42.014092 141.884204 178.460858 0
-42.007356 144.625918 178.510513 0
-40.985036 146.696408 178.606667 0
-35.430196 145.968695 178.892906 0
-31.143508 146.116271 179.136158 0
-28.008028 147.020978 179.340299 0
-21.830567 146.213069 179.678836 0
-16.604115 146.065449 179.987734 0
-10.980252 145.794749 180.323397 0
-42.302885 136.360683 181.176524 0
-42.373086 139.211816 181.193272 0
-42.380467 141.985335 181.219511 0
-42.369991 144.713722 181.252763 0
-41.194068 146.676076 181.354249 0
-35.701830 145.974267 181.693634 0
-31.460942 146.136854 181.974043 0
-28.378916 147.060817 182.199840 0
-23.964726 147.259027 182.505877 0
-16.921723 146.044609 182.964610 0
-11.353236 145.789945 183.352897 0
-42.749809 136.539501 183.959973 0
-42.768983 139.344095 183.961744 0
-42.763025 142.097355 183.971778 0
-42.793426 144.840909 183.985875 0
-40.032947 145.792012 184.192106 0
-35.959565 145.971389 184.492931 0
-31.730168 146.128470 184.811792 0
-28.776319 147.116654 185.053028 0
-24.125521 147.163144 185.416069 0
-17.279118 146.046555 185.936044 0
-11.742567 145.794504 186.377345 0
-43.147216 136.684785 186.740326 0
-43.121714 139.447706 186.728109 0
-43.169097 142.225079 186.717097 0
-43.128248 144.911344 186.720007 0
-40.271301 145.789259 186.954203 0
-36.224653 145.973135 187.290335 0
-31.959759 146.096157 187.651295 0
-28.292820 146.650051 187.972129 0
-24.439562 147.156199 188.315717 0
-17.602658 146.029444 188.907154 0
-12.114596 145.789680 189.399565 0
-43.548548 136.832981 189.515274 0
-43.532991 139.590772 189.485301 0
-43.503348 142.305816 189.464066 0
-43.542448 145.033116 189.443730 0
-40.572654 145.826330 189.710138 0
-36.464611 145.959366 190.089262 0
-32.234917 146.091468 190.486882 0
-29.549142 147.216077 190.748443 0
-23.542298 146.444460 191.326607 0
-17.926137 146.012396 191.876821 0
-12.460158 145.770263 192.421814 0
-43.915205 136.957632 192.289456 0
-43.913557 139.713434 192.241147 0
-43.907584 142.432754 192.201141 0
-43.885799 145.109395 192.170510 0
-40.797113 145.814828 192.472945 0
-36.745266 145.970797 192.884413 0
-32.540190 146.105080 193.319110 0
-29.835835 147.206747 193.602034 0
-23.316618 146.122117 194.296870 0
-18.270093 146.007081 194.843601 0
-12.848230 145.774665 195.438530 0
-44.313724 137.104250 195.056948 0
-44.295812 139.837379 194.993670 0
-44.289946 142.545459 194.937188 0
-44.263196 145.207773 194.891297 0
-41.072613 145.835575 195.231086 0
-37.002723 145.967819 195.682494 0
-32.809109 146.096598 196.155415 0
-30.160232 147.219856 196.451544 0
-25.706404 147.325261 196.969956 0
-18.599754 145.993631 197.811574 0
-13.207376 145.762977 198.457323 0
89.405966 -7.600670 -37.219612 5
86.306093 -9.708877 -36.728680 5
83.380871 -11.162169 -36.322362 5
80.560132 -12.240705 -35.968431 5
77.800021 -13.133859 -35.645444 5
75.076876 -13.951219 -35.341117 5
72.399744 -14.617010 -35.063117 5
69.748624 -15.236587 -34.799910 5
67.122644 -15.803331 -34.551958 5
64.711410 -14.802843 -34.475879 5
61.025469 -24.562384 -33.299553 9
58.299415 -27.148844 -32.877683 9
55.645685 -29.530421 -32.487907 9
53.059820 -31.688177 -32.131529 9
50.516663 -33.851818 -31.784800 9
48.047922 -35.573392 -31.492423 9
45.655150 -36.626697 -31.276175 9
43.304551 -37.295299 -31.106849 9
40.986313 -37.554393 -30.986344 9
38.680892 -37.631676 -30.891667 9
36.378471 -37.699593 -30.805623 9
34.079093 -37.718508 -30.732068 9
31.780551 -37.752279 -30.664691 9
29.482882 -37.803732 -30.603211 9
27.185580 -37.813171 -30.553443 9
24.888834 -37.868354 -30.506815 9
22.590782 -37.873230 -30.472676 9
20.291826 -37.884827 -30.445467 9
17.992405 -37.916606 -30.423885 9
15.689641 -37.913787 -30.413251 9
13.385684 -37.929835 -30.408384 9
11.081115 -37.970661 -30.408722 9
8.769444 -37.954654 -30.422194 9
6.451677 -37.913675 -30.445733 9
4.130444 -37.884182 -30.475827 9
1.806746 -37.875838 -30.511558 9
-0.519643 -37.885149 -30.553288 9
-2.856409 -37.851823 -30.606929 9
-5.206634 -37.764975 -30.673610 9
-7.549156 -37.780738 -30.738082 9
-9.909050 -37.723689 -30.817583 9
-12.275283 -37.674877 -30.904217 9
-14.652008 -37.611687 -31.000273 9
-17.046740 -37.497946 -31.109426 9
-19.444241 -37.421592 -31.223008 9
-21.847701 -37.363914 -31.342919 9
-24.263271 -37.295648 -31.472155 9
-26.706385 -37.150858 -31.617494 9
-29.147472 -37.068211 -31.764998 9
-31.608335 -36.952132 -31.924450 9
-35.193988 -32.415578 -32.548620 9
-36.561674 -36.747788 -32.266508 9
-39.060300 -36.638418 -32.451476 9
-41.616479 -36.374392 -32.661654 9
-44.238854 -35.943377 -32.898806 9
-47.107926 -34.762749 -33.225659 9
-52.828854 -24.511005 -34.539492 9
-53.885126 -29.505881 -34.226793 9
-57.827189 -25.507189 -34.898274 9
-62.079878 -20.878692 -35.656375 9
104.042259 -14.865907 -34.955421 5
101.123063 -15.781015 -34.555594 5
98.256319 -16.606158 -34.176748 5
95.441630 -17.329516 -33.819598 5
92.677832 -17.940792 -33.484684 5
89.938448 -18.542688 -33.161212 5
87.230173 -19.099624 -32.852525 5
84.556957 -19.583005 -32.561157 5
81.911171 -20.018904 -32.284226 5
79.280691 -20.463440 -32.016057 5
76.682342 -20.818256 -31.765972 5
74.091883 -21.212594 -31.521353 5
71.211028 -23.575466 -31.100201 5
68.700875 -23.742092 -30.896530 5
66.194444 -23.950672 -30.697552 5
64.761621 -15.790674 -31.279739 5
60.805200 -27.805896 -30.009925 9
58.152117 -29.913763 -29.665339 9
55.537325 -32.072792 -29.326448 9
52.988025 -33.991714 -29.019326 9
50.485620 -35.812315 -28.730681 9
48.037082 -37.393653 -28.472727 9
45.654538 -38.431037 -28.271978 9
43.317556 -39.019333 -28.119232 9
41.007202 -39.298469 -28.001570 9
38.711408 -39.359357 -27.910635 9
36.417897 -39.427364 -27.826511 9
34.127421 -39.448348 -27.753888 9
31.870358 -35.466585 -28.035789 9
29.545063 -35.498284 -27.976060 9
27.260052 -39.467626 -27.583921 9
24.970996 -39.491453 -27.540428 9
22.682248 -39.541491 -27.502004 9
20.391027 -39.534284 -27.475825 9
18.097766 -39.520734 -27.457507 9
15.805352 -39.562500 -27.441765 9
13.506433 -39.528621 -27.439843 9
11.208477 -39.553121 -27.440255 9
8.906226 -39.558048 -27.449701 9
6.599047 -39.546506 -27.467933 9
4.284008 -39.497839 -27.496753 9
1.968439 -39.490981 -27.529402 9
-0.350519 -39.495706 -27.568499 9
-2.677331 -39.478018 -27.617008 9
-5.560741 -35.483499 -28.017685 9
-7.339963 -39.501418 -27.731505 9
-9.685420 -39.479310 -27.803050 9
-12.044343 -39.418710 -27.885605 9
-14.409343 -39.370127 -27.974821 9
-16.785788 -39.305032 -28.073257 9
-19.165140 -39.271865 -28.176699 9
-21.563733 -39.188292 -28.292499 9
-23.970033 -39.117061 -28.415177 9
-26.382597 -39.065057 -28.544166 9
-28.809586 -38.996796 -28.682723 9
-31.267504 -38.848014 -28.836806 9
-33.721956 -38.766283 -28.993114 9
-36.183478 -38.705753 -29.155847 9
-38.678219 -38.569613 -29.334054 9
-41.157610 -38.540173 -29.510917 9
-45.133296 -33.416388 -30.177076 9
-46.567442 -37.115013 -30.020498 9
-49.637048 -35.362543 -30.389805 9
-53.071471 -32.626823 -30.866049 9
-56.590499 -29.846438 -31.360469 9
-60.438573 -26.311992 -31.943476 9
-65.721020 -18.946538 -32.923590 8
-68.699027 -18.417960 -33.241329 8
-71.751201 -17.768000 -33.582660 8
-74.847805 -17.086280 -33.938988 8
-78.035986 -16.257332 -34.322607 8
-81.261420 -15.429412 -34.718736 8
-84.605118 -14.408865 -35.148140 8
-88.037454 -13.282130 -35.602540 8
-91.666947 -11.810094 -36.108542 8
-95.515149 -9.971977 -36.670096 8
-100.166667 -6.517896 -37.427712 8
109.043574 -17.347261 -32.165395 5
105.313978 -21.051266 -31.499817 5
101.980140 -23.608334 -30.959722 5
99.275688 -23.988317 -30.636434 5
96.601643 -24.324288 -30.327147 5
93.933669 -24.709623 -30.023109 5
91.304635 -25.006111 -29.736727 5
88.714727 -25.199004 -29.468917 5
86.118458 -25.486193 -29.201884 5
83.546815 -25.725699 -28.948115 5
80.988998 -25.963834 -28.703384 5
79.332465 -21.370294 -28.879725 5
75.919402 -26.397958 -28.243816 5
73.400698 -26.625430 -28.026078 5
70.908635 -26.755388 -27.824944 5
68.426180 -26.882463 -27.632326 5
65.949354 -27.031923 -27.446080 5
65.262939 -13.235122 -28.398915 5
60.677030 -30.236316 -26.864118 9
58.057490 -32.164559 -26.561623 9
55.480816 -34.065966 -26.271049 9
52.957963 -35.806232 -26.002733 9
50.467426 -37.588501 -25.740308 9
48.039919 -38.998333 -25.515943 9
45.671700 -39.925742 -25.337499 9
43.338841 -40.560109 -25.189647 9
41.037656 -40.795358 -25.080100 9
38.746535 -40.918409 -24.986447 9
36.463005 -40.892426 -24.911347 9
34.178895 -40.929173 -24.838587 9
31.896118 -40.961345 -24.773287 9
29.614180 -40.994825 -24.714983 9
27.332477 -41.002475 -24.665705 9
25.050824 -41.031295 -24.621903 9
22.769796 -41.094297 -24.582609 9
20.483566 -41.020128 -24.560637 9
18.198541 -41.035776 -24.539002 9
15.912257 -41.059277 -24.523844 9
13.620989 -41.035639 -24.519273 9
11.330374 -41.063679 -24.517927 9
9.033816 -41.051510 -24.526673 9
6.731196 -41.013989 -24.544422 9
4.427389 -41.009779 -24.566816 9
2.122035 -41.030787 -24.594476 9
-0.194193 -40.996758 -24.633437 9
-2.512017 -40.994274 -24.677244 9
-4.837341 -40.977267 -24.729387 9
-7.169547 -40.955352 -24.789184 9
-9.509067 -40.929235 -24.856625 9
-11.852785 -40.920755 -24.930093 9
-14.211921 -40.865735 -25.014528 9
-16.571806 -40.852576 -25.103235 9
-18.941760 -40.829576 -25.200214 9
-21.336300 -40.729218 -25.310779 9
-23.747142 -40.602572 -25.431104 9
-26.157446 -40.530341 -25.554956 9
-28.570755 -40.492575 -25.683909 9
-31.009302 -40.395524 -25.825448 9
-33.450675 -40.336596 -25.971940 9
-35.908130 -40.262832 -26.127681 9
-38.380545 -40.181739 -26.292177 9
-40.888885 -40.021465 -26.471430 9
-43.425665 -39.817438 -26.662773 9
-46.165547 -38.996805 -26.914239 9
-49.160744 -37.453053 -27.236333 9
-52.414413 -35.246127 -27.625872 9
-55.855065 -32.654441 -28.060867 9
-59.427462 -29.876576 -28.525437 9
-65.730233 -19.553580 -29.665494 8
-66.506981 -25.107643 -29.427767 8
-68.718315 -26.554416 -29.556959 8
-71.591028 -26.245052 -29.852104 8
-74.498100 -25.913189 -30.159872 8
-77.473934 -25.477297 -30.488084 8
-81.842343 -21.757109 -31.135701 8
-84.942701 -21.252684 -31.496927 8
-88.126980 -20.631665 -31.881338 8
-91.319786 -20.073017 -32.272175 8
-94.630775 -19.335047 -32.693325 8
-97.973682 -18.616180 -33.125919 8
-101.435887 -17.735381 -33.588541 8
-105.068681 -16.601607 -34.091550 8
111.482291 -19.312786 -29.155820 5
107.044734 -25.298165 -28.336181 5
104.052259 -26.612168 -27.929048 5
101.415584 -26.757747 -27.630049 5
98.751946 -27.065073 -27.327128 5
96.104443 -27.379582 -27.033058 5
93.495118 -27.608800 -26.755055 5
90.896027 -27.860074 -26.484333 5
88.323639 -28.060012 -26.226514 5
85.769332 -28.239773 -25.978959 5
83.219341 -28.461703 -25.736793 5
80.702677 -28.580061 -25.510922 5
78.205375 -28.651960 -25.296769 5
75.707693 -28.779931 -25.086629 5
73.215082 -28.937930 -24.882435 5
70.733331 -29.091484 -24.686644 5
68.264295 -29.224085 -24.500342 5
65.803233 -29.362725 -24.321510 5
65.272734 -14.530940 -25.196655 5
60.613901 -32.093699 -23.817254 9
58.006723 -33.990031 -23.542282 9
55.460389 -35.676189 -23.291080 9
52.940245 -37.462355 -23.042126 9
50.475052 -39.026213 -22.817045 9
48.059722 -40.346914 -22.616745 9
45.696762 -41.272789 -22.450820 9
43.375541 -41.791418 -22.319488 9
41.079058 -42.021517 -22.214412 9
38.795624 -42.055987 -22.129171 9
36.513858 -42.103118 -22.050010 9
34.234347 -42.128499 -21.979145 9
31.955812 -42.167613 -21.914254 9
29.678248 -42.199068 -21.856703 9
27.400947 -42.210131 -21.807291 9
25.123166 -42.210811 -21.765357 9
22.845207 -42.235425 -21.728707 9
20.566077 -42.249599 -21.699532 9
18.285724 -42.266478 -21.676994 9
16.002530 -42.262304 -21.662605 9
13.718144 -42.277360 -21.653813 9
11.428014 -42.248006 -21.654664 9
9.133642 -42.211623 -21.662802 9
6.841300 -42.242358 -21.673538 9
4.545012 -42.266895 -21.691538 9
2.239060 -42.238680 -21.719789 9
-0.073560 -42.198113 -21.755756 9
-2.383934 -42.219742 -21.794705 9
-4.711949 -42.150632 -21.846449 9
-7.036343 -42.154158 -21.900559 9
-9.371606 -42.127965 -21.963641 9
-11.713914 -42.102430 -22.033786 9
-14.065644 -42.066321 -22.111772 9
-16.421374 -42.052684 -22.195492 9
-18.804974 -41.938226 -22.293100 9
-21.170274 -41.964484 -22.388756 9
-23.559637 -41.917145 -22.496647 9
-25.965228 -41.842593 -22.613815 9
-28.381584 -41.769516 -22.738426 9
-30.792078 -41.767971 -22.865776 9
-33.235926 -41.676603 -23.006912 9
-35.684757 -41.615159 -23.153769 9
-38.144073 -41.562019 -23.307890 9
-40.619479 -41.498229 -23.470683 9
-43.143689 -41.314704 -23.650027 9
-45.857562 -40.559104 -23.878786 9
-48.734650 -39.372876 -24.148058 9
-51.958403 -37.229465 -24.497643 9
-55.276048 -34.978638 -24.867024 9
-58.706082 -32.578759 -25.259918 9
-65.948798 -19.563952 -26.471175 8
-66.452657 -25.881613 -26.230575 8
-67.530561 -30.361182 -26.130559 8
-70.326932 -30.172232 -26.398669 8
-73.220592 -29.794719 -26.691653 8
-76.124524 -29.459838 -26.991603 8
-79.057671 -29.120589 -27.302422 8
-82.034862 -28.744357 -27.627025 8
-85.038020 -28.376998 -27.961889 8
-88.014862 -28.136255 -28.297155 8
-91.112307 -27.695163 -28.660872 8
-94.241446 -27.258571 -29.036035 8
-97.374121 -26.886489 -29.417524 8
-100.614068 -26.366048 -29.824602 8
-104.232682 -25.171349 -30.306491 8
136.721763 -4.475657 -29.656900 6
132.604302 -7.625612 -29.005742 6
129.067085 -9.369250 -28.486614 6
125.728143 -10.691852 -28.015682 6
122.496891 -11.824352 -27.573049 6
119.388785 -12.698139 -27.162966 6
115.464118 -16.296801 -26.559588 5
110.140589 -24.816864 -25.609333 5
106.456146 -28.357018 -25.051208 5
103.624141 -29.173573 -24.705633 5
101.003076 -29.322456 -24.417804 5
98.371080 -29.571583 -24.131847 5
95.789986 -29.685802 -23.864127 5
93.203622 -29.877881 -23.599685 5
90.632322 -30.068176 -23.343960 5
88.067060 -30.294547 -23.094335 5
85.538641 -30.415597 -22.860011 5
83.021838 -30.537492 -22.633786 5
80.500094 -30.742853 -22.410319 5
78.028901 -30.742735 -22.207847 5
75.546948 -30.849719 -22.006436 5
73.072601 -30.969061 -21.812052 5
70.607624 -31.088905 -21.625362 5
68.157681 -31.168021 -21.448763 5
65.703287 -31.335791 -21.274437 5
65.251985 -16.048889 -22.014644 5
60.572842 -33.746082 -20.827875 9
58.003921 -35.360066 -20.593961 9
55.473935 -36.930979 -20.371332 9
52.969440 -38.586874 -20.152507 9
50.510595 -40.106574 -19.949839 9
48.101527 -41.376119 -19.769316 9
45.735370 -42.387663 -19.610906 9
43.417380 -42.907930 -19.486974 9
41.130448 -43.005391 -19.393152 9
38.847530 -43.090423 -19.306730 9
36.568735 -43.132571 -19.229308 9
34.292375 -43.139057 -19.160438 9
32.016495 -43.176568 -19.096518 9
29.741559 -43.179523 -19.041037 9
27.466772 -43.204043 -18.990994 9
25.192284 -43.246407 -18.946587 9
22.916418 -43.242048 -18.911213 9
20.639994 -43.258092 -18.881330 9
18.364106 -43.314106 -18.855917 9
16.082806 -43.289661 -18.841287 9
13.799088 -43.271306 -18.832908 9
11.514285 -43.279943 -18.829697 9
9.228233 -43.309179 -18.832002 9
6.933784 -43.279607 -18.843990 9
4.640664 -43.306765 -18.859635 9
2.337873 -43.280764 -18.884710 9
0.027387 -43.233625 -18.917573 9
-2.283130 -43.232099 -18.954740 9
-4.597619 -43.241491 -18.998055 9
-6.925933 -43.196025 -19.051040 9
-9.253660 -43.199422 -19.108232 9
-11.586049 -43.214500 -19.171629 9
-13.938780 -43.152951 -19.246025 9
-16.289736 -43.147560 -19.324331 9
-18.658040 -43.094597 -19.412207 9
-21.030897 -43.065145 -19.505849 9
-23.418409 -43.011083 -19.607952 9
-25.802415 -43.018489 -19.713806 9
-28.200765 -43.005430 -19.828001 9
-30.635918 -42.884103 -19.955612 9
-33.055374 -42.875883 -20.084203 9
-35.493268 -42.840386 -20.221783 9
-37.949343 -42.783252 -20.368149 9
-40.430378 -42.684538 -20.524598 9
-42.947979 -42.510596 -20.693304 9
-45.635161 -41.831601 -20.900429 9
-50.014185 -35.835357 -21.440629 9
-51.604836 -38.886359 -21.439165 9
-54.888314 -36.717867 -21.767424 9
-58.238630 -34.528832 -22.108698 9
-61.698219 -32.203894 -22.470762 9
-66.290485 -26.947430 -23.035967 8
-66.701515 -33.191734 -22.861792 8
-69.469418 -33.024193 -23.113492 8
-72.263672 -32.846564 -23.375260 8
-75.122160 -32.568101 -23.653526 8
-77.970991 -32.375459 -23.935737 8
-80.857098 -32.154199 -24.229912 8
-83.790838 -31.884559 -24.537750 8
-86.784084 -31.545409 -24.861154 8
-89.851825 -31.110992 -25.202491 8
-92.858893 -30.876295 -25.540031 8
-95.942380 -30.545517 -25.895989 8
-99.087253 -30.157440 -26.267933 8
-102.257646 -29.788684 -26.650245 8
-111.640956 -17.483940 -28.010667 8
-120.720704 -6.348481 -29.321527 7
149.505660 -11.163135 -27.838384 6
145.977345 -12.381747 -27.316733 6
142.571068 -13.419690 -26.823370 6
139.274736 -14.290341 -26.356180 6
136.025497 -15.140559 -25.903489 6
132.874013 -15.831091 -25.474853 6
129.779253 -16.458460 -25.062619 6
126.711451 -17.098904 -24.661072 6
123.723850 -17.596478 -24.280534 6
120.838615 -17.869321 -23.925667 6
118.027345 -17.981864 -23.591284 6
114.103055 -21.705406 -23.036366 5
109.415848 -28.242469 -22.322930 5
106.124537 -30.514594 -21.894976 5
103.370602 -31.097578 -21.582479 5
100.746261 -31.296369 -21.302370 5
98.155001 -31.431819 -21.034598 5
95.581599 -31.554445 -20.775954 5
93.005678 -31.744098 -20.521779 5
90.459583 -31.868871 -20.279480 5
87.933407 -31.962224 -20.046946 5
85.405817 -32.116881 -19.819006 5
82.896511 -32.243175 -19.600474 5
80.401788 -32.353399 -19.390546 5
77.918443 -32.459781 -19.188470 5
75.441992 -32.584452 -18.993032 5
72.985420 -32.650187 -18.808056 5
70.547324 -32.652443 -18.633573 5
68.100062 -32.762425 -18.461051 5
65.668469 -32.820241 -18.298322 5
65.246320 -17.434148 -18.876371 5
60.581457 -34.967480 -17.898923 9
58.010260 -36.631946 -17.684046 9
55.495949 -38.087330 -17.487349 9
53.008055 -39.595050 -17.296483 9
50.553928 -41.078590 -17.114804 9
48.148006 -42.327129 -16.951509 9
45.790439 -43.230456 -16.811025 9
43.474896 -43.722271 -16.695731 9
41.182603 -43.953737 -16.598537 9
38.903609 -43.988623 -16.516380 9
36.627309 -44.000022 -16.441645 9
34.351773 -44.036818 -16.372215 9
32.078369 -43.986009 -16.312863 9
29.804300 -44.024353 -16.256092 9
27.530702 -44.048394 -16.206273 9
25.255813 -44.004365 -16.165627 9
22.981407 -44.038096 -16.128067 9
20.705751 -44.054437 -16.097559 9
18.427896 -44.051431 -16.074176 9
16.149744 -44.079957 -16.055821 9
13.865077 -44.036057 -16.046782 9
11.582195 -44.064530 -16.041105 9
9.293694 -44.056698 -16.043275 9
7.003561 -44.070786 -16.050909 9
4.706783 -44.055323 -16.066144 9
2.409022 -44.072247 -16.086446 9
0.097602 -44.011965 -16.116370 9
-2.206070 -44.059254 -16.148288 9
-4.530468 -43.990562 -16.191511 9
-6.853332 -43.980489 -16.238813 9
-9.179578 -43.990028 -16.291838 9
-11.515824 -43.978785 -16.352321 9
-13.863614 -43.943715 -16.420448 9
-16.221489 -43.898557 -16.495695 9
-18.581729 -43.886381 -16.576255 9
-20.955640 -43.849688 -16.664654 9
-23.326083 -43.873464 -16.757236 9
-25.727122 -43.800389 -16.860970 9
-28.126833 -43.780515 -16.969310 9
-30.545108 -43.727953 -17.086143 9
-32.961663 -43.728166 -17.207670 9
-35.396521 -43.701191 -17.337587 9
-37.842694 -43.677254 -17.474593 9
-40.313619 -43.610409 -17.620944 9
-42.811372 -43.499667 -17.776847 9
-45.465487 -42.924508 -17.962956 9
-48.267376 -41.958786 -18.176659 9
-51.375599 -40.151548 -18.441500 9
-54.604926 -38.136452 -18.727324 9
-57.912869 -36.058045 -19.027424 9
-61.310929 -33.892134 -19.343520 9
-66.265999 -27.630604 -19.889344 8
-66.626534 -34.000316 -19.771671 8
-68.853579 -35.236002 -19.933514 8
-71.621129 -35.090585 -20.178959 8
-74.401088 -34.970114 -20.432085 8
-77.236603 -34.771143 -20.698954 8
-80.064289 -34.649066 -20.970822 8
-82.964356 -34.417506 -21.258785 8
-85.875361 -34.222441 -21.554467 8
-88.838071 -33.974727 -21.863478 8
-91.800968 -33.788710 -22.178950 8
-94.869518 -33.444136 -22.515092 8
-97.907731 -33.227935 -22.853815 8
-101.008165 -32.950785 -23.207568 8
-114.254145 -13.187236 -24.907481 8
-116.890132 -14.343864 -25.210903 7
-118.104632 -18.128218 -25.335503 7
-121.675770 -17.556646 -25.778066 7
-126.902770 -14.143842 -26.445599 7
-130.842938 -13.157154 -26.952171 7
-134.940336 -12.005313 -27.487562 7
-139.241339 -10.624201 -28.058090 7
-143.920471 -8.747187 -28.686941 7
-149.347265 -5.819410 -29.423053 7
147.072175 -17.881788 -24.042588 6
144.063395 -18.002442 -23.628780 6
141.077917 -18.126540 -23.225523 6
138.108158 -18.271526 -22.831550 6
135.164951 -18.409186 -22.448469 6
132.254826 -18.519608 -22.077248 6
129.379408 -18.594079 -21.718108 6
126.446178 -18.887802 -21.356227 6
123.490768 -19.315289 -20.997013 6
120.547199 -19.785169 -20.645744 6
117.667573 -20.138785 -20.310839 6
113.322417 -25.225995 -19.738831 5
109.072671 -30.387368 -19.183019 5
105.931136 -32.185172 -18.814825 5
103.169723 -32.820636 -18.515453 5
100.576294 -32.937579 -18.250260 5
98.008800 -33.012445 -17.995191 5
95.433940 -33.169011 -17.744321 5
92.895608 -33.235784 -17.505504 5
90.360467 -33.341134 -17.272719 5
87.836941 -33.450496 -17.047471 5
85.352148 -33.436490 -16.835090 5
82.848760 -33.557495 -16.624410 5
80.373909 -33.591197 -16.424773 5
77.892780 -33.707821 -16.229054 5
75.427266 -33.794828 -16.041803 5
72.978351 -33.838627 -15.863411 5
70.534568 -33.900971 -15.691364 5
68.097311 -33.973090 -15.525965 5
65.668239 -34.041976 -15.367649 5
65.243194 -18.785299 -15.772998 5
60.623880 -35.895928 -15.010265 9
58.058018 -37.518219 -14.818637 9
55.540086 -39.013596 -14.639674 9
53.063086 -40.413904 -14.471938 9
50.610806 -41.875719 -14.309850 9
48.201182 -43.174613 -14.160842 9
45.855302 -43.909630 -14.037807 9
43.537551 -44.430652 -13.928571 9
41.240301 -44.765144 -13.831942 9
38.965613 -44.708157 -13.754224 9
36.690026 -44.696011 -13.681211 9
34.414092 -44.745582 -13.612397 9
32.140161 -44.749742 -13.551147 9
29.866584 -44.759016 -13.495854 9
27.593344 -44.797721 -13.445763 9
25.319597 -44.795455 -13.403031 9
23.044814 -44.788041 -13.366545 9
20.769319 -44.798498 -13.335602 9
18.492697 -44.815229 -13.310559 9
16.215558 -44.852986 -13.290976 9
13.930061 -44.787069 -13.280605 9
11.649762 -44.845449 -13.272603 9
9.363918 -44.861789 -13.271976 9
7.068549 -44.809891 -13.279524 9
4.774844 -44.822290 -13.291285 9
2.471997 -44.789056 -13.310581 9
0.166135 -44.774948 -13.335487 9
-2.143416 -44.773712 -13.366213 9
-4.460938 -44.754867 -13.403712 9
-6.777927 -44.781689 -13.446078 9
-9.113774 -44.725970 -13.497281 9
-11.453249 -44.695013 -13.554070 9
-13.792923 -44.706574 -13.615910 9
-16.152061 -44.653234 -13.686211 9
-18.508501 -44.659569 -13.761092 9
-20.883376 -44.616715 -13.844063 9
-23.257064 -44.624358 -13.931968 9
-25.645143 -44.608811 -14.027243 9
-28.048703 -44.570245 -14.129966 9
-30.453882 -44.569947 -14.238149 9
-32.861797 -44.600952 -14.352046 9
-35.313816 -44.505097 -14.477191 9
-37.752542 -44.507127 -14.605896 9
-40.207028 -44.496320 -14.742060 9
-42.722662 -44.321444 -14.891306 9
-45.356213 -43.813901 -15.060275 9
-48.171549 -42.804413 -15.256095 9
-51.210861 -41.212096 -15.483016 9
-54.392277 -39.337065 -15.730701 9
-57.700189 -37.252318 -15.997101 9
-60.988935 -35.388579 -16.265476 9
-66.243877 -28.303795 -16.760962 8
-66.575954 -34.739933 -16.705206 8
-68.376942 -37.077216 -16.823532 8
-71.151047 -36.889721 -17.057133 8
-73.918650 -36.775685 -17.296227 8
-76.685044 -36.718504 -17.541520 8
-79.518548 -36.556642 -17.800560 8
-82.367767 -36.416092 -18.067790 8
-85.246029 -36.267497 -18.344746 8
-88.176578 -36.062938 -18.634026 8
-91.098236 -35.937053 -18.929113 8
-94.060878 -35.783387 -19.235494 8
-97.091202 -35.551856 -19.556143 8
-100.167905 -35.291365 -19.888876 8
-103.309414 -34.970228 -20.235801 8
-107.751527 -32.271683 -20.730375 8
-117.950025 -19.161508 -21.854772 7
-120.175048 -21.013749 -22.126613 7
-123.612614 -20.710240 -22.537611 7
-127.156586 -20.294199 -22.968466 7
-130.715191 -19.929556 -23.409396 7
-134.351061 -19.511749 -23.867410 7
-138.081402 -19.018305 -24.344623 7
-141.846269 -18.551081 -24.834684 7
-145.646059 -18.110147 -25.337824 7
146.736295 -19.686486 -20.676241 6
143.599796 -20.131024 -20.260991 6
140.466756 -20.644643 -19.853439 6
137.414168 -21.037793 -19.463178 6
134.412831 -21.373631 -19.086406 6
131.431088 -21.729079 -18.719026 6
128.483434 -22.064289 -18.362768 6
125.551222 -22.427689 -18.015180 6
122.663204 -22.736746 -17.679814 6
119.770896 -23.128617 -17.350432 6
117.093233 -22.937212 -17.054910 6
112.963865 -27.382153 -16.579361 5
108.917363 -31.900507 -16.118831 5
105.805560 -33.612848 -15.783776 5
103.119591 -34.001809 -15.509638 5
100.532944 -34.105929 -15.254385 5
97.964355 -34.197040 -15.007412 5
95.416524 -34.261012 -14.769064 5
92.869827 -34.372279 -14.536658 5
90.341091 -34.463316 -14.312440 5
87.832050 -34.521641 -14.096663 5
85.332466 -34.587834 -13.887890 5
82.839302 -34.675332 -13.685649 5
80.350830 -34.793610 -13.489626 5
77.896777 -34.786651 -13.304327 5
75.445618 -34.808505 -13.125059 5
72.986535 -34.925501 -12.949985 5
70.552101 -34.947373 -12.784354 5
68.117630 -35.017878 -12.624136 5
65.693503 -35.069797 -12.471091 5
65.189054 -20.512210 -12.692283 5
60.676362 -36.731539 -12.146439 9
58.123107 -38.239980 -11.978783 9
55.616242 -39.617526 -11.822077 9
53.135665 -41.034862 -11.672035 9
50.676514 -42.557498 -11.527083 9
48.277595 -43.699681 -11.398038 9
45.922364 -44.544979 -11.282481 9
43.607524 -44.997095 -11.182044 9
41.314574 -45.208214 -11.093011 9
39.032295 -45.287865 -11.012809 9
36.756013 -45.258237 -10.940831 9
34.478483 -45.320095 -10.872890 9
32.203532 -45.303521 -10.812446 9
29.928529 -45.346345 -10.756699 9
27.653595 -45.317103 -10.708254 9
25.378105 -45.313267 -10.665167 9
23.103548 -45.377375 -10.626626 9
20.825847 -45.356705 -10.595583 9
18.546470 -45.342969 -10.570257 9
16.087645 -42.116264 -10.611778 9
13.774413 -42.116697 -10.597718 9
11.456856 -42.096293 -10.589999 9
9.136610 -42.086483 -10.588036 9
6.816752 -42.121603 -10.591195 9
4.489018 -42.111975 -10.601184 9
2.517000 -45.343229 -10.555588 9
0.206585 -45.303665 -10.577893 9
-2.105040 -45.299880 -10.605487 9
-4.423989 -45.283667 -10.639317 9
-6.750215 -45.260437 -10.679312 9
-9.077987 -45.270255 -10.724718 9
-11.413366 -45.273875 -10.776330 9
-13.768843 -45.204259 -10.835540 9
-16.110934 -45.253995 -10.898515 9
-18.480050 -45.202259 -10.969766 9
-20.851801 -45.183636 -11.046605 9
-23.234058 -45.159295 -11.129879 9
-25.624810 -45.140876 -11.219393 9
-28.026098 -45.120928 -11.315360 9
-30.435533 -45.111274 -11.417577 9
-32.847232 -45.135636 -11.525546 9
-35.293321 -45.070753 -11.642169 9
-37.737433 -45.060370 -11.764210 9
-40.194935 -45.046580 -11.893072 9
-42.696047 -44.928957 -12.031344 9
-45.304253 -44.511334 -12.184297 9
-48.093122 -43.590936 -12.357875 9
-51.107601 -42.078779 -12.555542 9
-54.325840 -40.096407 -12.775308 9
-57.545690 -38.272781 -13.000674 9
-60.848659 -36.367949 -13.238500 9
-66.220185 -28.977952 -13.649370 8
-66.476839 -35.604542 -13.653295 8
-68.077437 -38.452850 -13.772559 8
-70.812504 -38.350018 -13.989727 8
-73.564427 -38.259091 -14.214776 8
-76.359288 -38.118727 -14.449889 8
-79.162249 -38.015152 -14.692347 8
-81.982486 -37.926544 -14.942977 8
-84.833679 -37.823276 -15.202979 8
-87.710968 -37.718532 -15.472062 8
-90.601518 -37.641077 -15.749278 8
-93.545888 -37.507395 -16.038057 8
-96.539611 -37.331998 -16.338173 8
-99.537275 -37.208482 -16.646001 8
-102.620841 -36.978021 -16.968483 8
-106.486991 -35.343629 -17.364487 8
-118.002563 -19.809444 -18.417380 7
-119.283440 -23.359192 -18.614679 7
-122.627605 -23.193280 -18.995266 7
-126.053951 -22.951013 -19.391493 7
-129.508969 -22.729152 -19.798944 7
-133.113983 -22.328512 -20.228454 7
-136.710854 -22.017357 -20.666413 7
-140.355244 -21.704385 -21.117888 7
-144.114190 -21.287964 -21.589142 7
-147.872787 -20.950962 -22.070088 7
148.826698 -22.688806 -17.687369 6
145.740497 -23.002025 -17.288560 6
142.659553 -23.373152 -16.897993 6
139.613687 -23.732217 -16.518480 6
136.602109 -24.078168 -16.149802 6
133.644787 -24.356642 -15.793727 6
130.722627 -24.610297 -15.448275 6
127.862390 -24.762395 -15.115833 6
124.998418 -24.985367 -14.790095 6
122.168306 -25.175512 -14.474503 6
119.351633 -25.388331 -14.167059 6
117.205466 -23.615385 -13.928103 6
112.698442 -29.227791 -13.479257 5
108.855533 -33.097117 -13.098930 5
105.821504 -34.552271 -12.799313 5
103.127296 -34.971819 -12.537036 5
100.534596 -35.102250 -12.290230 5
97.983517 -35.133573 -12.053379 5
95.435561 -35.202156 -11.822945 5
92.898131 -35.280409 -11.599550 5
91.117269 -32.221194 -11.450792 5
87.863712 -35.423011 -11.174491 5
85.371511 -35.459556 -10.973182 5
82.887142 -35.508004 -10.778503 5
80.411494 -35.563232 -10.590497 5
77.938953 -35.653559 -10.408605 5
75.495153 -35.638891 -10.235213 5
73.042929 -35.718020 -10.066791 5
70.612147 -35.718254 -9.906176 5
68.179706 -35.775197 -9.751110 5
65.755888 -35.824291 -9.602577 5
65.257091 -21.293308 -9.664544 5
60.764821 -37.263796 -9.306459 9
58.209230 -38.767216 -9.158667 9
55.705843 -40.084359 -9.020779 9
53.224751 -41.472631 -8.889299 9
50.773480 -42.861128 -8.765009 9
48.363666 -44.089209 -8.649575 9
46.012324 -44.823680 -8.546278 9
43.683641 -45.445886 -8.450488 9
41.384217 -45.741146 -8.364180 9
39.105695 -45.678573 -8.287282 9
36.826715 -45.641543 -8.215802 9
34.546384 -45.693386 -8.149164 9
32.268020 -45.712431 -8.088513 9
29.990328 -45.699715 -8.033802 9
27.712734 -45.736503 -7.984306 9
25.434415 -45.720544 -7.940900 9
23.158423 -45.832679 -7.902067 9
20.879843 -45.850329 -7.869654 9
18.598391 -45.833267 -7.843146 9
16.314904 -45.821319 -7.822219 9
14.027631 -45.791036 -7.807066 9
11.742988 -45.841669 -7.796918 9
9.448538 -45.800856 -7.793129 9
7.155924 -45.826565 -7.794481 9
4.857453 -45.828723 -7.801689 9
2.553313 -45.818542 -7.814683 9
0.244900 -45.813777 -7.833343 9
-2.074285 -45.766392 -7.858076 9
-4.838319 -42.577617 -7.914179 9
-6.722421 -45.738488 -7.924315 9
-9.061505 -45.691263 -7.966426 9
-11.388810 -45.759831 -8.013397 9
-13.742676 -45.712096 -8.067250 9
-16.104047 -45.669944 -8.126991 9
-18.464451 -45.677804 -8.192241 9
-20.830697 -45.697841 -8.263371 9
-23.208548 -45.703817 -8.340674 9
-25.598721 -45.696373 -8.424207 9
-28.006891 -45.655045 -8.514255 9
-30.405442 -45.698225 -8.609598 9
-32.835588 -45.656695 -8.712141 9
-35.271039 -45.640781 -8.820734 9
-37.717739 -45.627917 -8.935690 9
-40.175841 -45.618999 -9.057061 9
-42.696838 -45.441079 -9.187237 9
-45.289801 -45.082971 -9.326726 9
-48.095819 -44.117076 -9.482158 9
-51.113969 -42.605323 -9.653805 9
-54.260759 -40.848261 -9.838119 9
-57.522468 -38.909913 -10.034751 9
-60.778776 -37.145668 -10.238231 9
-66.210300 -29.611384 -10.554585 8
-66.539528 -36.037210 -10.629982 8
-67.913729 -39.472677 -10.761163 8
-70.619801 -39.438266 -10.964573 8
-73.391569 -39.293294 -11.178114 8
-76.109786 -39.331063 -11.395779 8
-78.887361 -39.278085 -11.623451 8
-81.699837 -39.197907 -11.860005 8
-84.527541 -39.137470 -12.104506 8
-87.394117 -39.046211 -12.358346 8
-90.307219 -38.911927 -12.622104 8
-93.243772 -38.786566 -12.894641 8
-96.199831 -38.679116 -13.175845 8
-99.205943 -38.530340 -13.467617 8
-102.263747 -38.341600 -13.770248 8
-105.764279 -37.386359 -14.107644 8
-113.541227 -28.707217 -14.717193 8
-118.675666 -25.184242 -15.178744 7
-122.011530 -25.016927 -15.538309 7
-125.360387 -24.892224 -15.907538 7
-128.759264 -24.747271 -16.288962 7
-132.230070 -24.549264 -16.684261 7
-135.757774 -24.327627 -17.092712 7
-139.391737 -24.008000 -17.517957 7
-143.058518 -23.711851 -17.955284 7
-146.733368 -23.477426 -18.403122 7
148.177497 -25.146391 -14.385126 6
145.088832 -25.501226 -14.004227 6
142.100399 -25.691724 -13.638413 6
139.122717 -25.919653 -13.281196 6
136.167021 -26.158142 -12.933250 6
133.267608 -26.318414 -12.596687 6
130.396618 -26.465148 -12.269481 6
127.527550 -26.666869 -11.949852 6
124.721525 -26.756442 -11.641475 6
121.927821 -26.867148 -11.341065 6
119.140404 -27.016820 -11.048202 6
117.198615 -24.651155 -10.810087 6
112.733115 -30.116136 -10.438276 5
108.911743 -33.901318 -10.112872 5
105.847568 -35.450537 -9.836943 5
103.196552 -35.720446 -9.589799 5
100.586986 -35.908141 -9.351410 5
98.047934 -35.893746 -9.122958 5
95.505315 -35.939144 -8.900713 5
92.983914 -35.949456 -8.685783 5
90.468376 -35.982691 -8.477405 5
87.964050 -36.016202 -8.275762 5
85.474409 -36.031894 -8.080933 5
82.989023 -36.074911 -7.892446 5
80.520317 -36.084470 -7.710722 5
78.056570 -36.114836 -7.535272 5
75.595006 -36.182245 -7.365978 5
73.154028 -36.182179 -7.203388 5
70.717184 -36.202160 -7.046916 5
68.287919 -36.220276 -6.896629 5
65.864668 -36.244104 -6.752446 5
65.245720 -22.667479 -6.652987 5
60.861080 -37.727074 -6.478934 9
58.319705 -39.073935 -6.351139 9
55.805781 -40.446524 -6.230467 9
53.317074 -41.871069 -6.116799 9
50.866687 -43.205178 -6.010140 9
48.453619 -44.422379 -5.910252 9
46.091912 -45.254736 -5.816800 9
43.764516 -45.804370 -5.729329 9
41.463905 -46.054250 -5.647458 9
39.177564 -46.101489 -5.570973 9
36.894032 -46.132351 -5.499959 9
34.613048 -46.117216 -5.434327 9
32.331687 -46.177419 -5.374284 9
30.051861 -46.127375 -5.319435 9
27.771478 -46.132413 -5.270118 9
25.490578 -46.129279 -5.226187 9
23.206399 -46.038146 -5.187404 9
20.924830 -46.099819 -5.154453 9
18.636861 -46.031440 -5.126509 9
16.351677 -46.073441 -5.104307 9
14.061020 -46.055322 -5.087318 9
11.767769 -46.044353 -5.075760 9
9.477507 -46.110032 -5.069879 9
7.174728 -46.065544 -5.069057 9
4.870151 -46.050497 -5.073777 9
2.565278 -46.074493 -5.084086 9
0.255141 -46.090565 -5.099842 9
-2.063998 -46.074816 -5.120992 9
-4.386743 -46.075275 -5.147713 9
-6.714125 -46.084699 -5.180005 9
-9.054024 -46.054462 -5.217758 9
-11.393319 -46.071754 -5.261247 9
-13.736717 -46.104839 -5.310402 9
-16.102222 -46.057588 -5.365042 9
-18.470469 -46.042183 -5.425475 9
-20.845448 -46.037020 -5.491684 9
-23.223746 -46.058546 -5.563727 9
-25.619630 -46.042306 -5.641560 9
-28.021154 -46.045514 -5.725308 9
-30.440734 -46.017296 -5.814988 9
-32.870171 -45.995175 -5.910687 9
-35.303967 -46.000980 -6.012449 9
-37.765103 -45.950189 -6.120378 9
-40.220753 -45.965291 -6.234447 9
-42.718859 -45.879393 -6.354945 9
-45.355281 -45.391224 -6.482826 9
-48.167968 -44.421537 -6.619062 9
-51.174043 -42.965251 -6.764611 9
-54.328451 -41.202944 -6.919759 9
-57.588525 -39.287313 -7.084561 9
-61.539938 -35.598119 -7.268294 9
-66.255886 -30.091452 -7.475095 8
-66.532876 -36.650904 -7.615059 8
-67.848001 -40.236404 -7.775209 8
-70.558226 -40.194027 -7.967332 8
-73.278240 -40.177919 -8.166697 8
-76.044881 -40.100432 -8.374229 8
-78.816878 -40.063125 -8.589117 8
-81.630051 -39.984021 -8.812344 8
-84.437994 -39.969716 -9.042822 8
-87.304342 -39.880836 -9.282397 8
-90.175194 -39.837072 -9.529699 8
-93.086473 -39.763553 -9.785911 8
-95.995992 -39.748190 -10.049832 8
-98.953104 -39.692451 -10.323182 8
-101.954808 -39.606443 -10.606077 8
-105.341218 -38.859837 -10.911366 8
-112.413216 -31.478913 -11.367767 8
-118.284675 -26.612982 -11.795556 7
-121.624046 -26.431867 -12.134959 7
-124.961671 -26.319217 -12.483448 7
-128.370415 -26.150777 -12.844261 7
-131.800706 -26.013168 -13.215481 7
-135.267401 -25.882641 -13.597933 7
-138.800294 -25.713920 -13.993242 7
-142.405392 -25.502083 -14.402022 7
-145.967852 -25.425174 -14.818784 7
147.802116 -26.974079 -11.152662 6
144.781737 -27.192428 -10.793003 6
141.779782 -27.432552 -10.442456 6
138.866626 -27.524338 -10.103641 6
135.963515 -27.649067 -9.773146 6
133.081282 -27.779980 -9.451292 6
130.218672 -27.918973 -9.137921 6
127.386584 -28.035472 -8.833248 6
124.592712 -28.104259 -8.537304 6
121.818450 -28.172231 -8.249369 6
119.066972 -28.228067 -7.969400 6
117.196818 -25.664108 -7.715171 6
112.885090 -30.630743 -7.419036 5
109.057122 -34.411238 -7.145873 5
106.002854 -35.909971 -6.896097 5
103.283432 -36.402569 -6.659120 5
100.725511 -36.399091 -6.430935 5
98.165358 -36.451031 -6.209424 5
95.641859 -36.412525 -5.994699 5
93.097024 -36.503642 -5.786539 5
90.589337 -36.493688 -5.584897 5
88.101218 -36.444135 -5.389576 5
85.598317 -36.504008 -5.200818 5
83.107627 -36.557570 -5.018394 5
80.640747 -36.543485 -4.841966 5
78.176200 -36.561809 -4.671809 5
75.726614 -36.545283 -4.507559 5
73.280276 -36.553848 -4.349452 5
70.834945 -36.603085 -4.197585 5
68.407130 -36.589034 -4.051220 5
65.979899 -36.614824 -3.911003 5
65.236794 -24.010295 -3.671538 5
60.993888 -37.889573 -3.658816 9
58.450158 -39.202210 -3.548533 9
55.926997 -40.601219 -3.445957 9
53.432508 -42.021932 -3.350417 9
50.981153 -43.296922 -3.260033 9
48.830872 -40.979695 -3.136505 9
46.182324 -45.518123 -3.094801 9
43.854955 -45.991174 -3.013939 9
41.702730 -43.049384 -2.897426 9
39.261532 -46.203802 -2.859912 9
36.974299 -46.170417 -2.789104 9
34.686676 -46.179460 -2.724057 9
32.399362 -46.240816 -2.664918 9
30.113592 -46.231650 -2.610064 9
27.828001 -46.275203 -2.561114 9
25.542014 -46.275946 -2.516773 9
23.254416 -46.247712 -2.477205 9
20.967972 -46.300228 -2.443941 9
18.676656 -46.259711 -2.414539 9
16.385773 -46.277597 -2.391139 9
14.093263 -46.302308 -2.373016 9
11.797457 -46.313893 -2.359889 9
9.497991 -46.317135 -2.351831 9
7.195553 -46.326309 -2.349059 9
4.886007 -46.303091 -2.351029 9
2.578719 -46.343406 -2.359145 9
0.258802 -46.312487 -2.371474 9
-2.058043 -46.349455 -2.390042 9
-4.387094 -46.334158 -2.413143 9
-6.718911 -46.342566 -2.441890 9
-9.057953 -46.344980 -2.475885 9
-11.406373 -46.332162 -2.515030 9
-13.756768 -46.350525 -2.560000 9
-16.119480 -46.342512 -2.610036 9
-18.490964 -46.332171 -2.665508 9
-20.900227 -46.182024 -2.724679 9
-23.291387 -46.170499 -2.791233 9
-25.683638 -46.197101 -2.863858 9
-28.098670 -46.167404 -2.941428 9
-30.529728 -46.117475 -3.024469 9
-32.949446 -46.158229 -3.114319 9
-35.384028 -46.183011 -3.209761 9
-37.836020 -46.186119 -3.310811 9
-40.309043 -46.158952 -3.417471 9
-42.841741 -45.976113 -3.528636 9
-45.432250 -45.660896 -3.644817 9
-48.253771 -44.681806 -3.761704 9
-51.298302 -43.127780 -3.881187 9
-54.429735 -41.456820 -4.007848 9
-57.657759 -39.654110 -4.141995 9
-60.892410 -37.984554 -4.285770 9
-66.315277 -30.532179 -4.405383 8
-66.467716 -37.415990 -4.614061 8
-67.851358 -40.819957 -4.805193 8
-70.556397 -40.797638 -4.986062 8
-73.280283 -40.778760 -5.174056 8
-76.047325 -40.707254 -5.369166 8
-78.848718 -40.609025 -5.571670 8
-81.633642 -40.601837 -5.781816 8
-84.443532 -40.589916 -5.999544 8
-87.270362 -40.592381 -6.224975 8
-90.133985 -40.568424 -6.458301 8
-93.018727 -40.553466 -6.699626 8
-95.955857 -40.486303 -6.949335 8
-98.921684 -40.418243 -7.207476 8
-101.903845 -40.374555 -7.474060 8
-105.239382 -39.728714 -7.753832 8
-111.789606 -33.318904 -8.093164 8
-118.168201 -27.546134 -8.450296 7
-121.471383 -27.430819 -8.768960 7
-124.781411 -27.366662 -9.097137 7
-128.113902 -27.326309 -9.435229 7
-131.550432 -27.176909 -9.785336 7
-135.046067 -26.999002 -10.146842 7
-138.529520 -26.908094 -10.518105 7
-142.092128 -26.760685 -10.901746 7
-145.705213 -26.605366 -11.297298 7
147.655309 -28.279887 -7.965648 6
144.676357 -28.411144 -7.622878 6
141.730745 -28.524870 -7.289063 6
138.832563 -28.583888 -6.964120 6
135.952276 -28.654829 -6.647495 6
133.099173 -28.713238 -6.339120 6
130.271779 -28.760036 -6.038805 6
127.454244 -28.834864 -5.746390 6
124.659431 -28.902789 -5.461776 6
121.888133 -28.959033 -5.184795 6
119.135288 -29.015435 -4.915328 6
117.181119 -26.712033 -4.642093 6
113.114833 -30.899424 -4.408559 5
109.277112 -34.677382 -4.187360 5
107.310860 -32.525376 -3.935116 5
103.495093 -36.649634 -3.738877 5
100.905248 -36.739498 -3.518805 5
98.355460 -36.735132 -3.304398 5
95.819726 -36.723648 -3.096291 5
93.296274 -36.709223 -2.894435 5
90.770978 -36.748239 -2.699452 5
88.266095 -36.748676 -2.510165 5
85.766953 -36.769723 -2.327245 5
83.285428 -36.755533 -2.149842 5
80.809315 -36.759373 -1.978640 5
78.334998 -36.800458 -1.813920 5
75.885363 -36.756026 -1.653644 5
73.428242 -36.796268 -1.500539 5
70.992430 -36.755887 -1.351748 5
68.554640 -36.769381 -1.209560 5
66.125522 -36.769997 -1.072750 5
65.263455 -25.074170 -0.713599 5
61.144624 -37.906263 -0.838448 9
58.580829 -39.327700 -0.747792 9
56.049781 -40.739785 -0.663639 9
53.556750 -42.079364 -0.584503 9
51.086401 -43.495167 -0.513406 9
48.665931 -44.654360 -0.442956 9
46.290008 -45.521617 -0.371957 9
43.956557 -45.982782 -0.297399 9
41.640382 -46.313101 -0.225186 9
39.342717 -46.376228 -0.151948 9
37.049442 -46.381279 -0.082386 9
34.757840 -46.362486 -0.017257 9
32.466882 -46.316976 0.043541 9
30.175372 -46.281877 0.099128 9
27.883256 -46.262641 0.149370 9
25.591550 -46.314892 0.192880 9
23.298047 -46.294666 0.233233 9
21.003864 -46.300507 0.267986 9
