ply
format ascii 1.0
element vertex 1364
property float x
property float y
property float z
property int scalar_Label
end_header
26.031258 34.940546 39.551287 9
27.706197 32.456107 41.397476 9
27.801703 29.637485 41.512911 9
29.294300 27.165390 43.160351 9
30.589989 24.675567 44.592498 9
31.785641 22.186239 45.915542 9
32.811949 19.672065 47.053546 9
33.700197 17.134865 48.040822 9
34.429016 14.561101 48.853982 9
35.074223 11.969058 49.576130 9
35.557855 9.326755 50.121873 9
35.939874 6.648669 50.556941 9
36.200712 3.922118 50.859931 9
36.276093 1.115211 50.960480 9
36.262215 -1.741019 50.964005 9
36.069856 -4.689893 50.772838 9
35.701780 -7.739112 50.390073 9
35.141275 -10.905343 49.797484 9
34.372379 -14.206051 48.977681 9
33.290308 -17.703804 47.816061 9
31.854398 -21.435212 46.268256 9
29.925672 -25.491495 44.182340 9
27.361686 -29.974956 41.402680 9
26.738211 -33.477749 40.747691 9
20.736208 -40.117987 34.209992 9
-50.506376 143.709228 -37.641228 3
-46.246361 138.764811 -33.101759 3
-44.463447 134.500135 -31.214925 3
-42.704232 130.302294 -29.351634 3
-40.949089 126.165589 -27.490893 3
-39.247707 122.097750 -25.686012 3
-37.536378 118.085237 -23.868739 3
-35.882628 114.137666 -22.111507 3
-34.273884 110.250076 -20.400883 3
-5.191338 103.114388 10.771087 2
-5.180967 99.888695 10.772138 2
-4.897111 96.642475 11.067734 3
0.855000 92.983517 17.228774 3
0.869429 89.854557 17.238138 3
-0.292185 86.786554 15.987481 1
-0.235027 83.644724 16.045101 1
-5.607107 80.620737 10.281212 1
-5.624707 77.408313 10.261081 1
-1.898779 74.222070 14.257077 1
-1.918829 71.061393 14.236809 1
1.678797 68.026868 18.097614 1
1.189671 64.890721 17.576699 4
1.213994 61.771434 17.607660 4
1.190792 58.646662 17.588877 4
1.219837 55.522991 17.627350 4
1.182018 52.389463 17.595350 4
1.611275 49.306809 18.065425 9
7.067551 46.906835 23.926838 9
11.095928 44.444728 28.257922 9
14.485126 41.987696 31.904452 9
17.328770 39.524726 34.966867 9
19.753381 37.056374 37.580858 9
21.875438 34.588312 39.871338 9
23.278926 32.015632 41.392457 9
23.632542 29.229238 41.789310 9
25.123784 26.727917 43.406376 9
26.463481 24.220967 44.861926 9
27.651258 21.701324 46.155587 9
28.659591 19.153919 47.257912 9
29.496552 16.572971 48.177601 9
30.288345 13.991166 49.049883 9
30.885349 11.355678 49.714538 9
31.356691 8.681716 50.245664 9
31.699424 5.962115 50.640162 9
31.897762 3.184577 50.881196 9
31.973107 0.350547 50.991748 9
31.873340 -2.567583 50.916112 9
31.612218 -5.572527 50.669112 9
31.181121 -8.676152 50.241629 9
30.558974 -11.896650 49.611236 9
29.596966 -15.314055 48.618922 9
28.382841 -18.902191 47.358740 9
26.730846 -22.767528 45.632303 9
24.437832 -27.037460 43.222803 9
22.734443 -31.084236 41.445811 9
20.522368 -35.487198 39.127567 9
9.777108 -44.829249 27.697015 9
-51.697488 143.172761 -32.382122 3
-48.245580 138.460116 -28.800687 3
-46.465692 134.220654 -26.968532 3
-44.690375 130.043106 -25.138611 3
-42.944039 125.930997 -23.336571 3
-41.214602 121.880111 -21.549809 3
-39.532746 117.893823 -19.810549 3
-37.864038 113.964251 -18.082753 3
-36.256468 110.096415 -16.416794 3
-34.619195 106.276191 -14.717469 3
-33.015577 102.510714 -13.051263 3
-31.454742 98.798669 -11.427799 3
-9.666427 93.583081 11.412761 3
-8.835961 90.293868 12.275056 3
-6.636464 86.963576 14.575117 1
-6.633381 83.773080 14.573178 1
-15.371605 70.837386 5.403970 1
-3.624726 67.935836 17.728992 1
-5.130435 64.713995 16.154775 4
-5.152535 61.541293 16.138451 4
-5.150468 58.367351 16.149195 4
-5.176529 55.187884 16.132164 4
-5.196127 52.004778 16.123640 4
-2.796458 49.104049 18.653848 9
2.651230 46.670388 24.381604 9
6.678804 44.176225 28.621247 9
10.136545 41.698182 32.264477 9
13.006310 39.208759 35.292345 9
11.266751 35.922492 33.489598 9
17.623988 34.225515 40.175418 9
18.742448 31.562462 41.371086 9
19.390637 28.814441 42.075304 9
20.917739 26.292757 43.701878 9
22.240293 23.752708 45.115369 9
23.409660 21.199247 46.369645 9
24.423973 18.624848 47.462801 9
25.311278 16.030921 48.424268 9
26.021233 13.395521 49.201393 9
26.611571 10.729683 49.854702 9
27.054749 8.018144 50.355432 9
27.371752 5.261539 50.725632 9
27.535038 2.443401 50.936572 9
27.508567 -0.457764 50.950664 9
27.373877 -3.417861 50.853320 9
27.093679 -6.458101 50.605651 9
26.536214 -9.643261 50.070059 9
25.762321 -12.959165 49.310362 9
24.722214 -16.439762 48.274752 9
23.308553 -20.149955 46.851373 9
21.355694 -24.190472 44.867620 9
18.686473 -28.678485 42.139075 9
17.961193 -32.241535 41.442925 9
13.275995 -38.005552 36.617669 9
-53.237768 142.733395 -27.576853 3
-50.223459 138.157233 -24.533525 3
-48.410721 133.935004 -22.717854 3
-46.659288 129.786129 -20.961780 3
-44.916312 125.697284 -19.211226 3
-43.164158 121.664219 -17.448186 3
-41.515203 117.704351 -15.787941 3
-39.779695 113.785060 -14.036015 3
-38.161234 109.935873 -12.401238 3
-36.548552 106.138121 -10.769583 3
-34.915318 102.388113 -9.114103 3
-33.360357 98.694845 -7.536216 3
-31.721774 95.042115 -5.869920 3
-19.155336 90.760609 7.009108 3
-13.368573 70.937909 12.925291 1
-13.386170 67.693618 12.911695 1
-14.855841 51.290201 11.460129 9
-7.290033 48.896345 19.237528 9
-1.881999 46.424568 24.803113 9
2.226886 43.909429 29.037726 9
5.693175 41.400894 32.614794 9
8.619318 38.889594 35.639457 9
11.126311 36.375271 38.235856 9
13.310726 33.859459 40.503063 9
14.161952 31.111205 41.405501 9
15.056403 28.388997 42.354047 9
16.594094 25.840040 43.963360 9
17.946254 23.278095 45.384193 9
19.110963 20.694407 46.614650 9
20.134279 18.093769 47.701976 9
20.962019 15.453495 48.590772 9
21.658627 12.785030 49.347110 9
22.233627 10.085419 49.980815 9
22.655085 7.337987 50.459307 9
22.914193 4.532431 50.773690 9
23.063977 1.680887 50.978323 9
23.023221 -1.253406 50.990285 9
22.787035 -4.281394 50.804758 9
22.373560 -7.404813 50.440476 9
21.745603 -10.648288 49.859649 9
20.869506 -14.037190 49.028152 9
19.633746 -17.634954 47.832448 9
17.999369 -21.477344 46.233212 9
15.818025 -25.656488 44.079620 9
13.125716 -30.180405 41.409068 9
12.030001 -33.973222 40.370508 9
4.535635 -41.262291 32.815677 9
-54.948938 142.344668 -23.018138 3
-52.203192 137.861169 -20.321524 3
-50.407087 133.666288 -18.572192 3
-48.633979 129.535700 -16.842029 3
-46.861630 125.463492 -15.108840 3
-45.086549 121.448209 -13.369205 3
-43.422325 117.506991 -11.737099 3
-41.718061 113.612868 -10.061319 3
-40.083413 109.780939 -8.451901 3
-38.474226 106.002492 -6.864648 3
-36.835621 102.270162 -5.244586 3
-35.280047 98.594419 -3.704583 3
-33.650873 94.959458 -2.087575 3
-30.215195 91.261500 1.345050 3
-19.346157 51.121035 12.299436 9
-11.852507 48.685920 19.837702 9
-6.371736 46.190582 25.358435 9
-2.313037 43.636760 29.454545 9
1.190081 41.101725 32.995204 9
4.246805 38.580959 36.089981 9
6.702724 36.027252 38.584180 9
8.908879 33.485084 40.829827 9
9.429258 30.638974 41.387993 9
10.648357 27.957630 42.648541 9
12.194673 25.380599 44.238925 9
13.535673 22.785917 45.625596 9
14.701621 20.172728 46.838952 9
15.689069 17.532319 47.875638 9
16.525050 14.864768 48.762814 9
17.210947 12.163674 49.501969 9
17.766012 9.428469 50.112473 9
18.164880 6.644510 50.569071 9
18.398344 3.801361 50.862703 9
18.474634 0.894406 51.001758 9
18.365463 -2.094521 50.958147 9
18.064071 -5.176759 50.725332 9
17.573822 -8.359971 50.306909 9
16.836855 -11.677799 49.645380 9
15.782134 -15.173208 48.670212 9
14.400438 -18.865357 47.372646 9
12.535998 -22.843085 45.597885 9
9.933516 -27.253102 43.092247 9
8.188831 -31.331143 41.446248 9
5.041647 -36.205396 38.408679 9
-56.663478 141.964861 -18.526432 3
-54.163801 137.566825 -16.140720 3
-52.344559 133.390626 -14.416829 3
-50.527295 129.274352 -12.690363 3
-48.769721 125.227615 -11.017993 3
-47.045547 121.242722 -9.374072 3
-45.346333 117.316219 -7.750428 3
-43.652976 113.443623 -6.128427 3
-42.300149 109.666807 -4.836419 3
-42.245536 106.080883 -4.814068 3
-42.158184 102.498130 -4.756083 3
-24.045681 50.935087 13.013635 9
-16.461510 48.475517 20.479285 9
-11.074916 45.935214 25.790907 9
-6.911359 43.362720 29.904829 9
-3.426175 40.792563 33.355464 9
-0.314943 38.248221 36.441440 9
2.191711 35.672097 38.936753 9
4.424261 33.103963 41.165515 9
4.638470 30.166402 41.418692 9
6.126910 27.511858 42.923065 9
7.664463 24.901788 44.477869 9
9.015876 22.278813 45.852675 9
10.175381 19.633336 47.041934 9
11.160938 16.962015 48.063346 9
12.038196 14.276420 48.981261 9
12.679999 11.532609 49.671392 9
13.193687 8.754687 50.238902 9
13.545008 5.925320 50.650439 9
13.705201 3.027104 50.878072 9
13.761064 0.082917 51.006801 9
13.549680 -2.973765 50.877702 9
13.208475 -6.101157 50.625242 9
12.603931 -9.359761 50.119365 9
11.737699 -12.761006 49.362066 9
10.552066 -16.342201 48.297496 9
8.954183 -20.159990 46.835710 9
6.755189 -24.321282 44.793467 9
3.732727 -28.960468 41.955328 9
3.093973 -32.529857 41.442771 9
-3.114346 -38.975354 35.519111 9
-58.452180 141.610089 -14.165717 3
-56.101428 137.273124 -11.985543 3
-55.724811 133.419429 -11.691371 3
-55.576962 129.629741 -11.611969 3
-115.721525 136.722477 -69.322790 0
-28.835236 50.744914 13.729304 9
-21.238627 48.251466 21.047068 9
-15.868066 45.674930 26.231212 9
-11.646560 43.076480 30.315347 9
-8.073568 40.486451 33.779800 9
-5.011171 37.901480 36.756975 9
-2.421389 35.307546 39.283428 9
-0.221090 32.701365 41.439005 9
-0.265742 29.682187 41.446073 9
1.510354 27.056388 43.200693 9
3.076817 24.421657 44.757115 9
4.412379 21.763819 46.095087 9
5.589861 19.092131 47.284458 9
6.568150 16.388402 48.285996 9
7.393889 13.657528 49.144477 9
8.035784 10.883305 49.830114 9
8.490548 8.056627 50.339951 9
8.796344 5.181864 50.710657 9
8.929072 2.243980 50.919399 9
8.921112 -0.753196 50.997317 9
8.679283 -3.850920 50.855704 9
8.215561 -7.055071 50.506328 9
7.486857 -10.393053 49.908468 9
6.494733 -13.876282 49.064052 9
5.112702 -17.571287 47.853090 9
3.258878 -21.532223 46.198331 9
0.756151 -25.861925 43.932151 9
-2.016696 -30.410503 41.415908 9
-3.735189 -34.544293 39.908801 9
-13.614609 -42.854962 30.657938 9
-70.021394 143.528934 -19.016174 3
-69.825835 139.558265 -18.915621 3
-87.163891 139.196141 -35.236756 3
-108.790573 139.201401 -55.580479 3
-119.688773 136.727231 -65.872538 0
-147.135432 136.700999 -91.679013 0
-33.730984 50.549150 14.435480 9
-26.151281 48.017972 21.580741 9
-20.760882 45.408789 26.674186 9
-16.446314 42.788577 30.760912 9
-12.826867 40.172069 34.198266 9
-9.733191 37.559269 37.145240 9
-7.110186 34.938762 39.653657 9
-5.252561 32.235008 41.447529 9
-4.974989 29.250086 41.764067 9
-3.181590 26.596030 43.504091 9
-1.629985 23.926124 45.020616 9
-0.274111 21.241570 46.356913 9
0.900302 18.537790 47.526464 9
1.850898 15.795515 48.489794 9
2.633581 13.021228 49.299380 9
3.248885 10.207814 49.955890 9
3.705622 7.350738 50.467745 9
3.934035 4.420197 50.769997 9
4.046976 1.444729 50.968293 9
3.922287 -1.624315 50.948841 9
3.615181 -4.777049 50.763494 9
3.047728 -8.051539 50.339936 9
2.235037 -11.453407 49.692693 9
1.077810 -15.034536 48.729785 9
-0.493643 -18.839986 47.387021 9
-2.611089 -22.946228 45.542690 9
-5.570575 -27.512023 42.922762 9
-7.277992 -31.594870 41.473825 9
-11.510974 -36.964449 37.687703 9
-84.858331 142.071864 -26.594999 3
-90.739842 139.194882 -32.071892 3
-112.585951 139.195270 -52.175051 3
-123.672200 136.733272 -62.421152 0
-151.867117 136.777639 -88.351755 0
-38.785007 50.342990 15.089437 9
-31.193270 47.776135 22.092763 9
-25.683176 45.145773 27.188643 9
-21.378938 42.489837 31.181096 9
-17.680573 39.850646 34.620762 9
-14.624508 37.198172 37.474418 9
-12.065174 34.532474 39.875760 9
-10.432061 31.752315 41.431463 9
-9.799628 28.805606 42.073955 9
-7.998878 26.120342 43.790338 9
-6.430611 23.421704 45.297146 9
-5.097484 20.699443 46.592107 9
-3.934178 17.960510 47.735155 9
-3.009928 15.179089 48.663128 9
-2.212760 12.376816 49.478615 9
-1.658223 9.513936 50.076185 9
-1.260460 6.606767 50.534543 9
-0.990757 3.657751 50.880115 9
-1.017008 0.604609 50.959929 9
-1.187647 -2.512185 50.912644 9
-1.587555 -5.730073 50.661175 9
-2.229076 -9.063817 50.194699 9
-3.224858 -12.568287 49.411156 9
-4.523437 -16.238114 48.358058 9
-6.349805 -20.181317 46.831529 9
-8.826414 -24.474224 44.721438 9
-12.284151 -29.293779 41.728817 9
-13.114559 -33.014395 41.129297 9
-20.797376 -40.044187 34.324565 9
-100.905592 140.511749 -34.794585 3
-116.416374 139.194159 -48.786385 3
-127.684911 136.742663 -58.978152 0
-156.624266 136.855040 -85.010435 0
-187.503070 136.512010 -112.788414 0
-43.709274 50.154651 15.957750 9
-36.249991 47.538869 22.692129 9
-37.520812 44.043885 21.597124 9
-26.402011 42.186479 31.620302 9
-22.753917 39.504877 34.944743 9
-19.597837 36.833033 37.831318 9
-16.969559 34.145276 40.248132 9
-15.750874 31.255633 41.405410 9
-14.758849 28.345492 42.363768 9
-12.897348 25.639445 44.104797 9
-11.373758 22.897859 45.546967 9
-10.026673 20.145760 46.834960 9
-8.892854 17.366526 47.936041 9
-7.963586 14.553652 48.858202 9
-7.199355 11.709654 49.636973 9
-6.641366 8.815476 50.235753 9
-6.312842 5.855317 50.634091 9
-6.123505 2.848337 50.912865 9
-6.160562 -0.240616 50.994553 9
-6.417978 -3.419151 50.884928 9
-6.933817 -6.710510 50.550506 9
-7.738723 -10.137327 49.964528 9
-8.845873 -13.717255 49.115876 9
-10.401646 -17.522238 47.875129 9
-12.460310 -21.594228 46.195088 9
-15.329775 -26.087204 43.803668 9
-18.181317 -30.669145 41.437629 9
-20.704131 -35.198538 39.372601 9
-118.615452 143.291070 -43.844219 3
-120.329726 139.206582 -45.453107 0
-131.669843 136.745291 -55.490602 0
-160.996312 136.867569 -81.292902 0
-193.936828 136.775007 -110.271149 0
-50.480348 49.795111 15.296439 9
-41.619959 47.273839 23.116046 9
-36.022890 44.579955 28.075340 9
-37.492916 41.079557 26.839787 9
-27.870481 39.161559 35.336260 9
-24.723754 36.452881 38.157125 9
-22.039272 33.739491 40.576551 9
-21.173974 30.752083 41.406110 9
-19.789320 27.882984 42.695168 9
-17.988675 25.130138 44.352698 9
-16.415225 22.365335 45.815421 9
-15.079813 19.576820 47.074029 9
-13.984076 16.754531 48.127311 9
-13.041559 13.911454 49.051064 9
-12.329311 11.019894 49.778171 9
-11.814303 8.079919 50.337765 9
-11.513281 5.078219 50.715526 9
-11.377314 2.021286 50.954457 9
-11.490073 -1.125502 50.981949 9
-11.860658 -4.375749 50.790542 9
-12.480185 -7.737237 50.388479 9
-13.390578 -11.236134 49.739848 9
-14.680276 -14.918793 48.768458 9
-16.460582 -18.845571 47.378546 9
-18.858691 -23.089587 45.460930 9
-22.182881 -27.807937 42.749886 9
-23.845497 -31.907273 41.488974 9
-29.474575 -37.861633 36.804352 9
-131.496278 145.060758 -48.191521 0
-131.163452 140.483477 -48.024855 0
-131.618480 136.058538 -48.524852 0
-165.297989 136.866805 -77.490756 0
-199.175522 136.857093 -106.636342 0
-47.095568 47.004271 23.559293 9
-41.353723 44.288607 28.537879 9
-36.969772 41.533911 32.355529 9
-33.080195 38.813511 35.753145 9
-29.872053 36.078880 38.570541 9
-27.176626 33.332530 40.952614 9
-26.729098 30.236991 41.413626 9
-24.948082 27.407170 43.021613 9
-23.156596 24.617814 44.643019 9
-21.584331 21.818133 46.081280 9
-20.249258 18.995136 47.321209 9
-19.147345 16.140310 48.366485 9
-18.246442 13.252619 49.244829 9
-17.582953 10.313919 49.925418 9
-17.114055 7.326798 50.445121 9
-16.824459 4.287779 50.817278 9
-16.801573 1.162058 50.967728 9
-16.984696 -2.041615 50.948646 9
-17.431729 -5.351541 50.711188 9
-18.162442 -8.785740 50.239114 9
-19.292984 -12.398588 49.434392 9
-20.717293 -16.166649 48.387988 9
-22.804432 -20.247216 46.787637 9
-25.549509 -24.665978 44.639111 9
-29.533862 -29.694322 41.451910 9
-30.736310 -33.644064 40.630889 9
-40.784378 -41.592918 32.342968 9
-151.986977 143.538389 -58.671602 0
-151.607262 138.760135 -58.476934 0
-168.694496 136.722910 -72.907491 0
-203.598766 136.818446 -102.271516 0
-46.859366 43.984052 28.962454 9
-42.386003 41.202756 32.775786 9
-38.440992 38.452724 36.150381 9
-35.177279 35.690006 38.958246 9
-32.432849 32.915963 41.335446 9
-32.383079 29.716921 41.461055 9
-30.286782 26.908674 43.305426 9
-28.469663 24.088627 44.920884 9
-26.867625 21.259891 46.361239 9
-25.558372 18.395939 47.561741 9
-24.460791 15.505069 48.590452 9
-23.617648 12.567807 49.411927 9
-22.937571 9.598663 50.102735 9
-22.540828 6.556914 50.562853 9
-22.336270 3.458132 50.868692 9
-22.381976 0.276453 50.972254 9
-22.643659 -2.987341 50.902561 9
-23.170146 -6.358589 50.619493 9
-24.092999 -9.894048 50.014375 9
-25.336303 -13.582574 49.151136 9
-27.073733 -17.502580 47.886584 9
-29.398242 -21.710539 46.144974 9
-32.667336 -26.374137 43.631953 9
-35.530320 -30.972759 41.467013 9
-39.363059 -36.079780 38.512866 9
-174.492148 141.882790 -70.173456 0
-174.055495 136.882754 -69.943345 0
-207.905390 136.761888 -97.794566 0
-80.450178 40.402246 6.475206 8
-48.112142 40.839998 33.053622 9
-43.970475 38.077265 36.520266 9
-40.597506 35.293365 39.361655 9
-38.140063 32.434945 41.458040 9
-37.859806 29.241656 41.777666 9
-35.735113 26.401896 43.612423 9
-33.890444 23.550970 45.223203 9
-32.283111 20.687288 46.645119 9
-31.028517 17.775137 47.784140 9
-29.963051 14.840401 48.774232 9
-29.131967 11.864034 49.578713 9
-28.484504 8.850303 50.239302 9
-28.132681 5.760455 50.665032 9
-28.015717 2.600533 50.905901 9
-28.097641 -0.627963 50.991631 9
-28.482005 -3.966151 50.838480 9
-29.168589 -7.426191 50.447301 9
-30.207783 -11.037745 49.777928 9
-31.682705 -14.844884 48.763866 9
-33.672506 -18.894676 47.342139 9
-36.329125 -23.266399 45.391201 9
-40.184223 -28.198045 42.483117 9
-41.666928 -32.275620 41.504972 9
-199.836248 145.340294 -83.119631 0
-199.387468 140.081762 -82.902422 0
-212.337697 136.721804 -93.404508 0
-86.032211 40.139902 7.581252 8
-76.316016 37.610678 15.444773 8
-68.787363 35.007403 21.558925 9
-46.344114 34.857137 39.616091 9
-44.166230 31.913505 41.449253 9
-43.534698 28.743443 42.051103 9
-41.295738 25.886800 43.944628 9
-39.481669 22.992671 45.503901 9
-37.929737 20.079820 46.859322 9
-36.649346 17.136018 48.003654 9
-35.577700 14.165792 48.987309 9
-34.772499 11.146439 49.764569 9
-34.241743 8.065451 50.329465 9
-33.894038 4.937364 50.755212 9
-33.828288 1.726198 50.963492 9
-33.993910 -1.563937 50.995074 9
-34.528675 -4.985713 50.741081 9
-35.334871 -8.521790 50.279887 9
-36.546676 -12.228840 49.505840 9
-38.212645 -16.140290 48.381554 9
-40.512639 -20.340268 46.765994 9
-43.829812 -24.999416 44.358135 9
-48.139446 -30.148696 41.180359 9
-91.370987 39.912505 8.981224 8
-82.285837 37.266310 16.179425 8
-76.118484 34.430267 21.096960 8
-55.266393 33.953018 37.508210 9
-50.629682 31.333847 41.231771 9
-49.791138 28.156056 41.990568 9
-48.332684 25.108259 43.240574 9
-45.600887 22.343241 45.491176 9
-43.739252 19.453311 47.067803 9
-42.389240 16.486511 48.251169 9
-41.324404 13.477174 49.218444 9
-40.604630 10.399472 49.923394 9
-40.106961 7.272324 50.462266 9
-39.839954 4.084694 50.828808 9
-39.839736 0.817178 50.995404 9
-40.151064 -2.554074 50.927881 9
-40.768499 -6.039608 50.631173 9
-41.746008 -9.669024 50.064225 9
-43.207683 -13.498342 49.131915 9
-45.609208 -17.705780 47.483141 9
-53.570934 -24.000168 41.550961 9
-54.431641 -27.851696 41.120543 9
-97.417149 39.611428 9.933087 8
-88.476013 36.903388 16.864335 8
-82.285794 34.026947 21.694940 8
-77.549894 31.076420 25.418293 8
-73.791141 28.076114 28.400149 8
-56.973801 27.422836 41.361965 9
-56.869262 24.070656 41.559729 9
-56.478501 20.770446 41.983869 9
-55.510407 17.593168 42.855969 9
-50.843970 15.251557 46.553208 9
-48.784659 12.405271 48.268531 9
-47.562149 9.394492 49.352962 9
-46.898103 6.260107 50.019482 9
-46.644165 3.021329 50.381788 9
-46.814500 -0.341439 50.429945 9
-47.470979 -3.862685 50.117962 9
-48.982023 -7.674444 49.167885 9
-55.013594 -12.983379 44.807437 9
-58.880587 -17.735047 42.101415 9
-61.401285 -22.131935 40.427221 9
-92.845741 -36.958608 16.948112 8
-103.656783 39.296727 10.857350 8
-94.647664 36.552253 17.687973 8
-88.618898 33.611613 22.294928 8
-83.950821 30.607636 25.890530 8
-80.191856 27.563619 28.813003 8
-77.592333 24.403920 30.876276 8
-76.706347 20.985126 31.668325 8
-64.907636 19.712111 40.602366 9
-64.730104 16.304548 40.877619 9
-64.454234 12.914792 41.234611 9
-63.354549 9.713833 42.212801 9
-62.719338 6.417340 42.853339 9
-65.849580 2.164159 40.705895 9
-67.094533 -1.670174 39.970140 9
-68.617299 -5.623207 39.039240 9
-64.257462 -7.905597 42.475789 9
-65.904311 -11.921686 41.471655 9
-65.782296 -15.430012 41.786491 9
-81.627162 -24.203595 30.324360 8
-86.752117 -29.721918 26.802472 8
-101.088297 36.177457 18.437569 8
-95.016433 33.198438 22.977658 8
-90.434371 30.138881 26.435957 8
-86.718306 27.044460 29.268709 8
-84.709450 23.741623 30.863393 8
-83.253039 20.379126 32.063322 8
-80.988237 17.200025 33.859928 8
-79.164984 13.976282 35.342494 8
-77.882151 10.670370 36.439708 8
-76.957285 7.304393 37.284931 8
-76.518248 3.834324 37.785956 8
-76.505907 0.257236 37.986576 8
-76.992885 -3.461962 37.835067 8
-78.055744 -7.363045 37.277144 8
-79.852213 -11.513074 36.200166 8
-82.578703 -15.998561 34.464155 8
-86.827146 -21.039722 31.644566 8
-89.168603 -25.576780 30.216591 8
-98.707699 -32.616757 23.622646 8
-101.797550 32.745127 23.516916 8
-97.262616 29.632480 26.869981 8
-93.410841 26.512764 29.742896 8
-91.852334 23.091596 30.989754 8
-89.990987 19.754388 32.460688 8
-87.738695 16.528251 34.217797 8
-86.034539 13.235977 35.593100 8
-84.735198 9.888683 36.689118 8
-83.942499 6.448624 37.434235 8
-83.579087 2.915889 37.884170 8
-83.719681 -0.743911 37.986859 8
-84.395354 -4.557363 37.721408 8
-85.696737 -8.568963 37.025034 8
-87.835398 -12.862251 35.749973 8
-91.099182 -17.553802 33.695489 8
-95.979652 -22.837419 30.518506 8
-98.911795 -27.624362 28.731249 8
-140.368262 28.123097 2.054525 7
-111.326825 28.104295 22.410525 8
-100.416176 25.946477 30.139816 8
-99.303381 22.406809 31.057797 8
-97.005040 19.096691 32.809009 8
-94.743710 15.825573 34.542747 8
-93.090661 12.477105 35.862577 8
-91.869734 9.067161 36.891501 8
-91.160754 5.562371 37.574927 8
-90.920477 1.954583 37.943715 8
-91.224419 -1.791817 37.946620 8
-92.102904 -5.704365 37.563921 8
-93.717998 -9.847858 36.685231 8
-96.224946 -14.292959 35.205494 8
-100.136452 -19.223253 32.774326 8
-104.046517 -24.258477 30.362057 8
-146.080207 27.875760 4.123185 7
-134.610431 25.305759 12.064009 7
-133.180792 21.455482 13.187042 7
-107.611990 21.598323 30.707407 8
-104.143880 18.433936 33.222497 8
-101.977938 15.097994 34.862433 8
-100.348470 11.697552 36.147688 8
-99.234421 8.218180 37.093305 8
-98.598017 4.650054 37.725695 8
-98.519844 0.957395 37.991336 8
-99.042119 -2.889998 37.862924 8
-100.130162 -6.904663 37.365222 8
-102.081697 -11.186814 36.299251 8
-105.280021 -15.874669 34.409581 8
-141.892672 24.809092 13.005816 7
-135.442934 21.676803 17.441532 7
-130.645342 18.414874 20.788878 7
-123.683861 15.630910 25.576477 7
-121.192095 12.169083 27.411632 7
-119.504331 8.597903 28.724493 7
-108.717196 6.950126 36.056634 8
-107.276917 3.488408 37.220150 8
-107.502628 -0.334049 37.295393 8
-120.259813 -7.208724 29.132338 7
-123.055259 -11.857523 27.551327 7
-127.933172 -17.134410 24.619265 7
-149.376536 24.297792 13.963973 7
-143.120615 21.085733 18.178394 7
-138.586109 17.729856 21.286620 7
-131.519695 14.904428 26.039039 7
-129.180426 11.363248 27.744548 7
-127.556532 7.727627 28.998460 7
-126.735336 3.955064 29.745661 7
-126.696183 0.022470 30.000935 7
-127.507577 -4.112807 29.721851 7
-129.397881 -8.535003 28.763676 7
-132.845214 -13.401654 26.822341 7
-146.991426 -21.167915 18.044415 7
-145.178008 17.277455 22.803837 7
-139.699058 14.138196 26.451755 7
-137.416844 10.533048 28.093305 7
-135.988003 6.806538 29.208279 7
-135.325962 2.947423 29.852548 7
-135.469064 -1.078638 30.003503 7
-136.660497 -5.354143 29.510334 7
-139.031473 -9.946063 28.293292 7
-143.250837 -15.061135 25.936885 7
-148.127645 13.349672 26.886410 7
-146.039775 9.654725 28.382103 7
-144.723118 5.851004 29.415660 7
-144.226001 1.902884 29.958801 7
-144.689496 -2.247229 29.926758 7
-146.252619 -6.662845 29.236617 7
-149.165732 -11.439957 27.738095 7
-207.661073 136.271215 -87.242871 0
-206.322901 138.781846 -86.445727 0
-204.949011 141.165617 -85.740903 0
-203.593362 143.524117 -85.051377 0
-202.260221 145.866199 -84.370471 0
-199.393291 145.656418 -85.703979 0
-196.599703 145.634755 -86.916071 0
-193.731863 145.561021 -88.197066 0
-190.839713 145.516906 -89.482642 0
-187.898875 145.466596 -90.802398 0
-185.297186 145.974034 -91.692199 0
-182.563653 146.337445 -92.724923 0
-179.474467 146.259401 -94.154265 0
-175.814344 145.481319 -96.210235 0
-172.666076 145.482028 -97.645938 0
-169.485793 145.511021 -99.092023 0
-166.293425 145.594195 -100.526466 0
-163.758411 146.556360 -101.223763 0
-202.908843 138.066206 -84.709727 0
-201.545199 140.472066 -84.019042 0
-200.232159 142.907047 -83.301494 0
-198.901428 145.257831 -82.643917 0
-197.016238 146.678154 -82.707034 0
-193.524116 145.602636 -84.738464 0
-190.640378 145.560626 -85.991971 0
-187.695035 145.492927 -87.294192 0
-184.708607 145.433314 -88.619360 0
-181.701394 145.412312 -89.943466 0
-179.325201 146.328794 -90.529424 0
-175.909967 145.870258 -92.271306 0
-172.450316 145.441559 -94.027666 0
-169.285480 145.480892 -95.429798 0
-166.058378 145.510306 -96.874662 0
-162.781279 145.548219 -98.347901 0
-160.158666 146.445732 -99.112292 0
-199.469421 137.381457 -82.951347 0
-198.141408 139.851406 -82.243147 0
-196.815598 142.268936 -81.569307 0
-195.497286 144.645976 -80.921509 0
-193.903541 146.547546 -80.634073 0
-190.465157 145.635997 -82.524735 0
-187.518630 145.555259 -83.805749 0
-184.549853 145.510017 -85.087545 0
-181.561690 145.504308 -86.367133 0
-178.434672 145.373340 -87.776659 0
-175.328853 145.343486 -89.136868 0
-172.971909 146.368391 -89.668739 0
-169.081862 145.443458 -91.823027 0
-165.850519 145.457902 -93.244665 0
-162.573567 145.486535 -94.689197 0
-159.241576 145.519783 -96.165641 0
-156.461633 146.275022 -97.061477 0
-196.010781 136.737718 -81.162602 0
-194.660926 139.176058 -80.508138 0
-193.364069 141.645938 -79.825529 0
-192.074450 144.074328 -79.168717 0
-190.675362 146.287909 -78.669222 0
-187.332957 145.599497 -80.378488 0
-184.370287 145.552496 -81.630548 0
-181.355117 145.498129 -82.916602 0
-178.332542 145.501329 -84.186960 0
-175.265737 145.511192 -85.481571 0
-172.728006 146.283367 -86.199467 0
-169.496537 146.197890 -87.626988 0
-165.668354 145.435106 -89.637981 0
-162.369069 145.426314 -91.076936 0
-159.059403 145.477105 -92.501890 0
-155.662139 145.495524 -93.989481 0
-152.669301 146.052816 -95.059936 0
-191.190087 138.588746 -78.706891 0
-189.886107 141.052354 -78.058554 0
-188.618055 143.519768 -77.402325 0
-187.360976 145.953832 -76.765576 0
-184.213501 145.623725 -78.197469 0
-181.201716 145.563012 -79.456545 0
-178.152686 145.518748 -80.731540 0
-175.045222 145.463841 -82.043948 0
-171.939135 145.480018 -83.331455 0
-169.432095 146.332500 -83.993142 0
-165.450464 145.364798 -86.115593 0
-162.252508 145.471715 -87.426082 0
-158.855767 145.406384 -88.908003 0
-155.510745 145.477114 -90.315279 0
-152.079483 145.519310 -91.781459 0
-148.848356 145.859906 -93.036660 0
-187.660676 137.980223 -76.918757 0
-186.388353 140.498254 -76.260472 0
-185.137131 142.996542 -75.610898 0
-183.873132 145.427576 -75.004989 0
-181.788672 146.662703 -75.277404 0
-178.009312 145.582821 -77.285353 0
-174.899845 145.514227 -78.575002 0
-171.755914 145.469881 -79.875821 0
-168.524386 145.382599 -81.239765 0
-166.092526 146.370759 -81.804421 0
-162.810208 146.341983 -83.179781 0
-159.468347 146.313412 -84.588154 0
-155.339745 145.433644 -86.708064 0
-151.909230 145.466941 -88.143493 0
-148.394019 145.478100 -89.633030 0
-145.002055 145.700291 -90.987422 0
-184.109825 137.410031 -75.099482 0
-182.843939 139.943618 -74.459291 0
-181.607977 142.470648 -73.818111 0
-180.392372 144.977918 -73.185380 0
-178.597401 146.645213 -73.157511 0
-174.747192 145.551719 -75.159640 0
-171.607488 145.502494 -76.431006 0
-168.413370 145.452754 -77.732082 0
-165.187040 145.432918 -79.040967 0
-161.931859 145.447790 -80.354436 0
-159.354627 146.345506 -81.021015 0
-155.951278 146.306617 -82.433924 0
-151.780068 145.460025 -84.514513 0
-148.247132 145.440695 -85.988864 0
-144.723650 145.507996 -87.431048 0
-141.238106 145.690077 -88.817580 0
-180.531727 136.869150 -73.254906 0
-179.283886 139.435104 -72.620771 0
-178.070903 142.000872 -71.980841 0
-176.846922 144.503496 -71.379555 0
-175.311679 146.545301 -71.102383 0
-171.464343 145.539206 -73.025651 0
-168.298004 145.514618 -74.274839 0
-165.034998 145.437774 -75.591458 0
-161.747471 145.402996 -76.907613 0
-158.364627 145.325434 -78.287095 0
-155.773301 146.250457 -78.940821 0
-151.677895 145.482344 -80.907846 0
-148.130025 145.435199 -82.364217 0
-144.522757 145.399711 -83.847807 0
-140.941344 145.469884 -85.285646 0
-137.390595 145.647169 -86.675404 0
-176.779019 136.147235 -71.527163 0
-175.671448 138.920348 -70.780646 0
-174.473168 141.513448 -70.150284 0
-173.255252 144.032878 -69.564997 0
-171.916868 146.351431 -69.115505 0
-168.184972 145.576861 -70.859800 0
-164.916424 145.482162 -72.154569 0
-161.642990 145.453904 -73.431218 0
-158.282788 145.392478 -74.762216 0
-155.002809 145.498350 -76.001455 0
-152.279232 146.309638 -76.745467 0
-148.588757 146.074447 -78.298031 0
-144.463869 145.446179 -80.187255 0
-140.774517 145.388424 -81.683682 0
-137.124704 145.452025 -83.123898 0
-133.528436 145.646924 -84.498580 0
-130.571632 146.558853 -85.341406 0
-172.021102 138.421754 -68.921857 0
-170.835069 141.038878 -68.303348 0
-169.664302 143.629256 -67.696746 0
-168.423887 146.085911 -67.176403 0
-164.852875 145.592973 -68.712125 0
-161.543762 145.509069 -69.993502 0
-158.194875 145.450221 -71.286858 0
-154.796170 145.405797 -72.600394 0
-151.393849 145.430587 -73.895139 0
-147.819999 145.334695 -75.310018 0
-144.673754 145.786344 -76.353851 0
-140.739361 145.447386 -78.017033 0
-137.026632 145.432595 -79.476050 0
-133.293129 145.475340 -80.928497 0
-129.605230 145.642123 -82.323048 0
-126.712942 146.668595 -83.083435 0
-168.352812 137.967033 -67.024840 0
-167.155735 140.577351 -66.438578 0
-166.017369 143.217952 -65.825705 0
-164.850739 145.778063 -65.260860 0
-161.518890 145.652945 -66.535128 0
-158.080589 145.474504 -67.875695 0
-154.695458 145.435605 -69.149607 0
-151.229391 145.376718 -70.467951 0
-147.756308 145.384755 -71.770179 0
-145.126935 146.391786 -72.383342 0
-141.414500 146.268103 -73.839235 0
-136.943012 145.427404 -75.859628 0
-133.198100 145.447471 -77.287959 0
-129.329353 145.421256 -78.788090 0
-125.631813 145.646037 -80.136468 0
-122.690549 146.674616 -80.903073 0
-164.605029 137.475277 -65.141956 0
-163.463291 140.166029 -64.530225 0
-162.301494 142.785502 -63.958742 0
-161.188849 145.422332 -63.369329 0
-158.921526 146.637610 -63.733484 0
-154.621291 145.494760 -65.717838 0
-151.155538 145.425099 -67.006849 0
-147.593774 145.322681 -68.349369 0
-144.110752 145.384078 -69.609101 0
-141.306956 146.246644 -70.331211 0
-136.749037 145.305286 -72.367950 0
-133.090770 145.406167 -73.697825 0
-129.282274 145.430401 -75.118272 0
-125.290343 145.353139 -76.650914 0
-121.559104 145.613028 -77.971225 0
-118.621872 146.696777 -78.703719 0
-160.869790 137.068321 -63.192232 0
-159.705410 139.738593 -62.620992 0
-158.584068 142.417645 -62.037460 0
-157.471144 145.063292 -61.469022 0
-155.536273 146.707496 -61.558817 0
-151.076471 145.466016 -63.589590 0
-147.568433 145.412954 -64.860735 0
-143.983194 145.350227 -66.168983 0
-140.386788 145.352214 -67.464297 0
-136.771488 145.409756 -68.752893 0
-133.045006 145.427459 -70.102100 0
-129.203397 145.406879 -71.512994 0
-125.308981 145.415055 -72.939510 0
-122.130868 146.196263 -73.839959 0
-117.441984 145.599668 -75.782162 0
-114.481457 146.712890 -76.500327 0
-157.043622 136.614010 -61.259701 0
-155.913531 139.336597 -60.682142 0
-154.808882 142.045337 -60.106422 0
-153.709546 144.717244 -59.547446 0
-152.004965 146.656677 -59.459476 0
-147.534287 145.492009 -61.419018 0
-143.982267 145.453988 -62.672818 0
-140.338818 145.393104 -63.972260 0
-136.643749 145.355542 -65.287611 0
-132.941721 145.388847 -66.586968 0
-130.070973 146.335816 -67.285367 0
-125.300970 145.450188 -69.289367 0
-121.284581 145.409755 -70.743731 0
-117.246134 145.432955 -72.190691 0
-113.247056 145.576227 -73.589362 0
-110.243363 146.702234 -74.305674 0
-152.098205 138.973164 -58.704516 0
-150.976000 141.671132 -58.161990 0
-149.886603 144.365614 -57.614955 0
-148.370442 146.542709 -57.392512 0
-143.929247 145.499527 -59.253515 0
-140.276289 145.417389 -60.528554 0
-136.596179 145.384697 -61.801782 0
-132.853406 145.364943 -63.097728 0
-129.070538 145.383141 -64.400474 0
-125.195323 145.388597 -65.745046 0
-121.256362 145.412940 -67.111263 0
-117.288963 145.491719 -68.475329 0
-113.274881 145.608082 -69.849320 0
-109.085206 145.646292 -71.316375 0
-148.190483 138.567666 -56.736768 0
-147.139221 141.358749 -56.162901 0
-146.065509 144.081568 -55.623883 0
-144.716684 146.463505 -55.292239 0
-140.314356 145.548511 -57.052428 0
-136.548570 145.412983 -58.352745 0
-132.795275 145.371391 -59.623653 0
-128.984910 145.351108 -60.912048 0
-125.134918 145.371185 -62.206104 0
-121.310451 145.495254 -63.463620 0
-117.313090 145.532601 -64.812804 0
-113.255915 145.596554 -66.179382 0
-109.130423 145.681242 -67.568291 0
-144.268966 138.214653 -54.718860 0
-143.185927 140.980717 -54.186468 0
-142.152336 143.760320 -53.638666 0
-140.919387 146.285790 -53.240204 0
-136.614156 145.559199 -54.865004 0
-132.780668 145.421888 -56.156438 0
-129.945292 146.370932 -56.787633 0
-125.113313 145.391591 -58.677764 0
-121.305407 145.520170 -59.892749 0
-117.332397 145.568737 -61.191917 0
-113.324337 145.665861 -62.492824 0
-107.487159 144.185545 -64.889819 3
-103.166806 144.199768 -66.330393 3
-140.292104 137.866677 -52.678502 0
-139.227744 140.665418 -52.152253 0
-138.203806 143.467142 -51.616897 0
-137.083892 146.128265 -51.159100 0
-132.856724 145.564820 -52.667579 0
-128.944637 145.417244 -53.954682 0
-125.118699 145.438173 -55.168064 0
-121.291698 145.536424 -56.363130 0
-117.385169 145.636316 -57.587831 0
-113.343360 145.689377 -58.874697 0
-107.514061 144.203968 -61.200221 3
-103.176101 144.190086 -62.612267 3
-98.761656 144.198994 -64.047350 3
-136.254991 137.520314 -50.615815 0
-135.217134 140.360320 -50.090972 0
-134.186313 143.167312 -49.577923 0
-133.153428 145.933546 -49.081678 0
-129.075748 145.601609 -50.436215 0
-125.115619 145.476005 -51.698286 0
-121.304880 145.578337 -52.851873 0
-117.398579 145.666515 -54.043574 0
-111.729829 144.201687 -56.238769 3
-107.515067 144.198973 -57.561886 3
-103.219553 144.210907 -58.910639 3
-98.810353 144.211662 -60.302941 3
-94.282883 144.201861 -61.740221 3
-132.130181 137.148391 -48.544093 0
-131.148420 140.061106 -48.003366 0
-130.122167 142.886405 -47.504709 0
-129.134986 145.713142 -46.997844 0
-125.225654 145.624833 -48.196262 0
-121.310311 145.612492 -49.378937 0
-117.407770 145.692560 -50.535696 0
-111.729227 144.206971 -52.672661 3
-107.527685 144.204561 -53.951164 3
-103.238027 144.209718 -55.258503 3
-98.858518 144.224156 -56.594874 3
-94.328933 144.199804 -57.992145 3
-89.740279 144.218920 -59.399876 3
-128.015109 136.856831 -46.401860 0
-127.011662 139.759499 -45.892133 0
-126.015939 142.630144 -45.392573 0
-125.044891 145.486945 -44.893218 0
-121.340863 145.670605 -45.924340 0
-115.818828 144.208467 -47.938719 3
-111.724412 144.208302 -49.141381 3
-107.502030 144.175502 -50.394214 3
-103.243816 144.197427 -51.646621 3
-98.848283 144.186123 -52.952373 3
-94.387475 144.208775 -54.272251 3
-89.755704 144.179024 -55.660858 3
-85.087136 144.213787 -57.047252 3
-123.764185 136.493709 -44.271805 0
-122.798672 139.449736 -43.758140 0
-121.853212 142.385138 -43.247598 0
-118.732959 143.184115 -43.918920 3
-115.772158 144.181561 -44.496116 3
-111.678033 144.171113 -45.663093 3
-107.547234 144.210740 -46.830769 3
-103.274877 144.207734 -48.053385 3
-98.912500 144.213118 -49.303035 3
-94.433065 144.207084 -50.592733 3
-89.837744 144.195190 -51.920829 3
-85.166218 144.214270 -53.266521 3
-80.334278 144.199180 -54.671010 3
-115.443468 140.040973 -42.205046 3
-114.472801 142.971146 -41.726334 3
-111.681156 144.179692 -42.187967 3
-107.520872 144.181139 -43.335123 3
-103.274626 144.190379 -44.507107 3
-98.953537 144.220200 -45.697726 3
-94.458859 144.188873 -46.954987 3
-89.866141 144.167042 -48.240323 3
-85.216837 144.192052 -49.532980 3
-80.429574 144.200004 -50.871698 3
-75.521572 144.209722 -52.247111 3
-111.067435 139.771522 -39.987342 3
-110.135282 142.754641 -39.504667 3
-107.548790 144.200801 -39.840972 3
-103.299684 144.195647 -40.977577 3
-98.944989 144.184372 -42.146660 3
-94.523387 144.204021 -43.328964 3
-89.947657 144.183685 -44.565165 3
-85.307472 144.203103 -45.811993 3
-80.501382 144.182672 -47.116067 3
-75.623962 144.203293 -48.432527 3
-70.575615 144.190341 -49.806309 3
-106.638376 139.524023 -37.724128 3
-105.683361 142.503648 -37.267446 3
-103.332947 144.208344 -37.472839 3
-98.995350 144.200042 -38.595963 3
-94.555351 144.191733 -39.748017 3
-90.018625 144.191952 -40.925622 3
-85.323763 144.153855 -42.155734 3
-80.610461 144.195830 -43.374574 3
-75.721115 144.193487 -44.652164 3
-70.697377 144.185916 -45.968683 3
-65.564467 144.196980 -47.312131 3
-102.134350 139.279738 -35.423129 3
-101.233610 142.326289 -34.956052 3
-99.035619 144.207153 -35.078136 3
-94.600934 144.191371 -36.188919 3
-90.087796 144.199131 -37.316118 3
-85.457766 144.201435 -38.475957 3
-80.693843 144.189001 -39.674859 3
-75.858262 144.215790 -40.885189 3
-70.871828 144.222824 -42.140134 3
-65.720328 144.205098 -43.444476 3
-60.489259 144.231887 -44.761322 3
-96.665304 142.115565 -32.623577 3
-94.647411 144.192072 -32.656579 3
-90.159621 144.208925 -33.733491 3
-85.522526 144.192834 -34.855335 3
-80.802901 144.203345 -35.993163 3
-75.904791 144.167602 -37.185982 3
-70.976627 144.206960 -38.371760 3
-65.832508 144.181200 -39.625812 3
-60.572980 144.173164 -40.906014 3
-55.216066 144.199639 -42.204464 3
-92.030446 141.920367 -30.242545 3
-90.234199 144.221400 -30.176663 3
-85.570938 144.171302 -31.268094 3
-80.878642 144.191523 -32.353063 3
-76.036560 144.187021 -33.479478 3
-71.086112 144.195439 -34.629932 3
-66.009716 144.207158 -35.810574 3
-60.748695 144.183244 -37.043216 3
-55.408388 144.206853 -38.286126 3
-49.069605 143.629534 -39.888099 3
-87.289747 141.709515 -27.825366 3
-85.688187 144.206603 -27.679330 3
-80.981304 144.201837 -28.728716 3
-76.152022 144.194260 -29.807104 3
-71.218486 144.202258 -30.906806 3
-66.163155 144.216033 -32.033745 3
-60.920500 144.191368 -33.211454 3
-55.578728 144.199202 -34.406085 3
-82.463706 141.503382 -25.359285 3
-81.051087 144.186266 -25.142278 3
-76.260343 144.196487 -26.163610 3
-71.298092 144.169106 -27.229680 3
-66.289510 144.205257 -28.294259 3
-61.065397 144.180492 -29.417550 3
-55.541062 144.041948 -30.627890 3
-77.528362 141.285150 -22.848892 3
-76.340869 144.177411 -22.554784 3
-71.462013 144.201590 -23.547421 3
-66.415240 144.194746 -24.580638 3
-61.228339 144.183794 -25.643787 3
-54.690788 143.296767 -27.145992 3
-51.026666 9.943744 -47.878943 9
-49.619438 14.671351 -47.306259 9
-46.499446 17.302631 -47.441523 9
-72.497869 141.069448 -20.284328 3
-71.569624 144.191297 -19.909455 3
-66.537784 144.182532 -20.892579 3
-61.381430 144.180614 -21.898944 3
-150.004197 -7.870832 -27.492849 7
-148.517195 -2.544036 -26.870772 7
-145.659907 -0.104689 -26.994202 7
-149.917062 16.037802 -23.463743 7
-146.921039 17.824111 -23.723321 7
-142.525098 17.028495 -24.682272 7
-137.338940 14.927706 -26.010140 7
-131.225064 11.372648 -27.757935 7
-113.267312 2.749749 -32.582301 8
-113.082360 9.614416 -31.453734 8
-112.165378 15.119821 -30.692337 8
-110.730886 19.680825 -30.187656 8
-90.909910 -3.541243 -37.832731 8
-105.787027 25.431420 -30.137427 8
-96.916189 19.026566 -32.882418 8
-89.181943 14.582070 -35.082198 8
-68.778913 13.154703 -39.136362 9
-69.224817 20.135686 -37.867792 9
-66.563732 23.057211 -37.868412 9
-63.745716 25.768646 -37.933793 9
-60.873921 28.406917 -38.021424 9
-58.000887 31.039014 -38.110121 9
-54.837336 33.333183 -38.310224 9
-50.990485 34.867163 -38.766760 9
-41.296436 29.974083 -41.406000 9
-32.460599 26.308845 -43.676242 9
-20.848452 19.943789 -46.922888 9
-31.752041 104.339872 -30.513663 3
-42.057633 117.007221 -26.436498 3
-67.348308 140.840505 -17.668930 3
-66.566129 144.099764 -17.257502 3
-61.171833 143.909582 -18.291636 3
-149.915210 -15.774674 -24.372493 7
-147.581023 -11.984589 -24.197043 7
-143.955312 -10.909459 -24.687519 7
-140.340465 -9.781627 -25.167028 7
-149.612412 16.201074 -19.350089 7
-147.880351 20.344707 -19.006395 7
-143.377546 19.283755 -19.993615 7
-138.708474 18.051589 -21.037710 7
-134.538639 17.830655 -21.829620 7
-130.445146 17.831211 -22.571823 7
-126.295842 17.819758 -23.325469 7
-122.101815 17.817973 -24.085084 7
-116.139788 15.064033 -25.603083 8
-114.691215 19.596167 -25.141411 8
-112.764841 23.286655 -24.899880 8
-110.715031 26.720855 -24.720991 8
-108.403315 29.711013 -24.659753 8
-105.065838 31.184560 -25.025452 8
-100.144536 30.449066 -26.029453 8
-94.964063 29.473004 -27.118037 8
-89.449601 28.173560 -28.317918 8
-83.765042 26.791701 -29.560977 8
-73.475493 19.576732 -32.566417 8
-69.817694 21.185949 -32.964281 9
-69.016936 26.390603 -32.271506 9
-67.157005 30.190888 -31.993672 9
-64.024918 32.414084 -32.196720 9
-60.904504 34.661083 -32.393218 9
-57.684281 36.803514 -32.623776 9
-54.293627 38.769233 -32.912641 9
-50.327047 40.121749 -33.402627 9
-45.012402 40.061867 -34.360510 9
-38.535913 38.873053 -35.707287 9
-31.685815 37.446972 -37.158348 9
-24.580750 35.924098 -38.669815 9
-17.073777 34.168708 -40.289780 9
-1.599017 24.771745 -44.563922 9
-27.642875 96.271987 -28.322167 3
-38.306887 109.526761 -24.273989 3
-48.047056 121.634620 -20.575741 3
-57.017964 132.769638 -17.171757 3
-62.134746 140.643667 -14.980724 3
-59.914898 142.862774 -15.008747 3
-149.681609 -15.306496 -19.892466 7
-146.002569 -14.333002 -20.400341 7
-142.249242 -13.474045 -20.937338 7
-138.504800 -12.555563 -21.462896 7
-134.385172 -12.317790 -22.154839 7
-147.371854 20.096379 -15.043162 7
-145.487179 23.831008 -14.818899 7
-141.165122 23.106867 -15.686699 7
-136.884161 22.565398 -16.519098 7
-132.449437 21.863982 -17.401390 7
-127.876332 21.042019 -18.324974 7
-123.118665 20.035055 -19.307543 7
-118.163356 18.837546 -20.352186 7
-115.971988 22.105246 -20.244648 8
-114.202021 25.964302 -19.974018 8
-112.005551 29.104751 -19.884496 8
-109.829034 32.227460 -19.793197 8
-106.996040 34.360573 -19.963714 8
-102.952774 34.785504 -20.600243 8
-98.136636 34.212250 -21.520046 8
-93.105563 33.458740 -22.503225 8
-87.938679 32.644239 -23.518076 8
-82.702891 31.862990 -24.538780 8
-77.155601 30.808419 -25.653500 8
-71.458736 29.702621 -26.800689 8
-69.473678 33.268021 -26.600437 9
-62.936170 31.339744 -28.014749 9
-63.028617 37.362549 -27.082686 9
-59.736183 39.354122 -27.342701 9
-56.542452 41.477255 -27.564752 9
-52.941441 43.166548 -27.921514 9
-48.512938 43.993662 -28.550096 9
-42.916501 43.649528 -29.555758 9
-36.677391 42.752879 -30.754338 9
-30.330118 41.886246 -31.965629 9
-23.809133 40.987287 -33.210288 9
-16.906010 39.858454 -34.553987 9
-9.779260 38.671145 -35.943451 9
-2.095623 37.120102 -37.482061 9
5.827740 35.526175 -39.066656 9
14.436614 33.494238 -40.833489 9
33.097658 22.727977 -45.645556 9
-34.440003 101.778279 -22.015374 3
-44.552803 114.469468 -18.342064 3
-53.767986 126.054882 -14.990684 3
-58.323167 133.680634 -13.036878 3
-57.553630 137.071021 -12.635019 3
-147.478102 -19.010294 -16.354828 7
-143.516448 -18.544259 -16.972282 7
-139.645123 -17.835755 -17.539299 7
-135.673211 -17.274776 -18.142500 7
-131.791868 -16.482074 -18.696679 7
-149.642227 25.049770 -9.893274 7
-146.420345 26.203996 -10.282013 7
-142.296385 25.769579 -11.043602 7
-138.182049 25.448511 -11.786488 7
-133.974433 25.060300 -12.553222 7
-129.642865 24.560976 -13.355096 7
-125.335966 24.203554 -14.131657 7
-120.830475 23.624974 -14.971269 7
-85.936097 -24.380515 -27.562656 8
-115.467034 28.368276 -15.206611 8
-112.944885 30.953590 -15.265505 8
-110.606027 33.783350 -15.258011 8
-108.062271 36.285221 -15.329567 8
-104.557912 37.416559 -15.753197 8
-100.026035 37.170121 -16.541050 8
-95.254879 36.696287 -17.399448 8
-90.414488 36.236972 -18.265891 8
-85.356470 35.602384 -19.191828 8
-80.283186 35.063584 -20.105268 8
-75.095205 34.494786 -21.040472 8
-69.668707 33.750428 -22.038535 8
-67.936970 37.548651 -21.779282 9
-64.624613 39.440157 -22.050630 9
-61.333269 41.377882 -22.310479 9
-58.091212 43.392552 -22.549787 9
-54.723566 45.288056 -22.825280 9
-50.671513 46.467705 -23.313917 9
-45.811724 46.844152 -24.048333 9
-40.051784 46.370667 -25.050249 9
-33.963260 45.683885 -26.134805 9
-27.818902 45.073786 -27.215754 9
-21.485257 44.409773 -28.333577 9
-14.911269 43.650790 -29.502427 9
-8.062693 42.775219 -30.730912 9
5.999282 35.375735 -34.070496 9
6.291851 40.873823 -33.310632 9
13.967661 39.714386 -34.708543 9
22.077800 38.346002 -36.204960 9
30.593492 36.812313 -37.788781 9
-30.376513 93.684826 -19.674792 3
-40.856845 106.976138 -16.039976 3
-50.457390 119.141585 -12.710524 3
-54.366040 126.438647 -11.005757 3
-53.601443 129.934567 -10.605615 3
-149.653591 -22.276607 -11.948916 7
-145.710916 -21.776729 -12.545046 7
-141.699043 -21.360779 -13.161575 7
-137.639237 -20.977579 -13.788404 7
-133.549248 -20.587550 -14.417497 7
-129.446104 -20.156111 -15.041580 7
-149.589874 25.639095 -5.831495 7
-146.765595 27.491332 -6.058304 7
-142.838946 27.368925 -6.719169 7
-138.775343 27.089443 -7.421112 7
-134.746692 26.959029 -8.096387 7
-130.597958 26.712103 -8.804670 7
-126.383457 26.447539 -9.524252 7
-122.062617 26.104529 -10.269595 7
-117.774616 25.908311 -10.988771 7
-116.060048 29.735976 -10.765087 8
-113.550802 32.296457 -10.833526 8
-111.209055 35.078461 -10.844282 8
-108.691636 37.576453 -10.918802 8
-105.442190 39.026529 -11.246643 8
-101.157177 39.075751 -11.922787 8
-96.550048 38.773279 -12.694964 8
-91.862595 38.462789 -13.479210 8
-87.125099 38.187201 -14.264990 8
-82.200740 37.774102 -15.096815 8
-77.246898 37.430786 -15.922189 8
-72.043796 36.888721 -16.811512 8
-69.201625 39.282444 -16.935378 9
-65.841767 41.070178 -17.219803 9
-62.530062 42.938504 -17.484038 9
-59.204390 44.814402 -17.747597 9
-55.882821 46.718992 -18.004804 9
-52.164542 48.218355 -18.376598 9
-47.706178 48.973330 -18.962149 9
-42.242514 48.753427 -19.833740 9
-36.438051 48.296629 -20.788259 9
-30.589505 47.917823 -21.736967 9
-24.591454 47.513553 -22.710154 9
-18.312862 46.963800 -23.744301 9
-11.985707 46.500678 -24.771935 9
-5.258424 45.798955 -25.891471 9
1.506718 45.206334 -26.999609 9
8.617980 44.447857 -28.181205 9
15.886003 43.704024 -29.382387 9
23.498343 42.819691 -30.653050 9
-37.104078 99.262425 -13.618860 3
