ply
format ascii 1.0
element vertex 1381
property float x
property float y
property float z
property int scalar_Label
end_header
14.116468 139.795534 -210.069253 0
14.132933 137.376274 -208.296466 0
-149.004460 9.160030 -28.550556 7
-144.559728 6.874504 -29.206648 7
-140.334719 4.457851 -29.658067 7
-136.306428 1.916185 -29.921320 7
-132.493256 -0.778357 -29.966274 7
-128.902331 -3.645968 -29.774379 7
-125.632203 -6.790256 -29.217948 7
-122.790698 -10.333226 -28.151031 7
-120.633057 -14.547510 -26.239993 7
-105.633692 -12.543023 -35.693147 8
-103.115951 -16.308479 -34.319610 8
-101.731832 -21.304278 -31.457315 8
-18.376413 146.664825 -194.830782 0
-15.711936 145.683200 -195.490798 0
-11.430459 145.663592 -197.743903 0
-7.356796 145.612422 -199.865838 0
-1.642035 146.637823 -203.680563 0
0.556091 145.624592 -204.081123 0
4.299436 145.623256 -206.074094 0
7.927523 145.627635 -208.012773 0
13.004973 146.685350 -211.523843 0
14.124175 145.144934 -210.961392 0
14.151560 142.822784 -209.228227 0
14.170905 140.444947 -207.451594 0
14.171186 138.000703 -205.617608 0
-144.960124 13.584649 -26.736862 7
-140.283894 11.507571 -27.704094 7
-135.789583 9.341482 -28.512923 7
-131.465481 7.085736 -29.169102 7
-127.341592 4.704780 -29.629809 7
-123.402033 2.199920 -29.904562 7
-119.642185 -0.436790 -29.989910 7
-116.898546 -3.985083 -28.851951 7
-106.081618 0.037261 -37.731595 8
-102.379820 -2.446156 -37.917259 8
-99.080459 -5.307005 -37.609845 8
-95.970875 -8.360360 -37.062359 8
-93.150372 -11.725907 -36.132068 8
-90.717875 -15.534708 -34.668109 8
-89.000230 -20.180867 -32.200701 8
-89.400275 -27.311868 -26.745888 8
-17.312339 145.699765 -191.057585 0
-12.958424 145.661055 -193.401014 0
-8.739598 145.636227 -195.684308 0
-2.983877 146.621015 -199.590931 0
0.554083 146.386105 -201.345127 0
3.130786 145.616102 -202.162825 0
6.871802 145.642714 -204.235109 0
10.445436 145.640557 -206.195946 0
14.142815 145.802211 -208.353156 0
14.170955 143.468179 -206.578917 0
14.206311 141.088914 -204.776477 0
14.228998 138.648017 -202.922396 0
-141.518255 17.532713 -24.324336 7
-136.618733 15.643824 -25.596079 7
-131.905587 13.673333 -26.708047 7
-127.377689 11.611847 -27.653618 7
-123.012807 9.467420 -28.451181 7
-118.799836 7.239921 -29.106737 7
-111.508735 7.795688 -33.593502 8
-105.123146 7.711502 -37.095779 8
-101.180783 5.486585 -37.618749 8
-97.483676 3.060637 -37.857957 8
-93.872053 0.573306 -38.008304 8
-90.428538 -2.065857 -37.955202 8
-87.161873 -4.879653 -37.676549 8
-84.056827 -7.867030 -37.181710 8
-81.230593 -11.171320 -36.296922 8
-78.720202 -14.860225 -34.950495 8
-76.787154 -19.267014 -32.744720 8
-76.652402 -25.898455 -27.859567 8
-67.574969 -21.837481 -36.053623 9
-63.285799 -23.402314 -37.327055 9
-58.524907 -24.299924 -39.372498 9
-54.082933 -25.523508 -40.998239 9
-50.678910 -28.081442 -41.042167 9
-49.080025 -33.161074 -38.181535 9
-17.793278 146.355890 -187.635451 0
-14.498863 145.680507 -188.950158 0
-10.168550 145.660234 -191.365229 0
-4.405391 146.582667 -195.329995 0
-0.361282 146.601621 -197.619993 0
1.924943 145.608501 -198.127887 0
5.703180 145.606229 -200.256212 0
9.386768 145.625167 -202.350074 0
13.991478 146.353057 -205.521220 0
14.188625 144.121430 -203.889383 0
14.232832 141.735332 -202.052615 0
14.292809 139.308277 -200.195102 0
14.278166 136.770596 -198.211370 0
-134.037178 18.923991 -22.286956 7
-128.582595 17.541943 -24.317488 7
-123.843467 15.667521 -25.563482 7
-119.265341 13.722716 -26.668102 7
-116.887701 9.937097 -25.095982 7
-105.275048 14.297685 -35.108942 8
-101.085432 12.295289 -35.961614 8
-97.097140 10.152607 -36.595420 8
-93.203888 7.957550 -37.139080 8
-89.431181 5.678362 -37.553430 8
-85.755962 3.329335 -37.862697 8
-82.241663 0.836976 -37.973810 8
-78.844046 -1.764960 -37.938190 8
-75.579133 -4.504390 -37.725149 8
-72.482925 -7.434212 -37.273314 8
-66.499677 -7.043374 -41.041344 9
-62.466094 -8.796806 -42.042644 9
-57.978823 -9.949241 -43.771493 9
-52.504323 -9.785786 -47.084104 9
-48.058337 -10.794020 -48.908154 9
-44.692908 -13.146722 -49.081468 9
-41.909157 -16.282738 -48.322883 9
-39.514275 -20.000464 -46.898657 9
-37.487757 -24.320335 -44.805329 9
-36.266079 -29.939369 -41.257309 9
-16.178353 145.652822 -184.258617 0
-11.676193 145.667434 -186.869667 0
-5.755748 146.613389 -191.048570 0
-1.662448 146.605334 -193.409567 0
0.703077 145.614884 -193.987298 0
4.551126 145.603310 -196.207713 0
8.313985 145.621790 -198.404784 0
13.467442 146.663714 -202.226601 0
14.230652 144.801013 -201.187536 0
14.271630 142.399768 -199.302158 0
14.302811 139.937961 -197.364945 0
14.340027 137.424658 -195.392381 0
-131.689379 22.019680 -18.717754 7
-126.421492 20.478097 -20.573482 7
-121.285709 18.915313 -22.339635 7
-116.905507 16.803103 -23.233730 7
-106.441223 19.970707 -31.865730 8
-101.806791 18.326633 -33.286974 8
-97.554781 16.404843 -34.269012 8
-93.412190 14.433256 -35.151712 8
-89.380459 12.403439 -35.927537 8
-85.457862 10.309540 -36.592850 8
-81.669857 8.118077 -37.106298 8
-77.968328 5.868515 -37.527220 8
-74.360957 3.545791 -37.839233 8
-70.857014 1.131811 -38.022649 8
-66.973465 -0.840737 -38.780609 9
-60.501465 0.209159 -43.442047 9
-55.162578 0.120569 -46.544830 9
-50.120308 -0.190712 -49.301326 9
-46.092312 -1.646897 -50.564562 9
-42.694630 -3.855500 -50.869340 9
-39.679231 -6.555155 -50.567290 9
-36.745218 -9.380043 -50.123023 9
-33.943720 -12.413182 -49.441376 9
-31.274949 -15.673429 -48.507587 9
-28.793357 -19.261499 -47.210784 9
-26.615856 -23.384522 -45.319989 9
-25.061179 -28.590338 -42.218554 9
-17.477722 145.865991 -179.856050 0
-13.247539 145.668469 -182.206051 0
-8.865566 145.648765 -184.793168 0
-2.895819 146.675748 -189.178752 0
0.712276 146.403695 -191.103971 0
3.335420 145.583593 -191.998968 0
7.198402 145.612628 -194.324353 0
10.881711 145.609877 -196.518584 0
14.289291 145.501594 -198.464436 0
14.309972 143.073400 -196.509388 0
14.330032 140.589876 -194.510877 0
14.360968 138.057244 -192.480872 0
-129.985810 24.619289 -14.370392 7
-126.523808 21.628944 -14.030505 7
-119.015092 21.926912 -18.774875 7
-112.754456 21.373053 -22.087016 8
-103.302668 23.685276 -29.629170 8
-98.752457 21.980996 -30.994127 8
-94.368563 20.192581 -32.194892 8
-90.121583 18.336739 -33.262546 8
-85.988180 16.426804 -34.221817 8
-81.918149 14.504342 -35.136317 8
-77.987179 12.489343 -35.896110 8
-74.154907 10.413079 -36.550625 8
-68.503807 10.302017 -39.883351 9
-64.094751 8.979813 -41.497763 9
-59.631952 7.791309 -43.255124 9
-54.292662 7.691065 -46.417704 9
-49.341447 7.270020 -49.091626 9
-45.328814 5.825827 -50.381354 9
-41.855492 3.766280 -50.855200 9
-38.602205 1.446601 -50.990890 9
-35.425986 -0.968226 -51.007072 9
-32.341952 -3.508334 -50.870521 9
-29.321103 -6.145175 -50.621686 9
-26.387620 -8.923024 -50.210570 9
-23.568023 -11.894498 -49.579123 9
-20.864312 -15.080504 -48.709535 9
-18.330351 -18.585469 -47.485868 9
-16.056212 -22.584615 -45.713782 9
-14.246102 -27.464736 -42.960964 9
-15.022168 -36.968780 -34.953716 9
-17.936785 146.563746 -176.249937 0
-14.866838 145.674129 -177.384562 0
-10.349876 145.667997 -180.137643 0
-4.533913 146.532552 -184.408084 0
-0.248558 146.612691 -187.094343 0
2.144434 145.604308 -187.723164 0
6.025248 145.589533 -190.086386 0
9.808484 145.598730 -192.411170 0
14.254309 146.148017 -195.589791 0
14.371039 143.772900 -193.700235 0
14.398480 141.281483 -191.661343 0
14.412206 138.722194 -189.559497 0
-128.954173 26.711255 -9.162810 7
-122.931994 25.698170 -12.031881 7
-117.227757 24.548359 -14.595949 7
-112.325783 22.842994 -16.212248 8
-100.557920 27.056156 -26.926633 8
-96.041400 25.327552 -28.292347 8
-91.536660 23.653571 -29.698592 8
-87.147093 21.939555 -31.003818 8
-82.886582 20.165316 -32.182845 8
-78.739910 18.337212 -33.250248 8
-74.685483 16.469153 -34.230738 8
-68.757446 16.578872 -37.993200 9
-64.179110 15.417240 -39.882018 9
-59.775138 14.149584 -41.578826 9
-54.390544 14.054255 -44.845049 9
-49.336742 13.718798 -47.712440 9
-45.221742 12.398350 -49.194932 9
-41.619436 10.521641 -49.907355 9
-38.248030 8.389972 -50.270828 9
-34.903934 6.240962 -50.605865 9
-31.633352 4.010276 -50.831236 9
-28.428553 1.699666 -50.953185 9
-25.275232 -0.679329 -50.990038 9
-22.201779 -3.175062 -50.884713 9
-19.189120 -5.770829 -50.662735 9
-16.255137 -8.504037 -50.282515 9
-13.411663 -11.406741 -49.710613 9
-10.701158 -14.564293 -48.851116 9
-8.109259 -17.976789 -47.712997 9
-5.744817 -21.856806 -46.055439 9
-3.728310 -26.464243 -43.591970 9
-3.329615 -34.212935 -37.566622 9
-16.563388 145.670005 -172.367096 0
-11.935027 145.660465 -175.263559 0
-7.467061 145.661352 -178.069429 0
-1.899091 146.428355 -182.214012 0
0.899352 145.616797 -183.288103 0
4.823721 145.572879 -185.718344 0
8.698429 145.586222 -188.166792 0
13.874444 146.571939 -192.254074 0
14.399941 144.460057 -190.807743 0
14.416489 141.946839 -188.704384 0
14.457848 139.392994 -186.583648 0
14.472883 136.758730 -184.379898 0
-122.349705 27.409123 -6.230704 7
-113.835285 28.460019 -12.487571 8
-102.905920 31.734934 -22.137872 8
-98.064811 30.208835 -23.917700 8
-93.394041 28.613930 -25.534511 8
-88.888485 26.944628 -26.986816 8
-84.470100 25.262366 -28.375408 8
-80.093091 23.605551 -29.761392 8
-75.831606 21.900630 -31.036217 8
-71.670484 20.155123 -32.215746 8
-64.397117 21.660791 -38.089184 9
-59.636987 20.750191 -40.350950 9
-55.181168 19.606560 -42.227039 9
-49.926744 19.436344 -45.425345 9
-45.599413 18.337850 -47.261757 9
-41.857635 16.628886 -48.218593 9
-38.358323 14.669621 -48.814520 9
-34.885205 12.705978 -49.392238 9
-31.485031 10.675400 -49.869822 9
-28.147136 8.584109 -50.259244 9
-24.848083 6.456804 -50.596013 9
-21.622536 4.239933 -50.813426 9
-18.440790 1.966734 -50.958106 9
-15.323847 -0.400615 -50.985176 9
-12.248969 -2.837192 -50.929904 9
-9.267151 -5.431242 -50.686314 9
-6.314518 -8.094360 -50.368778 9
-3.469656 -10.966143 -49.811005 9
-0.727179 -14.057993 -49.007004 9
1.899195 -17.416325 -47.909477 9
4.363453 -21.152823 -46.396245 9
6.519656 -25.584828 -44.110347 9
7.533679 -32.436021 -39.086141 9
-17.397183 146.172385 -168.193761 0
-13.576526 145.653980 -170.211638 0
-8.988462 145.657837 -173.174510 0
-2.982130 146.615536 -177.873220 0
0.865480 146.402327 -180.173575 0
3.648763 145.598777 -181.280669 0
7.554250 145.575470 -183.783215 0
11.465351 145.647332 -186.371916 0
14.439497 145.165417 -187.880900 0
14.444132 142.629898 -185.710009 0
14.501532 140.072803 -183.555585 0
14.513509 137.420859 -181.291350 0
-123.166235 28.053055 1.489496 7
-114.140923 29.415217 -5.520764 8
-100.930143 34.463733 -18.398779 8
-95.891526 33.089307 -20.488146 8
-91.114630 31.577523 -22.292082 8
-86.423621 30.068419 -24.044296 8
-81.885674 28.496293 -25.645023 8
-77.486449 26.865041 -27.106865 8
-73.232402 25.159416 -28.412577 8
-66.174576 26.305335 -33.975712 9
-60.491496 26.263842 -37.633669 9
-55.331845 25.820449 -40.610028 9
-51.067083 24.531765 -42.284947 9
-46.422888 23.739022 -44.631202 9
-42.508945 22.209593 -45.875672 9
-38.871920 20.409454 -46.710650 9
-35.295190 18.574775 -47.478455 9
-31.774083 16.705911 -48.182421 9
-28.326095 14.775028 -48.787426 9
-24.909680 12.829386 -49.360794 9
-21.556495 10.822460 -49.842259 9
-18.251335 8.768073 -50.253504 9
-15.007645 6.640602 -50.563944 9
-11.823258 4.434823 -50.770549 9
-8.663680 2.194916 -50.933433 9
-5.575288 -0.157289 -50.955816 9
-2.511527 -2.557648 -50.922674 9
0.495969 -5.065356 -50.763010 9
3.402685 -7.769599 -50.371913 9
6.264085 -10.590790 -49.853332 9
9.063275 -13.572680 -49.159056 9
11.732077 -16.863366 -48.118666 9
14.254798 -20.526360 -46.667985 9
16.531349 -24.807265 -44.532928 9
18.111577 -30.734445 -40.545410 9
-18.261645 146.683444 -163.900095 0
-15.321959 145.624044 -164.920053 0
-10.548652 145.664352 -168.118521 0
-4.384644 146.639804 -173.057869 0
-0.080052 146.645072 -175.916122 0
2.409281 145.610331 -176.661418 0
6.377625 145.568919 -179.256959 0
10.292602 145.585282 -181.868161 0
14.448295 145.860834 -184.866196 0
14.493807 143.339706 -182.692770 0
14.545544 140.763751 -180.476072 0
14.576695 138.110658 -178.178828 0
-105.494043 37.483778 -10.554861 8
-99.446581 36.793809 -13.969919 8
-94.113312 35.638991 -16.505693 8
-89.092747 34.318361 -18.689965 8
-84.269007 32.914787 -20.672045 8
-79.612851 31.442795 -22.484025 8
-75.085526 29.928221 -24.174190 8
-68.697499 30.282408 -28.732808 9
-62.646572 30.480864 -32.932333 9
-56.738043 30.700687 -37.056686 9
-51.730421 30.139509 -39.901563 9
-47.677826 28.663788 -41.314524 9
-43.516433 27.371276 -42.960510 9
-39.734250 25.716218 -44.038988 9
-36.046795 23.998116 -45.000363 9
-32.424712 22.244149 -45.887861 9
-28.868428 20.447948 -46.695644 9
-25.351010 18.637838 -47.466320 9
-21.903256 16.769415 -48.140691 9
-18.495370 14.875717 -48.767381 9
-15.155363 12.912912 -49.289553 9
-11.826968 10.954066 -49.808330 9
-8.564465 8.916565 -50.215599 9
-5.355883 6.809547 -50.527304 9
-2.176900 4.663338 -50.786063 9
0.960796 2.453405 -50.962734 9
4.030186 0.126247 -50.992743 9
7.071111 -2.261373 -50.952075 9
10.054109 -4.769991 -50.768415 9
12.988372 -7.395804 -50.451219 9
15.859746 -10.179217 -49.955916 9
18.667075 -13.139832 -49.264709 9
21.386161 -16.347337 -48.300870 9
23.979544 -19.909558 -46.945662 9
26.369206 -24.040170 -44.961253 9
28.346138 -29.288059 -41.730935 9
-16.961255 145.689456 -159.624641 0
-12.198112 145.653918 -162.835329 0
-7.660481 145.596827 -165.873480 0
-1.509498 146.620286 -170.973522 0
1.097243 145.604526 -171.842835 0
5.237246 145.612032 -174.668422 0
9.144485 145.565169 -177.287237 0
14.207068 146.398021 -181.477026 0
14.547887 144.064015 -179.629170 0
14.590603 141.466804 -177.343916 0
14.623497 138.799301 -174.989517 0
-105.107363 38.990680 -4.507281 8
-98.464837 38.724687 -8.795701 8
-92.838022 37.773669 -11.782253 8
-87.559625 36.641773 -14.370645 8
-82.444692 35.470103 -16.812572 8
-77.610837 34.142755 -18.924649 8
-72.930657 32.759845 -20.882855 8
-65.539758 34.064868 -27.082505 9
-59.310319 34.457437 -31.678333 9
-53.627774 34.472795 -35.565823 9
-48.989670 33.548606 -37.905109 9
-44.917000 32.111759 -39.402807 9
-40.961217 30.610049 -40.763380 9
-37.142041 29.011676 -41.945069 9
-33.415387 27.356596 -43.013501 9
-29.743867 25.682006 -44.027277 9
-26.119685 23.993052 -44.996291 9
-22.575607 22.243607 -45.857138 9
-19.071260 20.478981 -46.677679 9
-15.616340 18.682090 -47.436096 9
-12.210685 16.847789 -48.127917 9
-8.859529 14.962710 -48.737675 9
-5.549356 13.040110 -49.286386 9
-2.272957 11.085504 -49.783876 9
0.939717 9.046118 -50.162753 9
4.134908 6.987910 -50.513254 9
7.277875 4.848266 -50.755965 9
10.378335 2.634439 -50.903973 9
13.454225 0.369992 -50.990483 9
16.488012 -1.984625 -50.968346 9
19.466752 -4.465352 -50.796759 9
22.400726 -7.066075 -50.488181 9
25.288630 -9.803496 -50.026872 9
28.119617 -12.717026 -49.370374 9
30.870754 -15.878763 -48.438912 9
33.537304 -19.328808 -47.193591 9
36.037437 -23.300191 -45.371291 9
38.205327 -28.275504 -42.429579 9
-17.425360 146.431967 -155.604945 0
-13.876110 145.663424 -157.388612 0
-9.245154 145.589901 -160.559604 0
-3.184184 146.480365 -165.605743 0
1.042093 146.403643 -168.490523 0
3.964079 145.597583 -169.800800 0
7.959893 145.547392 -172.548205 0
13.577139 146.688069 -177.510726 0
14.577546 144.783184 -176.478991 0
14.632202 142.179195 -174.150846 0
14.648681 139.483654 -171.712641 0
14.689747 136.738807 -169.246623 0
-98.641333 39.735658 -1.892619 8
-92.240587 39.355762 -6.018783 8
-86.532995 38.539476 -9.263654 8
-81.123262 37.587313 -12.176583 8
-75.992167 36.497975 -14.769823 8
-69.742440 36.553075 -19.184598 9
-62.824643 37.416293 -24.800437 9
-56.394294 38.011676 -29.831991 9
-51.028242 37.720407 -33.313707 9
-48.575744 34.523487 -32.118166 9
-42.597808 35.081269 -36.798676 9
-38.661872 33.563272 -38.165224 9
-34.819105 31.998021 -39.423437 9
-30.940197 30.529806 -40.794832 9
-27.205166 28.946430 -41.960733 9
-23.533227 27.334838 -43.056619 9
-19.935284 25.675472 -44.057092 9
-16.400732 23.975125 -44.975735 9
-12.894668 22.274959 -45.874358 9
-9.459472 20.512766 -46.666789 9
-6.064309 18.724960 -47.407678 9
-2.698738 16.922406 -48.114197 9
0.601190 15.045641 -48.707084 9
3.882554 13.160438 -49.279040 9
7.101583 11.191679 -49.731167 9
10.304216 9.207371 -50.157404 9
13.464106 7.157641 -50.493980 9
16.583562 5.038164 -50.738569 9
19.671291 2.856422 -50.904051 9
22.720339 0.590649 -50.965763 9
25.756242 -1.717887 -50.979072 9
28.727180 -4.184189 -50.803156 9
31.678773 -6.727681 -50.543168 9
34.586752 -9.413220 -50.123140 9
37.442738 -12.278136 -49.503238 9
40.230736 -15.383952 -48.616291 9
42.927700 -18.819739 -47.365130 9
45.360795 -23.088086 -45.171674 9
47.352006 -28.792991 -41.361873 9
48.625492 -36.928912 -34.837935 9
-15.680090 145.640381 -151.652182 0
-10.856501 145.603194 -155.081151 0
-4.558998 146.553655 -160.481699 0
0.101740 146.677480 -163.941576 0
2.663449 145.595195 -164.777725 0
6.761885 145.548461 -167.674989 0
10.896088 145.625472 -170.711972 0
14.640225 145.537750 -173.315985 0
14.673532 142.903748 -170.898597 0
14.694581 140.195558 -168.403096 0
14.734990 137.433196 -165.870690 0
-101.534811 38.597228 9.115030 8
-93.131265 39.727817 2.046569 8
-86.356253 39.727474 -2.804977 8
-80.309319 39.269322 -6.709196 8
-74.853705 38.426374 -9.831815 8
-67.533622 39.431489 -16.003767 9
-60.272899 40.607922 -22.291312 9
-53.805537 41.239151 -27.503859 9
-48.757961 40.631924 -30.549371 9
-44.415891 39.410071 -32.518306 9
-40.426026 37.891427 -33.958649 9
-36.394414 36.480244 -35.527748 9
-32.505405 34.972866 -36.904554 9
-28.662320 33.470272 -38.252042 9
-24.856732 31.979736 -39.583010 9
-21.134454 30.442003 -40.809643 9
-17.461956 28.892535 -41.988878 9
-13.874602 27.280338 -43.048041 9
-10.332807 25.650612 -44.057449 9
-6.841325 23.992215 -45.003350 9
-3.413858 22.279777 -45.852363 9
-0.023833 20.545373 -46.653303 9
3.332381 18.790056 -47.409744 9
6.646213 16.995660 -48.098667 9
9.907730 15.139523 -48.691895 9
13.144893 13.261054 -49.246051 9
16.345853 11.334922 -49.729105 9
19.501823 9.338020 -50.113274 9
22.651223 7.333896 -50.485116 9
25.745831 5.225118 -50.719520 9
28.814712 3.057709 -50.880055 9
31.876153 0.862289 -51.008262 9
34.888699 -1.456978 -50.985326 9
37.871593 -3.872051 -50.851060 9
40.823784 -6.398113 -50.590552 9
43.711085 -9.134548 -50.086831 9
46.427612 -12.382267 -48.984058 9
48.916457 -16.361769 -47.036143 9
51.115770 -21.344889 -43.945583 9
53.330814 -26.569288 -40.640069 9
55.220050 -33.119332 -35.865632 9
-17.029008 145.907808 -146.342488 0
-12.545200 145.609621 -149.367429 0
-7.645532 145.657089 -153.023860 0
-2.981554 145.682496 -156.484739 0
1.343435 145.611411 -159.603774 0
5.602663 145.603160 -162.732701 0
9.628445 145.545716 -165.642296 0
14.539376 146.193219 -169.868571 0
14.697135 143.628685 -167.560157 0
14.758133 140.932975 -165.055584 0
14.788600 138.146368 -162.441625 0
-88.374203 39.083452 7.148571 8
-80.730981 39.890513 0.774105 8
-74.538204 39.627573 -3.519963 8
-65.950097 41.733462 -11.815406 9
-58.024454 43.508737 -19.309767 9
-51.698902 43.991784 -24.403533 9
-46.839904 43.187462 -27.199258 9
-42.509214 41.944359 -29.189817 9
-38.389681 40.556305 -30.886482 9
-34.299290 39.206378 -32.596401 9
-30.348669 37.768426 -34.118805 9
-26.442425 36.342174 -35.618261 9
-22.636785 34.857210 -36.986754 9
-18.861950 33.391434 -38.349386 9
-15.150227 31.901850 -39.641684 9
-11.498478 30.387077 -40.864647 9
-7.895729 28.856553 -42.035284 9
-4.379408 27.252913 -43.071702 9
-0.891182 25.651064 -44.087772 9
2.530611 23.990763 -44.998193 9
5.909156 22.299532 -45.846083 9
9.257607 20.592855 -46.655789 9
12.548653 18.821337 -47.360361 9
15.818135 17.037491 -48.035944 9
19.055757 15.219485 -48.654237 9
22.268117 13.373650 -49.226084 9
25.430526 11.447720 -49.683691 9
28.581478 9.507030 -50.117351 9
31.692706 7.489977 -50.447759 9
34.765939 5.389636 -50.669561 9
37.836175 3.272134 -50.871255 9
40.880925 1.082041 -50.983613 9
43.871848 -1.259121 -50.911154 9
46.699341 -4.045999 -50.293080 9
49.375492 -7.305893 -49.112032 9
51.851187 -11.235902 -47.144124 9
54.152029 -15.854221 -44.390421 9
56.296696 -21.200362 -40.826586 9
59.012142 -25.101086 -39.054915 9
60.062670 -34.685721 -30.645801 9
-17.569946 146.649784 -141.938114 0
-14.241528 145.651045 -143.498703 0
-9.294173 145.649832 -147.242023 0
-4.646269 145.591118 -150.701957 0
-0.046302 145.616565 -154.205141 0
4.296363 145.593325 -157.465476 0
8.415502 145.531595 -160.518399 0
14.081756 146.621923 -165.848896 0
14.754584 144.390937 -164.205176 0
14.789147 141.659959 -161.596041 0
14.857621 138.883969 -158.967674 0
-75.818973 39.423801 5.497839 8
-64.843828 43.602856 -6.798909 9
-56.037662 46.161766 -15.893696 9
-49.977474 46.369372 -20.644724 9
-45.225053 45.439935 -23.309150 9
-40.827412 44.247198 -25.449628 9
-36.516168 43.047879 -27.516598 9
-32.351665 41.770311 -29.395305 9
-28.342741 40.392693 -31.058001 9
-24.354335 39.059482 -32.746192 9
-20.497301 37.637280 -34.247317 9
-16.678643 36.229564 -35.731566 9
-12.953473 34.763411 -37.086850 9
-9.264996 33.304979 -38.419999 9
-5.626286 31.833853 -39.701407 9
-2.039294 30.342809 -40.922615 9
1.488753 28.816200 -42.063015 9
4.955777 27.244300 -43.111606 9
8.370025 25.632477 -44.079780 9
11.754840 24.011496 -45.014924 9
15.078066 22.324155 -45.837346 9
18.383442 20.636357 -46.643866 9
21.651464 18.910777 -47.383585 9
24.873995 17.125841 -48.029408 9
28.069241 15.307643 -48.620330 9
31.243876 13.463568 -49.168517 9
34.387289 11.566611 -49.639725 9
37.507917 9.626675 -50.049882 9
40.611185 7.648812 -50.407938 9
43.672916 5.570300 -50.634685 9
46.593548 3.135453 -50.406484 9
49.359792 0.263241 -49.634224 9
51.983240 -3.074428 -48.298926 9
54.496037 -6.852136 -46.449111 9
56.938569 -11.013923 -44.169241 9
59.451153 -15.188694 -41.925901 9
62.032990 -19.378109 -39.716812 9
64.400346 -24.530030 -36.404860 9
-16.049254 145.671405 -137.332455 0
-9.334765 146.603248 -143.463673 0
-4.835205 146.411819 -146.770921 0
-1.522340 145.602965 -148.549043 0
2.975572 145.606423 -152.042425 0
7.251747 145.579588 -155.332177 0
11.497535 145.640910 -158.683195 0
14.803444 145.161065 -160.771826 0
14.854170 142.425255 -158.117279 0
14.881525 139.601640 -155.356360 0
14.918289 136.710137 -152.533986 0
-65.819385 43.579598 1.784289 9
-54.851229 48.062749 -11.097198 9
-51.657788 45.446396 -10.961668 9
-43.815830 47.490385 -19.015632 9
-39.293477 46.400396 -21.408337 9
-34.871793 45.297067 -23.707441 9
-30.637344 44.079035 -25.745983 9
-26.455709 42.882822 -27.762674 9
-22.416256 41.601645 -29.583006 9
-18.486020 40.262751 -31.259360 9
-14.613655 38.920399 -32.885034 9
-10.818931 37.545047 -34.415570 9
-7.114332 36.113208 -35.818091 9
-3.457263 34.674067 -37.174139 9
0.162560 33.238082 -38.502017 9
3.729207 31.779011 -39.763462 9
7.248956 30.300769 -40.967192 9
10.711167 28.781655 -42.083493 9
14.117631 27.217288 -43.109381 9
17.481036 25.621237 -44.068068 9
20.801795 23.988072 -44.954464 9
24.105701 22.357412 -45.827743 9
27.366168 20.677492 -46.616028 9
30.597744 18.968335 -47.350372 9
33.793491 17.210265 -48.005854 9
36.957915 15.404611 -48.587223 9
40.110940 13.586607 -49.144797 9
43.237136 11.717846 -49.628483 9
46.215029 9.504787 -49.652685 9
49.070445 6.964584 -49.254024 9
51.793395 4.027503 -48.355065 9
54.406967 0.701016 -46.980605 9
57.010214 -2.792107 -45.428380 9
59.552675 -6.622291 -43.489507 9
62.198518 -10.333943 -41.744102 9
64.984834 -13.786959 -40.360488 9
67.580291 -18.064447 -38.003418 9
69.622701 -24.600748 -32.961838 9
-16.937602 146.239072 -132.241928 0
-12.734151 145.673264 -135.030821 0
-7.743669 145.660760 -138.998055 0
-2.981507 145.635902 -142.768449 0
1.696070 145.678745 -146.536826 0
5.948277 145.567973 -149.810237 0
10.349355 145.663390 -153.406566 0
14.818447 145.922451 -157.218955 0
14.902663 143.193012 -154.543002 0
14.928697 140.350823 -151.705252 0
14.972567 137.445836 -148.816193 0
-54.368134 49.312714 -5.001744 9
-47.732591 49.976546 -10.903819 9
-42.680650 49.273005 -14.169546 9
-37.961793 48.349648 -16.946451 9
-33.441030 47.322511 -19.458490 9
-29.053491 46.247095 -21.813062 9
-24.784384 45.130264 -24.028838 9
-20.658885 43.933707 -26.047231 9
-16.633409 42.697479 -27.943198 9
-12.677968 41.450597 -29.769808 9
-8.857950 40.103909 -31.385232 9
-5.041664 38.818079 -33.056081 9
-1.361882 37.413586 -34.495811 9
2.297577 36.039166 -35.946744 9
5.875339 34.604617 -37.269087 9
9.407645 33.155171 -38.537266 9
12.894793 31.686500 -39.747132 9
16.371844 30.250255 -40.978737 9
19.788379 28.762186 -42.106866 9
23.143763 27.212461 -43.121002 9
26.464753 25.639589 -44.081303 9
29.752270 24.039914 -44.984764 9
32.996026 22.387684 -45.797083 9
36.223642 20.729871 -46.587730 9
39.428531 19.049491 -47.334233 9
42.584828 17.284877 -47.953449 9
45.640995 15.306031 -48.272378 9
48.573159 13.026916 -48.184377 9
51.366087 10.368948 -47.597065 9
54.068497 7.406046 -46.623679 9
56.729174 4.227641 -45.393410 9
59.405024 0.964446 -44.084063 9
62.048049 -2.537518 -42.500606 9
64.776728 -5.944223 -41.076879 9
67.739581 -8.752030 -40.444083 9
69.512731 -15.786376 -34.553051 5
72.234759 -19.950827 -32.333548 5
-14.552540 145.693534 -128.545865 0
-9.432198 145.673359 -132.717692 0
-4.529492 145.653113 -136.708308 0
0.185751 145.642426 -140.552420 0
5.075696 145.865179 -144.775070 0
8.993348 145.579232 -147.680338 0
14.544261 146.502293 -153.153937 0
14.959790 143.981869 -150.907275 0
14.975953 141.114916 -147.976923 0
15.023635 138.193673 -145.013704 0
-55.812681 48.777490 4.645541 9
-47.487980 50.947365 -4.323565 9
-42.026244 50.585570 -8.355965 9
-37.008530 49.916503 -11.707273 9
-32.289493 49.056869 -14.615753 9
-27.703459 48.162757 -17.376846 9
-23.360517 47.100753 -19.763628 9
-19.070129 46.070809 -22.137025 9
-14.954869 44.923632 -24.243548 9
-10.901402 43.783473 -26.303427 9
-6.970111 42.569007 -28.183720 9
-3.124778 41.316373 -29.951131 9
0.618224 39.995116 -31.560904 9
4.330292 38.695443 -33.164192 9
7.954293 37.332101 -34.626520 9
11.521849 35.942709 -36.012420 9
15.036917 34.527235 -37.325057 9
18.513009 33.101488 -38.591752 9
21.959297 31.676544 -39.831414 9
25.369753 30.238767 -41.025034 9
28.718743 28.737106 -42.098887 9
32.044123 27.232386 -43.146683 9
35.318166 25.667156 -44.086318 9
38.560411 24.071031 -44.964296 9
41.773675 22.443479 -45.782304 9
44.917389 20.688715 -46.407856 9
47.917323 18.617910 -46.584252 9
50.781143 16.206134 -46.291290 9
53.524544 13.445643 -45.533090 9
56.265655 10.596381 -44.675502 9
58.985613 7.594259 -43.636279 9
61.721794 4.524342 -42.534082 9
64.432226 1.250628 -41.192887 9
66.913386 -2.902127 -38.742757 9
69.735483 -6.172850 -37.482873 5
72.757285 -8.907707 -36.938587 5
75.736740 -11.914172 -36.070634 5
78.661877 -15.289820 -34.766735 5
81.491731 -19.277782 -32.738560 5
-13.813922 144.188127 -122.401359 3
-6.128592 145.680064 -130.410647 0
-1.303888 145.657189 -134.436127 0
3.336593 145.643394 -138.313083 0
9.292005 146.611218 -144.313967 0
12.124821 145.652841 -145.682737 0
15.006267 144.778887 -147.177309 0
15.041796 141.907920 -144.197330 0
15.074100 138.956305 -141.126809 0
-48.286733 50.933347 4.336395 9
-42.001301 51.286575 -1.234705 9
-36.600442 50.934625 -5.322355 9
-31.436864 50.482200 -9.102180 9
-26.685646 49.720843 -12.208840 9
-22.081197 48.911996 -15.138871 9
-17.672402 47.987937 -17.780237 9
-13.471390 46.916782 -20.089196 9
-9.275304 45.930213 -22.478968 9
-5.281735 44.778369 -24.521530 9
-1.346133 43.631201 -26.516510 9
2.519771 42.468653 -28.433016 9
6.255760 41.199340 -30.124395 9
9.910014 39.878606 -31.689154 9
13.547406 38.595740 -33.275668 9
17.090156 37.228661 -34.690124 9
20.610424 35.882218 -36.103457 9
24.066505 34.484694 -37.405064 9
27.460050 33.029803 -38.589594 9
30.856926 31.627660 -39.828499 9
34.222892 30.216484 -41.027854 9
37.532168 28.741307 -42.107874 9
40.807667 27.238084 -43.125691 9
44.020461 25.638773 -43.984910 9
47.079755 23.726988 -44.379848 9
50.018074 21.534983 -44.371305 9
52.842790 19.041556 -43.942327 9
55.626781 16.388425 -43.303829 9
58.402927 13.639527 -42.550926 9
61.225480 10.930990 -41.873604 9
64.171660 8.493092 -41.581711 9
66.564264 4.298922 -38.949325 9
69.412581 1.313969 -37.979122 5
72.510859 -0.956363 -37.973809 5
75.603315 -3.306507 -37.872604 5
78.670199 -5.827612 -37.561340 5
81.713030 -8.547300 -37.011292 5
84.741531 -11.464155 -36.231575 5
87.728153 -14.747125 -35.017645 5
90.646748 -18.607016 -33.120710 5
92.577075 -28.095545 -24.350570 5
-15.707802 144.190748 -115.402568 3
-10.369199 144.203982 -120.020960 3
-2.812659 145.699971 -128.123648 0
1.946272 145.681684 -132.200778 0
6.508026 145.662021 -136.102831 0
10.872921 145.632536 -139.821309 0
15.048038 145.589082 -143.358095 0
15.073319 142.692394 -140.278697 0
15.140497 139.746652 -137.178867 0
15.189224 136.704816 -133.956350 0
-43.627059 50.376012 9.233049 9
-36.934798 51.209111 2.666435 9
-31.209949 51.257658 -2.224980 9
-26.029822 50.891996 -6.200486 9
-21.174996 50.308439 -9.658691 9
-16.595846 49.535242 -12.672337 9
-12.088042 48.791755 -15.652234 9
-7.854805 47.822887 -18.149942 9
-3.721651 46.823472 -20.524424 9
0.313636 45.788104 -22.771771 9
4.219211 44.664350 -24.808205 9
8.031743 43.490236 -26.706033 9
11.774868 42.290721 -28.512383 9
15.473735 41.097153 -30.282615 9
19.045471 39.775248 -31.800772 9
22.616793 38.514210 -33.379616 9
26.108430 37.182602 -34.809276 9
29.522295 35.772004 -36.082161 9
32.945716 34.429560 -37.432194 9
36.299653 33.009648 -38.634091 9
39.636885 31.603918 -39.832228 9
42.965601 30.227734 -41.050308 9
46.124112 28.534707 -41.774000 9
49.142632 26.548479 -42.054159 9
52.029555 24.247589 -41.873980 9
54.995510 22.101626 -41.923761 9
57.749902 19.389317 -41.170039 9
60.641593 16.961092 -40.836328 9
63.472757 14.303799 -40.194588 9
66.441328 11.965046 -40.010936 9
69.424994 9.615315 -39.821697 9
71.958007 5.728311 -37.560858 5
75.095557 3.688187 -37.827257 5
78.221314 1.569432 -37.991318 5
81.325482 -0.682882 -37.984263 5
84.425942 -3.022899 -37.871240 5
87.516429 -5.498166 -37.594452 5
90.595991 -8.144245 -37.113625 5
93.658404 -11.033667 -36.343225 5
96.704323 -14.223674 -35.220135 5
99.712062 -17.924346 -33.493721 5
102.163513 -25.692699 -26.801921 5
-12.204283 144.198861 -112.940952 3
-6.989866 144.187330 -117.541552 3
-1.964610 144.197621 -121.993843 3
5.160388 145.688809 -129.907718 0
9.666744 145.677083 -133.868786 0
14.910150 146.293396 -139.160408 0
15.158326 143.531927 -136.359142 0
15.184468 140.537073 -133.102926 0
15.259814 137.494076 -129.832781 0
-40.881234 47.834074 18.080900 9
-32.175419 50.795004 7.255089 9
-26.156895 51.223123 1.574392 9
-20.729798 51.194499 -3.080425 9
-13.199863 53.775229 -12.446026 4
-8.411718 53.417061 -16.169198 4
-6.409449 49.747762 -13.797415 9
-2.184565 48.839471 -16.409213 9
1.768329 47.672567 -18.492130 9
5.788670 46.680601 -20.821707 9
9.723409 45.659935 -23.039344 9
13.524138 44.531202 -25.014962 9
17.255280 43.376209 -26.895289 9
20.918182 42.189785 -28.675783 9
24.531023 40.993997 -30.396764 9
28.046390 39.702842 -31.921478 9
31.544615 38.443479 -33.461021 9
34.971016 37.115299 -34.856029 9
38.326068 35.707180 -36.094448 9
41.708729 34.402829 -37.466735 9
45.009615 32.984972 -38.635941 9
48.248535 31.478360 -39.646672 9
51.356409 29.712214 -40.248234 9
54.249523 27.451342 -40.104847 9
57.198925 25.293503 -40.118621 9
60.070473 22.905777 -39.801106 9
62.840649 20.189480 -39.020969 9
65.833769 18.016338 -39.034697 9
68.665293 15.320756 -38.316098 9
71.201026 11.593804 -36.177056 5
74.378275 9.781754 -36.733143 5
77.532701 7.882057 -37.164515 5
80.675835 5.918920 -37.508118 5
83.818568 3.920800 -37.805189 5
86.943143 1.802712 -37.944586 5
90.069552 -0.372656 -38.013867 5
93.183354 -2.691121 -37.903612 5
96.292437 -5.147767 -37.625766 5
99.403788 -7.740133 -37.188726 5
102.509365 -10.557851 -36.483846 5
105.583329 -13.847983 -35.208773 5
108.452570 -19.089697 -31.538811 5
-14.121101 144.196307 -105.534199 3
-8.731581 144.195385 -110.429180 3
-3.578478 144.195125 -115.104788 3
1.358611 144.198100 -119.582752 3
8.358791 145.690194 -127.581525 0
14.273760 146.679664 -134.033225 0
15.191375 144.352258 -132.261850 0
15.250960 141.361404 -128.969528 0
-13.392406 65.513797 -17.700598 4
-12.536226 60.757358 -13.045379 4
-7.993783 60.105086 -16.314825 4
-4.345120 58.505302 -17.707783 4
-4.736440 51.956038 -9.885082 4
1.884396 54.101570 -18.156222 4
3.260308 49.606025 -14.219164 9
7.227820 48.516466 -16.445589 9
11.226532 47.559422 -18.843684 9
15.140267 46.573049 -21.126478 9
18.972237 45.553906 -23.292973 9
22.682320 44.429675 -25.225284 9
26.322177 43.268772 -27.047117 9
29.909527 42.092879 -28.798913 9
33.450439 40.906783 -30.491550 9
36.901909 39.625563 -31.990051 9
40.339966 38.379888 -33.510864 9
43.715276 37.071475 -34.898105 9
47.048778 35.732245 -36.206730 9
50.231998 34.117989 -37.061340 9
53.300900 32.270357 -37.540952 9
56.267316 30.182743 -37.648019 9
59.159272 27.889004 -37.445646 9
62.034004 25.507208 -37.119391 9
64.924845 23.114501 -36.787017 9
67.851920 20.766295 -36.529856 9
70.290400 16.874639 -34.059338 5
73.500168 15.220732 -34.833316 5
76.686578 13.500265 -35.503035 5
79.869058 11.767761 -36.148262 5
83.029813 9.949820 -36.668630 5
86.188695 8.107083 -37.151356 5
89.334182 6.181115 -37.518719 5
92.469486 4.165410 -37.765781 5
95.604885 2.087642 -37.933310 5
98.738916 -0.078640 -37.989186 5
101.873413 -2.349268 -37.916392 5
105.001876 -4.799867 -37.621204 5
108.026661 -8.195027 -36.130277 5
110.891338 -13.323316 -32.475858 5
113.603410 -20.793670 -25.952070 5
-16.115259 144.202500 -97.792505 3
-10.591579 144.182796 -102.923371 3
-5.275301 144.187730 -107.882569 3
-0.174906 144.203627 -112.647107 3
4.672093 144.196830 -117.144242 3
9.338520 144.203975 -121.483719 3
15.263548 145.218587 -128.134064 0
13.362212 140.796141 -121.317670 3
-14.340275 70.549137 -14.810564 1
-9.760147 69.891232 -18.205616 1
-5.033585 69.519559 -22.058532 1
-2.024823 67.304094 -22.198061 1
1.325279 65.505243 -23.124326 4
2.146454 60.613134 -18.145595 4
4.917239 58.034578 -17.621533 4
7.506735 55.195685 -16.621320 4
10.004466 52.190612 -15.335645 4
12.589140 49.255966 -14.202224 9
16.605414 48.388570 -16.769414 9
20.513297 47.458482 -19.157896 9
24.306147 46.442535 -21.334657 9
28.056751 45.446020 -23.488633 9
31.697374 44.349942 -25.419529 9
35.254147 43.184273 -27.185998 9
38.763886 42.004519 -28.886279 9
42.253329 40.856461 -30.598203 9
45.644084 39.581664 -32.065368 9
48.960828 38.211438 -33.346625 9
52.103265 36.508660 -34.073049 9
55.159326 34.626654 -34.503453 9
58.072944 32.402772 -34.395814 9
61.007298 30.197084 -34.319944 9
63.945575 27.966468 -34.209935 9
66.881547 25.688374 -34.033517 9
69.808242 23.333503 -33.749730 9
72.481686 20.134923 -32.234440 5
75.710739 18.586163 -33.155753 5
78.912718 16.968210 -33.963343 5
82.114012 15.361332 -34.775611 5
85.288833 13.663370 -35.448569 5
88.457576 11.937042 -36.074516 5
91.611961 10.135603 -36.590538 5
94.769378 8.321902 -37.086512 5
97.914419 6.409155 -37.445577 5
101.062468 4.454748 -37.749348 5
104.205563 2.393989 -37.913642 5
107.291185 -0.168083 -37.421367 5
110.253833 -3.901713 -35.414688 5
113.114718 -9.066556 -31.599870 5
116.033384 -14.708067 -27.253324 5
-12.490634 144.199816 -95.133676 3
-7.019046 144.200624 -100.370683 3
-1.801312 144.196205 -105.352010 3
3.208622 144.204464 -110.142905 3
7.971521 144.190220 -114.665457 3
12.579970 144.204975 -119.068297 3
13.420591 141.664378 -116.897807 3
-14.399593 96.435615 -37.422954 3
-12.461001 93.463865 -35.731414 3
-11.701008 89.342737 -31.565027 3
-14.656075 70.761834 -6.738191 1
-4.653001 75.846815 -22.108439 1
-1.716761 73.593578 -22.150488 1
1.232732 71.361555 -22.221262 1
4.157741 69.106328 -22.232727 1
6.067272 65.598279 -19.797120 1
7.674321 61.613714 -16.502484 4
10.146301 58.652990 -15.223638 4
12.415246 55.362273 -13.352761 4
14.517229 51.756691 -10.941003 4
17.831714 49.846020 -11.670234 9
21.898451 49.118343 -14.503062 9
24.359434 45.940867 -12.907707 9
29.647975 47.380209 -19.450506 9
33.335745 46.343811 -21.538703 9
37.001112 45.354235 -23.654368 9
40.561459 44.257900 -25.536985 9
44.058543 43.117831 -27.300749 9
47.490434 41.919902 -28.926910 9
50.772279 40.471897 -30.105988 9
53.895564 38.716863 -30.761208 9
56.898466 36.697306 -30.978408 9
59.857700 34.559425 -31.003930 9
62.823652 32.412453 -31.015619 9
65.769317 30.181009 -30.897583 9
68.722980 27.929996 -30.753989 9
71.180763 24.157164 -28.305945 5
74.474926 22.786896 -29.520512 5
77.849598 21.731764 -31.182244 5
81.075331 20.236410 -32.166314 5
84.285544 18.711463 -33.091864 5
87.477912 17.137582 -33.933208 5
90.654200 15.507825 -34.683386 5
93.825583 13.856963 -35.394713 5
96.982565 12.128676 -35.989910 5
100.141546 10.387343 -36.562085 5
103.288553 8.542968 -36.988746 5
106.403764 6.432287 -37.052388 5
109.433676 3.580904 -36.124455 5
112.354506 -0.471860 -33.618387 5
115.307523 -4.924009 -30.639629 5
118.420873 -8.607624 -28.732361 6
121.643643 -11.732333 -27.595601 6
124.871904 -15.493680 -25.671060 6
-14.511630 144.202251 -86.910071 3
-8.873342 144.199249 -92.448774 3
-3.489024 144.199073 -97.733662 3
1.648131 144.194537 -102.763417 3
6.577693 144.200097 -107.594498 3
11.278148 144.191710 -112.177705 3
13.486029 142.557937 -112.379514 3
13.523437 139.350942 -108.576583 3
-15.331305 109.927763 -45.217254 3
-13.486970 107.078978 -43.575942 3
-11.605499 104.223954 -41.953991 3
-9.690670 101.359713 -40.344036 3
-7.782134 98.450474 -38.664451 3
-5.828238 95.540629 -37.018609 3
-3.878509 92.583291 -35.301908 3
-4.797159 81.532014 -20.977589 1
-1.577583 79.605220 -21.702272 1
1.514766 77.566957 -22.159883 1
4.439975 75.356580 -22.238383 1
6.065049 71.602360 -19.182850 1
6.982240 66.865977 -14.242898 1
10.269948 64.985668 -15.040161 4
12.524024 61.762792 -13.202208 4
14.642989 58.282130 -10.909891 4
15.912930 53.494839 -6.200057 4
18.836865 50.969215 -5.820426 9
23.086007 50.466902 -9.168890 9
27.113595 49.746267 -12.030612 9
31.075746 49.034564 -14.832496 9
34.889982 48.183749 -17.314727 9
38.627951 47.299979 -19.675594 9
42.237298 46.275024 -21.732507 9
45.798553 45.243402 -23.727096 9
49.227150 44.026028 -25.358921 9
52.465619 42.469944 -26.384896 9
55.589320 40.692858 -27.020781 9
58.583131 38.624635 -27.165312 9
61.602982 36.603682 -27.382977 9
64.559163 34.403511 -27.309273 9
67.552199 32.267365 -27.339403 9
70.029166 28.621612 -25.004427 9
72.655129 25.222192 -23.102405 5
76.519666 25.595051 -27.031035 5
79.787670 24.207472 -28.207886 5
83.043214 22.819934 -29.364046 5
86.394231 21.841930 -31.109912 5
89.597034 20.354503 -32.074552 5
92.795195 18.871529 -33.031134 5
95.968574 17.293921 -33.837272 5
99.139742 15.709237 -34.623025 5
102.300618 14.065666 -35.316081 5
105.446257 12.310924 -35.846259 5
108.504965 9.919498 -35.488857 5
111.469300 6.610163 -33.882809 5
114.415240 2.674801 -31.461729 5
117.502114 -0.602101 -29.983009 6
120.728636 -2.898679 -29.851406 6
123.968044 -5.359679 -29.513512 6
127.222683 -8.071282 -28.862430 6
130.502943 -11.045453 -27.891759 6
133.810433 -14.593021 -26.210228 6
-10.837693 144.188543 -84.097285 3
-5.262628 144.200749 -89.733709 3
0.026557 144.193640 -95.050245 3
5.074052 144.181927 -100.109819 3
9.936779 144.192429 -105.002834 3
13.544999 143.468208 -107.732953 3
13.594744 140.247452 -103.838761 3
-12.572346 117.218183 -49.455480 3
-10.749262 114.466406 -47.889909 3
-8.896671 111.704773 -46.331897 3
-7.038106 108.913428 -44.733448 3
-5.128979 106.128640 -43.183477 3
-3.240620 103.288086 -41.534110 3
-1.314086 100.441370 -39.904957 3
0.660590 97.598425 -38.318048 3
2.626660 94.704094 -36.648785 3
4.521082 91.688682 -34.748277 3
1.080956 82.912317 -20.419690 1
4.341245 81.085904 -21.320981 1
6.091785 77.560795 -18.611786 1
4.326271 69.758470 -7.105436 1
9.712915 70.377986 -13.112043 1
12.049298 67.312091 -11.516693 1
14.741225 64.659420 -10.774741 4
15.970046 59.959772 -6.029018 4
17.034548 54.836835 -0.579650 4
19.253644 51.209315 1.881477 9
23.884893 51.205694 -2.544428 9
28.231151 50.925180 -6.335940 9
32.336913 50.399869 -9.576583 9
36.277788 49.723536 -12.457707 9
40.092409 48.940480 -15.072571 9
43.817825 48.100873 -17.520344 9
47.432052 47.147949 -19.708152 9
50.837028 45.858295 -21.258855 9
54.056842 44.232361 -22.195774 9
57.160910 42.375454 -22.718573 9
60.185446 40.336715 -22.923958 9
63.235878 38.348845 -23.208073 9
66.260228 36.281621 -23.355742 9
69.305652 34.250113 -23.558202 9
71.808805 30.620966 -21.198469 5
75.171148 29.423924 -22.743596 5
78.506403 28.210484 -24.232244 5
81.800625 26.924327 -25.579284 5
85.091501 25.684833 -26.972872 5
88.335262 24.324531 -28.157531 5
91.558193 22.922761 -29.259417 5
94.861371 21.922950 -30.941877 5
98.059535 20.510190 -31.986459 5
101.238326 19.025964 -32.911005 5
104.399728 17.456180 -33.699107 5
107.501150 15.496249 -33.919125 5
110.509250 12.773240 -33.059176 5
113.471536 9.381196 -31.282786 5
116.507716 6.131379 -29.745024 5
119.699551 3.955385 -29.723316 6
122.927174 1.954818 -29.949454 6
126.163806 -0.167884 -30.014660 6
129.414922 -2.419033 -29.915433 6
132.684941 -4.839888 -29.602048 6
135.981419 -7.430643 -29.080647 6
139.310579 -10.326652 -28.181047 6
142.686330 -13.734386 -26.647425 6
-12.882994 144.190154 -75.345635 3
-7.134222 144.198157 -81.311672 3
-1.655879 144.205351 -86.987392 3
3.548140 144.196434 -92.350410 3
8.550536 144.206250 -97.519796 3
13.330098 144.211048 -102.444639 3
13.678367 141.174723 -98.998323 3
-8.111643 121.555586 -52.022910 3
-6.293492 118.876237 -50.513110 3
-4.476504 116.164199 -48.950590 3
-2.625341 113.446029 -47.404803 3
-0.750617 110.712816 -45.853537 3
1.136313 107.953657 -44.271310 3
3.066372 105.195157 -42.723117 3
5.012343 102.412253 -41.149403 3
6.979421 99.608298 -39.559546 3
8.957253 96.771248 -37.927598 3
10.984739 93.939863 -36.342073 3
12.671461 90.684273 -33.860654 3
5.781941 77.519277 -10.073325 1
8.622609 75.103094 -9.800680 1
10.891027 71.973934 -8.028761 1
14.376641 70.340383 -9.382249 1
16.335383 66.727952 -6.656104 1
17.040590 61.280991 -0.307165 4
18.192532 49.233802 14.175433 9
24.045559 50.941981 6.220833 9
28.823362 51.243639 1.158939 9
33.241665 51.152771 -3.029116 9
37.426164 50.830164 -6.675657 9
41.449210 50.369709 -9.973798 9
45.245975 49.622125 -12.666146 9
48.907396 48.722927 -15.017963 9
52.323473 47.416105 -16.588490 9
55.544458 45.748304 -17.487243 9
58.614466 43.763902 -17.814738 9
61.701434 41.815332 -18.193953 9
64.778290 39.837563 -18.513678 9
67.868573 37.885971 -18.869066 9
70.186399 33.765162 -15.626786 5
73.638849 32.738463 -17.519103 5
77.055795 31.695571 -19.345166 5
80.447796 30.662769 -21.149693 5
83.762433 29.451185 -22.634452 5
87.069409 28.281365 -24.155871 5
90.334550 27.018904 -25.504613 5
93.584196 25.751326 -26.820924 5
96.807610 24.421542 -28.019400 5
100.018487 23.077258 -29.175872 5
103.269111 21.997499 -30.708045 5
106.432169 20.481220 -31.570332 5
109.485591 18.231877 -31.349296 5
112.477851 15.347561 -30.218900 5
115.505840 12.398008 -29.022728 5
118.613844 9.787191 -28.336873 6
121.832649 8.044771 -28.892371 6
125.055809 6.233366 -29.348639 6
128.286080 4.336568 -29.686273 6
131.527034 2.336764 -29.884955 6
134.784620 0.267264 -29.994139 6
138.061171 -1.950462 -29.911355 6
141.363406 -4.291809 -29.675086 6
144.697581 -6.809203 -29.220923 6
148.074762 -9.629276 -28.389902 6
-15.021489 144.201616 -66.152302 3
-9.115115 144.189310 -72.425672 3
-3.450242 144.202018 -78.463476 3
1.925447 144.198813 -84.163768 3
7.062619 144.198595 -89.605085 3
11.986995 144.207439 -94.823086 3
13.737316 142.107289 -93.977473 3
-3.782880 125.763682 -54.520582 3
-2.001212 123.130133 -53.002033 3
-0.169097 120.504978 -51.536256 3
1.627067 117.818803 -49.942881 3
3.517488 115.176826 -48.494180 3
5.404967 112.498792 -46.984452 3
7.298141 109.789362 -45.428615 3
9.229031 107.076375 -43.896058 3
11.183939 104.346800 -42.355420 3
13.148978 101.585424 -40.772300 3
14.523522 98.151383 -37.687280 3
14.606827 93.197708 -31.267298 3
10.123840 82.810379 -13.003307 1
11.041653 78.212168 -7.882772 1
5.694145 65.716139 14.069996 4
14.263894 70.245892 -0.642829 1
17.828257 68.661276 -2.163234 1
28.243306 49.643581 12.648615 9
33.627396 51.009900 5.447958 9
38.208146 51.272541 0.536640 9
42.451648 51.129656 -3.483699 9
46.504032 50.797605 -7.048291 9
50.196554 49.903483 -9.490506 9
53.616183 48.543527 -11.025578 9
56.870857 46.882513 -11.981259 9
59.964050 44.879673 -12.306171 9
63.109787 42.998823 -12.834174 9
66.245488 41.096959 -13.311521 9
69.386812 39.209997 -13.801898 9
71.861579 35.429119 -11.076348 5
75.410355 34.650652 -13.433230 5
78.878599 33.743931 -15.526652 5
82.289418 32.756063 -17.442727 5
85.674454 31.778602 -19.335902 5
89.003699 30.691507 -21.014966 5
92.288923 29.512827 -22.515701 5
95.566846 28.378620 -24.057675 5
98.809224 27.157208 -25.435466 5
102.029220 25.887821 -26.714839 5
105.225954 24.544892 -27.860259 5
108.368249 22.900544 -28.532579 5
111.436602 20.706807 -28.376018 5
114.427966 17.725079 -27.062583 5
117.484296 14.907285 -26.019967 6
120.704516 13.382087 -26.877361 6
123.921060 11.779424 -27.613439 6
127.137472 10.087759 -28.215670 6
130.361803 8.375039 -28.784012 6
133.593918 6.591528 -29.250433 6
136.837527 4.736575 -29.617320 6
140.096141 2.783819 -29.851756 6
143.374252 0.760137 -29.994340 6
146.676859 -1.402393 -29.956680 6
150.884249 -27.875932 2.480667 6
-5.343537 144.196571 -69.478776 3
0.206440 144.193869 -75.528334 3
5.519216 144.204073 -81.325314 3
10.552873 144.187514 -86.773010 3
13.815506 143.077819 -88.854524 3
13.872480 139.689249 -84.457798 3
2.176639 127.267548 -55.444533 3
3.995259 124.704376 -54.016847 3
5.806318 122.105008 -52.521364 3
7.663118 119.511284 -51.070694 3
9.521128 116.885451 -49.566787 3
11.409567 114.251319 -48.072455 3
13.315526 111.596547 -46.557302 3
14.447341 108.141230 -43.135486 3
14.515232 103.499948 -36.982567 3
9.940660 93.752416 -19.043976 3
14.249203 93.191888 -22.836277 3
14.800626 88.473537 -17.052611 3
13.790203 81.711305 -6.854552 1
12.966928 74.828184 3.324387 1
14.500050 70.599720 7.456945 1
18.165419 69.056925 5.735630 1
21.231999 66.749339 5.690649 1
38.037117 50.000648 11.327148 9
43.062980 51.138812 4.653386 9
47.410807 51.268544 0.068743 9
51.232462 50.543165 -2.792198 9
54.713854 49.224711 -4.478580 9
57.964076 47.461874 -5.305521 9
61.157146 45.589049 -5.909516 9
64.414144 43.883090 -6.794451 9
67.608542 42.040521 -7.414264 9
69.986756 37.978471 -4.134845 9
73.410407 36.684047 -5.714238 5
77.055677 36.137450 -8.536517 5
80.606663 35.446850 -11.052525 5
84.093749 34.681168 -13.388085 5
87.509811 33.791049 -15.467786 5
90.869871 32.801563 -17.341325 5
94.208430 31.829685 -19.205285 5
97.501631 30.762690 -20.879603 5
100.757870 29.610400 -22.386183 5
104.006909 28.504142 -23.936977 5
107.198365 27.147439 -25.069881 5
