ply
format ascii 1.0
element vertex 1394
property float x
property float y
property float z
property int scalar_Label
end_header
90.560938 -30.419089 26.684504 5
87.966896 -30.284530 26.832100 5
85.380851 -30.147999 26.976383 5
82.798263 -30.029540 27.115030 5
80.236620 -29.836563 27.259023 5
77.667819 -29.711324 27.391577 5
75.101457 -29.605967 27.518349 5
72.545882 -29.468575 27.645564 5
69.989074 -29.370295 27.764740 5
68.185976 -23.891603 28.529459 5
64.875896 -29.280013 27.980240 5
64.651141 -9.812354 30.440034 5
59.592328 -30.921038 27.971714 9
56.802063 -33.537477 27.742418 9
54.070225 -36.117673 27.512557 9
51.408596 -38.495805 27.302635 9
48.817121 -40.582643 27.123933 9
46.294528 -42.253303 26.992219 9
43.847322 -43.141097 26.953267 9
41.433437 -43.694807 26.952201 9
39.054460 -43.556949 27.033704 9
36.672350 -43.493694 27.103027 9
34.289602 -43.448127 27.167217 9
31.906442 -43.385354 27.230628 9
29.522188 -43.346058 27.288192 9
27.137134 -43.332661 27.339599 9
24.749477 -43.260057 27.395516 9
22.360318 -43.221521 27.444262 9
19.967962 -43.166094 27.492235 9
17.575070 -43.160071 27.531094 9
15.179603 -43.155589 27.566853 9
12.777578 -43.103495 27.605718 9
10.373230 -43.076692 27.638494 9
7.959511 -42.995820 27.675205 9
5.549389 -43.007284 27.697336 9
3.129816 -42.974519 27.722151 9
0.706995 -42.962694 27.741396 9
-1.722702 -42.942954 27.758718 9
-4.154668 -42.952723 27.769365 9
-6.595269 -42.947149 27.779011 9
-9.044190 -42.933831 27.786683 9
-11.497245 -42.941330 27.788747 9
-13.967086 -42.898843 27.794170 9
-16.437484 -42.901746 27.790837 9
-18.907928 -42.948227 27.778963 9
-21.395745 -42.952171 27.769455 9
-23.895003 -42.948472 27.757866 9
-26.404714 -42.944575 27.743230 9
-28.919579 -42.964599 27.722471 9
-31.440102 -43.005698 27.695932 9
-33.985105 -42.995411 27.672755 9
-36.529935 -43.032238 27.640455 9
-39.095891 -43.037434 27.608957 9
-41.679093 -43.029514 27.575886 9
-44.438889 -42.485731 27.607019 9
-47.515585 -41.014232 27.751332 9
-51.103763 -38.107442 28.072008 9
-55.074944 -34.288715 28.502513 9
-59.298554 -30.024343 28.983763 9
-64.656044 -22.883777 29.818965 8
-65.564710 -28.338610 29.076285 8
-68.416349 -28.389438 29.005118 8
-71.271208 -28.481034 28.925113 8
-74.143446 -28.576407 28.840838 8
-77.043444 -28.651760 28.755186 8
-79.948118 -28.765106 28.660930 8
-82.865699 -28.896255 28.560532 8
-85.796691 -29.044442 28.454047 8
-88.769992 -29.146828 28.349118 8
-91.758451 -29.266524 28.237937 8
-94.815179 -29.293356 28.133850 8
-97.863596 -29.391496 28.016782 8
-100.932345 -29.500828 27.894007 8
-104.016641 -29.631625 27.764224 8
-107.639196 -28.793943 27.746049 8
-145.193335 -5.625721 29.467642 7
-147.952791 -7.243938 29.107126 7
112.445352 -20.820150 29.902419 5
107.820411 -27.029723 29.283606 5
106.773210 -20.991937 30.190344 5
102.190143 -27.635811 29.502091 5
99.534278 -27.439558 29.668481 5
96.883960 -27.255785 29.829874 5
94.238271 -27.087677 29.985885 5
91.598451 -26.929593 30.137253 5
88.983085 -26.695748 30.295031 5
86.353124 -26.559417 30.437008 5
83.736980 -26.390122 30.579977 5
81.111251 -26.303650 30.708974 5
78.505947 -26.143595 30.844312 5
75.910403 -25.957043 30.979959 5
73.316070 -25.789619 31.109993 5
70.724193 -25.633549 31.235441 5
68.136469 -25.475660 31.358053 5
65.552517 -25.314808 31.478009 5
64.675418 -10.983199 33.475238 5
60.383346 -25.077844 31.697600 9
57.432126 -28.641259 31.311810 9
54.580623 -31.920370 30.958652 9
51.828184 -34.813682 30.652141 9
49.161158 -37.346932 30.389301 9
46.588751 -39.193952 30.214469 9
44.092471 -40.317876 30.133293 9
41.645017 -40.856180 30.127854 9
39.233647 -40.667401 30.217813 9
36.949917 -34.911664 31.060277 9
34.397206 -40.738217 30.328813 9
31.981548 -40.599900 30.403826 9
29.563876 -40.582157 30.459737 9
27.144020 -40.472535 30.525481 9
24.723216 -40.445017 30.577334 9
22.299290 -40.380187 30.631602 9
19.872346 -40.314590 30.683298 9
17.443783 -40.282710 30.727694 9
15.009901 -40.217695 30.773960 9
12.573658 -40.179089 30.813921 9
10.135331 -40.166255 30.847655 9
7.691414 -40.137990 30.880826 9
5.236743 -40.052591 30.919187 9
2.781962 -40.023888 30.947047 9
0.324252 -40.018837 30.968945 9
-2.145413 -39.967091 30.994586 9
-4.616057 -39.959158 31.011467 9
-7.088609 -39.983426 31.021175 9
-9.580743 -39.927260 31.039272 9
-12.075488 -39.906543 31.049729 9
-14.570181 -39.932805 31.050935 9
-17.083541 -39.903254 31.057095 9
-19.593835 -39.936735 31.051755 9
-22.127035 -39.903601 31.052834 9
-24.647888 -39.974591 31.036698 9
-27.204447 -39.930532 31.033641 9
-29.748383 -39.988189 31.013672 9
-32.311294 -40.011771 30.995544 9
-34.895474 -39.998551 30.979606 9
-37.487064 -40.005587 30.957952 9
-40.086538 -40.030957 30.930826 9
-42.740349 -39.916146 30.920049 9
-45.705931 -38.829596 31.040031 9
-49.129929 -36.404251 31.340845 9
-53.255773 -32.024108 31.906491 9
-57.954995 -26.261942 32.657325 9
-64.690586 -15.024104 34.153629 8
-66.830156 -17.394133 33.779580 8
-69.764535 -17.517175 33.710102 8
-72.703680 -17.674478 33.632452 8
-75.664812 -17.820808 33.552775 8
-78.642779 -17.971737 33.468901 8
-81.635255 -18.134353 33.379825 8
-84.651678 -18.287241 33.288411 8
-87.677680 -18.466010 33.189784 8
-90.716580 -18.663025 33.084943 8
-93.767932 -18.879669 32.973665 8
-96.863446 -19.048699 32.864947 8
-99.959445 -19.266148 32.745813 8
-103.078657 -19.484224 32.622640 8
-106.830910 -18.497029 32.656159 8
-107.146304 -24.262048 31.786885 8
105.529955 -16.328479 34.132807 5
102.675001 -16.417281 34.260752 5
99.962613 -15.997575 34.455659 5
97.247329 -15.607230 34.643477 5
94.540632 -15.197965 34.830935 5
91.864364 -14.665564 35.032690 5
89.164181 -14.248578 35.215412 5
86.471353 -13.805551 35.398912 5
83.785229 -13.333132 35.583723 5
81.114901 -12.773168 35.778151 5
78.441808 -12.216536 35.969399 5
75.759600 -11.700496 36.152164 5
73.097654 -11.034417 36.353673 5
70.430399 -10.365353 36.553026 5
67.768796 -9.605133 36.762907 5
65.129967 -8.586022 37.007579 5
58.389148 -20.572654 35.460297 9
55.300393 -25.486476 34.833077 9
52.371743 -29.663655 34.307100 9
49.595992 -32.896921 33.913375 9
46.939030 -35.282620 33.638799 9
44.388717 -36.572910 33.520418 9
41.886805 -37.370056 33.470984 9
39.428766 -37.366382 33.536067 9
36.974338 -37.262047 33.613399 9
34.518389 -37.183764 33.684413 9
32.091025 -30.251626 34.763288 9
29.566240 -30.180816 34.829702 9
27.144246 -37.080917 33.863052 9
24.681946 -36.976205 33.928050 9
22.215730 -36.855077 33.993033 9
19.748061 -36.794251 34.046626 9
17.276204 -36.718452 34.099985 9
14.799069 -36.624380 34.153609 9
12.319410 -36.563073 34.199909 9
9.834813 -36.499298 34.244120 9
7.341072 -36.393296 34.292171 9
4.853134 -36.407577 34.319822 9
2.352375 -36.348771 34.355907 9
-0.158625 -36.259391 34.394093 9
-2.669455 -36.228821 34.421017 9
-5.188313 -36.190255 34.446651 9
-7.712032 -36.169285 34.467161 9
-10.242409 -36.154529 34.484237 9
-12.780365 -36.142348 34.498416 9
-15.326440 -36.132049 34.509791 9
-17.865908 -36.202879 34.506475 9
-20.430707 -36.186610 34.513663 9
-23.010018 -36.149229 34.521455 9
-25.586606 -36.173730 34.517399 9
-28.177970 -36.178749 34.513673 9
-30.772047 -36.218789 34.502092 9
-33.380753 -36.244470 34.490039 9
-36.013692 -36.222963 34.482410 9
-38.635997 -36.289460 34.458936 9
-41.303331 -36.239770 34.450169 9
-44.192289 -35.486988 34.543844 9
-47.486095 -33.503711 34.818595 9
-51.955005 -27.969463 35.620675 9
-56.870475 -21.474145 36.562222 9
62.785879 -6.228796 40.691781 9
59.197225 -14.055922 39.560067 9
55.661629 -23.022884 38.242571 9
52.842053 -25.468420 37.939077 9
50.140214 -26.999547 37.775227 9
47.375665 -30.054789 37.368361 9
44.711152 -32.396564 37.069818 9
42.170570 -32.982474 37.044747 9
39.662631 -32.990000 37.108446 9
37.156885 -32.967913 37.174498 9
34.652417 -32.888697 37.247298 9
32.146732 -32.836119 37.313598 9
29.640159 -32.810223 37.373382 9
27.131988 -32.740937 37.437796 9
24.622471 -32.708351 37.494110 9
22.111174 -32.681683 37.547219 9
19.596505 -32.630986 37.601910 9
17.079197 -32.591430 37.652577 9
14.558522 -32.553553 37.700732 9
12.034093 -32.517616 37.746335 9
9.504476 -32.471190 37.791379 9
6.971330 -32.440449 37.831669 9
4.436192 -32.440459 37.864778 9
1.892832 -32.411820 37.900242 9
-0.660633 -32.349870 37.938821 9
-3.211503 -32.361934 37.963243 9
-5.779137 -32.299455 37.997411 9
-8.344798 -32.303682 38.018577 9
-10.922758 -32.277104 38.042440 9
-13.506634 -32.265141 38.061674 9
-16.107779 -32.205633 38.086297 9
-18.699748 -32.246678 38.092405 9
-21.319544 -32.192359 38.111601 9
-23.935479 -32.208343 38.117135 9
-26.567010 -32.199746 38.124312 9
-29.202657 -32.221542 38.124241 9
-31.865707 -32.176067 38.132681 9
-34.518284 -32.223596 38.123729 9
-37.198608 -32.210020 38.122260 9
-39.893533 -32.192450 38.119031 9
-42.631068 -32.074700 38.129548 9
-45.969126 -29.973855 38.457662 9
-49.121779 -28.675795 38.653571 9
-53.255898 -24.403837 39.326430 9
-59.965673 -12.564468 41.216044 9
56.236280 -18.285735 42.100589 9
53.127957 -23.554992 41.293701 9
50.255213 -27.060388 40.778605 9
47.606144 -28.162862 40.664679 9
44.930144 -30.222498 40.386314 9
42.375188 -30.485279 40.408757 9
39.837127 -30.455472 40.478538 9
37.299459 -30.441828 40.543499 9
34.763629 -30.346366 40.620290 9
32.226086 -30.315247 40.684109 9
29.687862 -30.268506 40.748547 9
27.148111 -30.210499 40.812878 9
24.606808 -30.172538 40.871771 9
22.063694 -30.143184 40.927176 9
19.517274 -30.093026 40.984129 9
16.968288 -30.055852 41.036856 9
14.414079 -29.990974 41.092335 9
11.859440 -29.981418 41.136329 9
9.299648 -29.956233 41.181006 9
6.731211 -29.887756 41.231130 9
4.164822 -29.897370 41.265834 9
1.586213 -29.841772 41.309764 9
-0.995455 -29.815632 41.346630 9
-3.584087 -29.786454 41.382023 9
-6.179855 -29.757100 41.415448 9
-8.784959 -29.716359 41.448837 9
-11.402503 -29.650253 41.484603 9
-14.017922 -29.650885 41.506829 9
-16.654390 -29.582652 41.538940 9
-19.298252 -29.530197 41.566301 9
-21.951283 -29.484987 41.590377 9
-24.604193 -29.492283 41.603322 9
-27.275055 -29.466043 41.620016 9
-29.955379 -29.449529 41.632961 9
-32.646059 -29.440115 41.642599 9
-35.354632 -29.409399 41.653835 9
-38.063517 -29.428785 41.654286 9
-40.804593 -29.378330 41.664717 9
-43.577700 -29.268376 41.683321 9
-46.664782 -28.151361 41.874245 9
-50.464291 -24.829726 42.444873 9
51.029046 -18.157526 45.404010 9
48.067875 -22.670726 44.663955 9
45.341193 -24.524088 44.399336 9
42.708872 -25.113229 44.360207 9
40.114151 -24.997721 44.446351 9
37.520047 -24.822930 44.541421 9
34.923414 -24.652335 44.633961 9
32.323954 -24.476811 44.725631 9
29.721260 -24.340193 44.808474 9
27.114711 -24.152885 44.898778 9
24.504647 -24.009939 44.979263 9
21.890663 -23.874975 45.056542 9
19.271485 -23.724351 45.134933 9
16.647178 -23.576793 45.211026 9
14.018208 -23.445796 45.282354 9
11.383910 -23.322232 45.350581 9
8.745422 -23.223023 45.412607 9
6.093891 -23.050179 45.486393 9
3.435492 -22.889926 45.556145 9
0.772909 -22.767287 45.617260 9
-1.894478 -22.672182 45.671573 9
-4.571656 -22.564522 45.726448 9
-7.261673 -22.429087 45.784689 9
-9.961993 -22.291414 45.841599 9
-12.658735 -22.240794 45.880714 9
-15.377200 -22.118108 45.931350 9
-18.096092 -22.055118 45.969207 9
-20.831655 -21.960761 46.011077 9
-23.581261 -21.855441 46.053190 9
-26.327069 -21.827306 46.079254 9
-29.096088 -21.747043 46.113147 9
-31.869228 -21.705905 46.137997 9
-34.661305 -21.640434 46.165524 9
-37.467626 -21.574435 46.191317 9
-40.268439 -21.585063 46.201086 9
-43.126797 -21.436093 46.238536 9
-46.550645 -19.364860 46.630011 9
67.013303 139.177467 78.530211 3
62.782854 139.185369 78.646426 3
58.557837 139.196473 78.760594 3
54.337018 139.204005 78.871443 3
50.118916 139.189639 78.975475 3
45.904976 139.198545 79.081384 3
41.693343 139.214388 79.186061 3
37.482182 139.179850 79.278482 3
33.272834 139.211316 79.381095 3
71.865400 143.361928 84.234020 3
67.227175 139.235252 83.512853 3
62.979256 139.178748 83.612974 3
58.743095 139.203021 83.727260 3
54.508855 139.186103 83.830990 3
50.280726 139.211535 83.941169 3
46.053297 139.182617 84.038135 3
41.829980 139.201608 84.142740 3
37.607856 139.220561 84.245242 3
71.694686 139.186289 88.386463 3
67.435826 139.219482 88.503758 3
63.176515 139.171652 88.601912 3
58.929673 139.216858 88.718259 3
54.683005 139.196156 88.818724 3
50.439918 139.159061 88.913937 3
46.203225 139.193284 89.022803 3
41.966830 139.173160 89.118292 3
76.200463 139.199967 93.303130 3
71.919147 139.198915 93.410762 3
67.643691 139.182800 93.513646 3
63.375945 139.180823 93.618398 3
59.116050 139.213759 93.729752 3
54.855745 139.165615 93.821473 3
50.604124 139.200296 93.930700 3
46.352438 139.163642 94.022510 3
80.741519 139.222662 98.255224 3
76.436612 139.193696 98.352955 3
72.143693 139.200436 98.458248 3
67.855180 139.176308 98.555335 3
63.574002 139.158460 98.653048 3
59.304150 139.222500 98.769412 3
55.034142 139.220889 98.869348 3
50.767246 139.199439 98.963757 3
46.504856 139.202280 99.063180 3
84.867783 135.676466 102.357231 0
80.699087 136.700423 102.711358 0
76.410015 136.700890 102.810790 0
72.369058 139.197981 103.531752 3
68.066220 139.151555 103.619246 3
63.778833 139.211245 103.732819 3
59.492703 139.222877 103.834049 3
55.209147 139.198547 103.925948 3
50.929917 139.170110 104.016480 3
85.261904 136.713609 107.702144 0
80.949643 136.700304 107.793232 0
76.645748 136.679416 107.882377 0
72.351491 136.670262 107.974633 0
68.071362 136.738124 108.087075 0
63.978658 139.183463 108.821137 3
59.678811 139.170778 108.913297 3
55.385327 139.179857 109.011277 3
89.853298 136.665826 112.717581 0
85.525499 136.704578 112.816898 0
81.205010 136.728628 112.912736 0
76.887950 136.705427 112.996227 0
72.578116 136.667873 113.076332 0
68.282130 136.696411 113.175027 0
63.990196 136.700477 113.267618 0
59.704460 136.713155 113.363155 0
55.565548 139.214004 114.140427 3
94.343433 135.686098 117.511430 0
90.139815 136.718743 117.886557 0
85.791454 136.701346 117.964564 0
81.453931 136.688892 118.044975 0
77.129068 136.707490 118.135238 0
72.809194 136.696831 118.218205 0
68.498473 136.703775 118.307229 0
64.195096 136.722481 118.400670 0
59.893015 136.680795 118.477948 0
99.650524 139.719450 123.812423 0
94.789995 136.713613 122.997182 0
90.421420 136.722886 123.075486 0
86.061749 136.718574 123.151263 0
81.712682 136.718747 123.229873 0
77.368791 136.682424 123.299169 0
73.038030 136.687800 123.382359 0
68.714829 136.695566 123.467798 0
64.396179 136.678715 123.547469 0
60.016614 135.676280 123.335439 0
99.474240 136.672565 128.146312 0
95.080698 136.678061 128.215074 0
90.700568 136.695901 128.289644 0
86.334906 136.743904 128.375534 0
81.970458 136.725810 128.443044 0
77.618141 136.731098 128.519790 0
73.274641 136.742029 128.600310 0
68.933199 136.693832 128.664583 0
64.566906 136.231910 128.602845 0
104.052698 135.776235 133.073668 0
99.792993 136.718445 133.432903 0
95.382278 136.701398 133.487426 0
90.988680 136.719044 133.555590 0
86.602248 136.709803 133.617654 0
82.228232 136.717875 133.687798 0
77.857659 136.674065 133.743811 0
73.504550 136.712084 133.828639 0
69.154191 136.704524 133.901368 0
108.887292 136.158453 138.460889 0
104.541354 136.719842 138.694307 0
100.108747 136.731361 138.747899 0
95.690344 136.753128 138.807955 0
91.276909 136.728169 138.855499 0
86.871545 136.675963 138.897002 0
82.491304 136.738506 138.979786 0
78.109408 136.712556 139.036123 0
73.738346 136.704551 139.101489 0
69.310280 135.974187 138.928764 0
109.330924 136.708454 144.010537 0
104.867701 136.700696 144.046208 0
100.416582 136.680811 144.081282 0
95.989953 136.733845 144.145125 0
91.566833 136.733945 144.194268 0
87.151059 136.704633 144.236820 0
82.754233 136.741597 144.305853 0
78.354537 136.674118 144.342337 0
73.877452 135.737289 144.081510 0
114.001328 135.852663 149.087409 0
109.678539 136.716884 149.422263 0
105.199133 136.696194 149.444736 0
100.737158 136.693741 149.477875 0
96.296277 136.743286 149.533758 0
91.852787 136.695933 149.559071 0
87.429153 136.705995 149.609052 0
83.019267 136.745173 149.673574 0
78.607278 136.687062 149.707334 0
118.885133 135.900348 154.544035 0
114.530387 136.707210 154.854754 0
110.027115 136.715254 154.874301 0
105.539337 136.726651 154.899808 0
101.067761 136.752069 154.935210 0
96.599211 136.714473 154.951940 0
92.146509 136.696191 154.980492 0
87.710156 136.712380 155.026481 0
83.277547 136.676019 155.057627 0
119.422876 136.665404 160.344278 0
114.897669 136.713739 160.364777 0
110.374047 136.689015 160.362580 0
105.873078 136.703875 160.380842 0
101.382503 136.697120 160.396080 0
96.915423 136.755440 160.441513 0
92.440845 136.683639 160.442271 0
87.993797 136.720969 160.490092 0
83.430001 135.728079 160.147818 0
124.300311 136.332749 165.791167 0
119.815137 136.707079 165.925575 0
115.265113 136.704903 165.916678 0
110.735638 136.725307 165.922621 0
106.212652 136.697850 165.915459 0
101.706777 136.683415 165.919292 0
97.219293 136.698990 165.940829 0
92.744342 136.716975 165.969110 0
88.180257 135.985474 165.706010 0
129.160663 135.736270 171.199229 0
124.782018 136.698748 171.562155 0
120.205493 136.722742 171.547266 0
115.639476 136.714394 171.525656 0
111.097063 136.743410 171.525825 0
106.561038 136.724524 171.512833 0
102.040873 136.711407 171.508619 0
97.536288 136.709525 171.515391 0
93.042379 136.693973 171.522928 0
129.800726 136.690788 177.279714 0
125.186564 136.694142 177.238325 0
120.598905 136.735732 177.220272 0
116.027462 136.775016 177.208367 0
111.456276 136.731988 177.168759 0
106.904768 136.706824 177.143747 0
102.377021 136.733225 177.147529 0
97.852833 136.698481 177.132450 0
134.878863 136.705870 183.092732 0
130.232599 136.722041 183.037411 0
125.602401 136.723095 182.983348 0
120.989401 136.716985 182.933957 0
116.397440 136.726885 182.899291 0
111.823754 136.746179 182.876411 0
107.261506 136.743735 182.851703 0
102.701748 136.667817 182.802583 0
98.016966 135.697606 182.371330 0
139.766548 135.751283 188.559996 0
135.315239 136.673155 188.891555 0
130.656393 136.700323 188.828867 0
126.017452 136.730062 188.775818 0
121.390462 136.730017 188.717801 0
116.780968 136.728137 188.667327 0
112.178404 136.673738 188.601570 0
107.600671 136.662953 188.563676 0
102.976822 136.288614 188.370692 0
140.277163 135.934654 194.518129 0
135.782275 136.747445 194.798340 0
131.094676 136.722078 194.698913 0
126.981833 139.181232 195.759814 0
121.794599 136.738380 194.558491 0
117.165696 136.716041 194.487698 0
112.553902 136.691755 194.424953 0
107.969776 136.729465 194.399792 0
140.808357 136.177595 200.571524 0
136.248215 136.797494 200.757215 0
131.535208 136.733898 200.626217 0
126.846096 136.680272 200.509806 0
122.192443 136.697405 200.436888 0
117.561232 136.737498 200.384562 0
112.931594 136.700795 200.305202 0
108.275966 136.426653 200.122230 0
136.676104 136.673208 206.695865 0
131.978829 136.738700 206.614254 0
127.281925 136.721378 206.502412 0
122.604710 136.703739 206.400811 0
117.955193 136.730324 206.331225 0
113.142189 135.820201 205.812395 0
132.786168 138.257347 213.434021 0
127.571614 136.094612 212.224924 0
122.809862 135.725818 211.933859 0
-145.879866 27.327256 3.810382 7
-139.598057 27.580137 2.021361 7
-137.283020 24.762749 2.800499 7
-128.059327 27.603677 -1.085885 7
-117.170002 32.062272 -6.231964 8
-103.625620 39.076359 -13.365059 8
-99.070459 38.636620 -14.413333 8
-94.551056 38.241002 -15.485539 8
-90.227825 37.743618 -16.466316 8
-85.958699 37.267081 -17.454068 8
-81.795487 36.761008 -18.409793 8
-77.744267 36.215108 -19.326593 8
-73.729236 35.699138 -20.258941 8
-69.864101 35.098171 -21.119620 8
-66.031502 34.525072 -21.995440 8
-64.350252 31.758895 -21.229463 8
-56.017285 36.077670 -25.727642 9
-49.514584 38.661709 -28.889926 9
-44.749055 39.498719 -30.738479 9
-43.811915 36.093916 -29.500770 9
-37.804711 38.515364 -32.469852 9
-34.597064 37.796615 -33.167412 9
-31.409862 37.099928 -33.879117 9
-28.325281 36.323385 -34.533481 9
-25.330263 35.476720 -35.138843 9
-22.349419 34.651167 -35.759496 9
-19.429004 33.785666 -36.353558 9
-16.470629 33.008691 -37.009088 9
-13.392683 32.436974 -37.803472 9
-10.366419 31.841714 -38.580822 9
-7.375105 31.243764 -39.355560 9
-4.398670 30.670853 -40.146184 9
-1.444967 30.111300 -40.944901 9
1.380060 29.401656 -41.645959 9
4.069224 28.518795 -42.237054 9
6.761092 27.672139 -42.854395 9
9.388631 26.752719 -43.428776 9
11.971893 25.787940 -43.978655 9
14.541551 24.826281 -44.535018 9
17.084522 23.843773 -45.083206 9
19.597366 22.831584 -45.618293 9
22.030776 21.695166 -46.083553 9
24.504060 20.650626 -46.610959 9
26.927923 19.530280 -47.099280 9
29.335656 18.393741 -47.585049 9
31.680959 17.144127 -48.011825 9
34.020229 15.890045 -48.444587 9
36.326296 14.571800 -48.849111 9
38.611803 13.211392 -49.239055 9
40.875319 11.801370 -49.610944 9
43.073539 10.235752 -49.906064 9
45.164741 8.400508 -50.063269 9
47.101835 6.155576 -50.009230 9
48.863508 3.410575 -49.700513 9
50.477678 0.194061 -49.159957 9
51.897948 -3.661514 -48.304334 9
53.079036 -8.340472 -47.044679 9
53.818820 -14.499314 -45.046060 9
-149.718744 25.578822 11.086483 7
-142.737762 26.266839 8.814919 7
-136.038011 26.870402 6.649995 7
-133.992882 23.807066 7.618666 7
-123.775703 27.536447 2.869409 7
-103.164086 40.374523 -9.382217 8
-98.542358 39.957758 -10.502892 8
-93.992516 39.555607 -11.622390 8
-89.429195 39.243280 -12.802067 8
-85.046277 38.844291 -13.898708 8
-80.738005 38.450040 -14.987569 8
-76.600816 37.965192 -15.993624 8
-72.552689 37.462005 -16.975891 8
-68.546623 36.983963 -17.969085 8
-64.680263 36.430173 -18.895225 8
-59.321494 37.500161 -21.059065 9
-52.788641 39.953780 -24.248542 9
-46.927362 41.862279 -26.984062 9
-42.626248 42.196702 -28.506277 9
-39.227082 41.600509 -29.321828 9
-35.979857 40.881939 -30.042996 9
-32.704566 40.244622 -30.821048 9
-29.550227 39.511653 -31.526631 9
-26.444663 38.764334 -32.220161 9
-23.355616 38.040829 -32.929392 9
-20.314958 37.299952 -33.625034 9
-17.322706 36.538943 -34.305705 9
-14.394385 35.734001 -34.955414 9
-11.526255 34.885858 -35.575641 9
-8.700378 34.015441 -36.181676 9
-5.863502 33.196509 -36.824268 9
-2.928406 32.559530 -37.590808 9
0.008184 31.969959 -38.388521 9
2.910290 31.374130 -39.181244 9
5.798793 30.802926 -39.989638 9
8.661616 30.237061 -40.800931 9
11.420866 29.546911 -41.531266 9
14.052621 28.681717 -42.150184 9
16.666431 27.816863 -42.772432 9
19.211232 26.860753 -43.340267 9
21.756170 25.930888 -43.928970 9
24.246372 24.926114 -44.475388 9
26.733355 23.937821 -45.037212 9
29.176294 22.886452 -45.565682 9
31.587726 21.791195 -46.073560 9
33.980082 20.673179 -46.574377 9
36.366301 19.556943 -47.083268 9
38.732798 18.412258 -47.582471 9
41.038516 17.144471 -48.017047 9
43.314491 15.813446 -48.423797 9
45.454906 14.164193 -48.656796 9
47.477598 12.211805 -48.729548 9
49.374572 9.909464 -48.620154 9
51.142032 7.216142 -48.310871 9
52.758870 4.040806 -47.756904 9
54.293779 0.526399 -47.044338 9
55.727500 -3.412188 -46.131703 9
56.936196 -8.173511 -44.809287 9
57.663522 -14.604490 -42.634328 9
-141.633971 23.531107 15.276501 7
-133.735314 25.096938 12.178939 7
-126.776203 26.060312 9.650166 7
-103.487471 41.011597 -4.810617 8
-98.474484 40.884181 -6.237098 8
-93.713145 40.626771 -7.535115 8
-89.003911 40.407689 -8.848640 8
-84.530517 40.056937 -10.036915 8
-80.088511 39.755285 -11.251676 8
-75.846357 39.341188 -12.361078 8
-71.628628 38.976591 -13.498701 8
-67.491781 38.605425 -14.619235 8
-64.291557 37.350167 -15.026598 8
-56.975788 40.423607 -18.843736 9
-50.031484 43.318144 -22.466840 9
-44.828468 44.525383 -24.731744 9
-40.987773 44.352585 -25.907383 9
-37.596204 43.743674 -26.739756 9
-34.268338 43.114939 -27.552151 9
-30.951186 42.525914 -28.389943 9
-27.796985 41.793165 -29.116257 9
-24.659812 41.085798 -29.858826 9
-21.550945 40.389545 -30.607053 9
-18.507726 39.655278 -31.325354 9
-15.465363 38.964254 -32.073227 9
-12.505799 38.207309 -32.772174 9
-9.568863 37.461325 -33.478109 9
-6.665039 36.710747 -34.180159 9
-3.848777 35.875318 -34.822662 9
-1.073711 35.016073 -35.449527 9
1.663910 34.135646 -36.063187 9
4.422256 33.320919 -36.723372 9
7.248628 32.649812 -37.481834 9
10.073320 32.018543 -38.266904 9
12.930068 31.484238 -39.116114 9
15.702482 30.855339 -39.901856 9
18.464720 30.251962 -40.704404 9
21.196011 29.637605 -41.499893 9
23.748296 28.740457 -42.113919 9
26.282678 27.838387 -42.728389 9
28.782133 26.897268 -43.321974 9
31.241983 25.903744 -43.887086 9
33.706599 24.941931 -44.477038 9
36.118528 23.894537 -45.019150 9
38.530197 22.864831 -45.578081 9
40.901026 21.764794 -46.100332 9
43.246543 20.622351 -46.603936 9
45.456646 19.179447 -46.935838 9
47.543633 17.438573 -47.102260 9
49.524000 15.413341 -47.115858 9
51.376539 13.024983 -46.935317 9
53.138352 10.336496 -46.602532 9
54.829571 7.374132 -46.137126 9
56.488887 4.218997 -45.589212 9
58.066783 0.712987 -44.873104 9
59.523171 -3.294746 -43.910306 9
60.489002 -8.970128 -42.066187 9
-139.001400 16.993666 23.340354 7
-104.112403 41.404365 0.033191 8
-98.840544 41.443723 -1.609975 8
-93.966228 41.234736 -3.014564 8
-89.134090 41.077126 -4.444078 8
-84.394362 40.924678 -5.858894 8
-79.804048 40.720936 -7.212072 8
-75.416300 40.408493 -8.457442 8
-71.048703 40.155580 -9.737488 8
-66.854397 39.810234 -10.926656 8
-64.319117 37.849183 -10.785218 8
-54.660007 43.309877 -16.655647 9
-47.850568 46.062386 -20.264459 9
-43.260033 46.608150 -22.065943 9
-39.503568 46.335140 -23.199529 9
-36.083014 45.751559 -24.079411 9
-32.721873 45.154979 -24.942967 9
-29.425734 44.535942 -25.783554 9
-26.194305 43.891387 -26.599631 9
-23.009320 43.240316 -27.406421 9
-19.841336 42.617642 -28.230613 9
-16.773949 41.915623 -28.991734 9
-13.738161 41.218178 -29.753567 9
-10.729276 40.530285 -30.519981 9
-7.804339 39.772303 -31.233184 9
-4.866186 39.074826 -31.988893 9
-2.037099 38.264145 -32.662036 9
0.828529 37.545662 -33.400610 9
3.636761 36.782584 -34.106982 9
6.360113 35.927829 -34.749298 9
9.056152 35.064479 -35.386889 9
11.726076 34.192528 -36.020120 9
14.407092 33.371713 -36.690044 9
17.148716 32.688522 -37.454454 9
19.914083 32.087629 -38.274200 9
22.648568 31.476343 -39.086541 9
25.362633 30.871470 -39.902948 9
28.050467 30.261108 -40.715751 9
30.700311 29.620742 -41.509363 9
33.193748 28.713113 -42.131944 9
35.672822 27.803026 -42.756816 9
38.124127 26.861261 -43.365723 9
40.546611 25.881829 -43.955590 9
42.930985 24.840115 -44.511887 9
45.209461 23.577012 -44.937703 9
47.364718 22.032436 -45.199967 9
49.413899 20.222024 -45.312712 9
51.346792 18.096669 -45.250724 9
53.188559 15.691376 -45.039868 9
54.990305 13.113680 -44.748064 9
56.765126 10.382943 -44.389397 9
58.509195 7.474378 -43.951940 9
60.205844 4.323492 -43.401436 9
61.848731 0.888081 -42.717639 9
63.334573 -3.175985 -41.710668 9
61.460319 -18.076740 -34.678168 9
-105.969922 40.774379 5.874761 8
-100.151101 41.203249 3.796321 8
-94.871948 41.279998 2.063343 8
-89.677281 41.384979 0.331217 8
-84.743594 41.354695 -1.257519 8
-79.974817 41.266349 -2.773748 8
-75.368760 41.114737 -4.215156 8
-70.875046 40.941502 -5.619402 8
-66.500980 40.734762 -6.977675 8
-60.708680 42.052997 -9.596401 9
-59.363866 38.898939 -8.464439 9
-46.235395 48.201399 -17.614715 9
-41.913888 48.447857 -19.225485 9
-38.254122 48.056101 -20.300014 9
-34.826451 47.467538 -21.206258 9
-31.399063 46.935013 -22.149975 9
-28.023135 46.399690 -23.084016 9
-24.731336 45.819863 -23.976188 9
-21.517384 45.198308 -24.829911 9
-18.316165 44.612473 -25.706035 9
-15.185944 43.987737 -26.547220 9
-12.149146 43.290043 -27.328741 9
-9.110503 42.641150 -28.143816 9
-6.121026 41.972349 -28.940633 9
-3.191670 41.265113 -29.706167 9
-0.317193 40.522696 -30.443799 9
2.533998 39.787716 -31.185450 9
5.406660 39.126821 -31.979343 9
8.120356 38.264558 -32.627321 9
10.881854 37.512500 -33.354323 9
13.633895 36.784365 -34.097925 9
16.292616 35.941098 -34.760878 9
18.899537 35.043453 -35.387468 9
21.514367 34.190223 -36.046688 9
24.118432 33.350095 -36.716667 9
26.776386 32.641324 -37.477267 9
29.469216 32.036968 -38.308442 9
32.135136 31.424525 -39.133937 9
34.775916 30.805338 -39.954994 9
37.413950 30.222893 -40.800345 9
39.970972 29.515234 -41.564696 9
42.416644 28.605408 -42.200877 9
44.773211 27.524155 -42.731954 9
46.991779 26.144790 -43.080885 9
49.100577 24.506373 -43.277095 9
51.103955 22.595829 -43.316772 9
53.019518 20.431853 -43.215897 9
54.893375 18.108663 -43.036098 9
56.760283 15.702851 -42.826321 9
58.608852 13.175893 -42.564868 9
60.400878 10.409344 -42.183352 9
61.669939 6.030572 -40.877109 9
63.951049 4.467177 -41.256330 9
61.720272 -11.079599 -33.557317 9
65.982145 -6.836981 -37.363552 5
67.628987 -10.875650 -36.416630 5
66.817095 -23.596730 -30.619411 5
69.330586 -25.299439 -31.097442 5
-102.565621 40.037137 10.160333 8
-96.644918 40.582411 7.907400 8
-91.116840 40.904657 5.892414 8
-85.740893 41.203789 3.929306 8
-80.736958 41.269317 2.203713 8
-75.845427 41.328830 0.508378 8
-71.082885 41.362104 -1.140092 8
-66.520180 41.293485 -2.677597 8
-59.839666 43.463580 -6.119088 9
-51.359868 47.685062 -11.256462 9
-45.186787 49.738077 -14.480920 9
-40.872269 49.956929 -16.120919 9
-37.268231 49.484972 -17.166382 9
-33.733612 48.997892 -18.189083 9
-30.217303 48.551428 -19.235375 9
-26.828930 48.016644 -20.200466 9
-23.476010 47.497029 -21.169749 9
-20.172870 46.973851 -22.128437 9
-16.947712 46.409243 -23.047109 9
-13.771888 45.835343 -23.952165 9
-10.675598 45.209754 -24.811232 9
-7.596491 44.611174 -25.686318 9
-4.570491 43.990091 -26.539419 9
-1.630403 43.296827 -27.333652 9
1.298156 42.632073 -28.146384 9
4.185301 41.952001 -28.944720 9
7.009929 41.221931 -29.703603 9
9.813688 40.501228 -30.467766 9
12.574778 39.754435 -31.211531 9
15.363548 39.092501 -32.015654 9
18.018240 38.250730 -32.689554 9
20.687945 37.468708 -33.406630 9
23.338987 36.690648 -34.126819 9
25.931431 35.843787 -34.799526 9
28.492510 34.971555 -35.456223 9
31.041335 34.106745 -36.120067 9
33.561363 33.216610 -36.768859 9
36.183581 32.558467 -37.576854 9
38.813015 31.955814 -38.422229 9
41.423128 31.356017 -39.269350 9
43.963399 30.648743 -40.045810 9
46.397134 29.741893 -40.693543 9
48.398167 27.872141 -40.722393 9
50.683361 26.638315 -41.173674 9
52.449355 24.152925 -40.837062 9
54.197592 21.551443 -40.448887 9
56.286108 19.743887 -40.579741 9
58.077881 17.116742 -40.217315 9
60.020233 14.814865 -40.077988 9
61.180548 10.234040 -38.571448 9
61.317464 2.438651 -35.169891 9
64.856197 4.478300 -37.728387 5
67.045655 2.529395 -37.896888 5
69.202712 0.425084 -37.990668 5
71.294561 -1.962713 -37.937766 5
73.306813 -4.717006 -37.694910 5
75.172535 -8.124085 -37.104360 5
76.670933 -13.097444 -35.659150 5
76.682273 -24.242277 -30.799958 5
-100.524635 38.073934 15.579537 8
-94.027331 39.135256 12.766827 8
-87.910870 40.002412 10.179614 8
-82.170371 40.661636 7.824150 8
-77.021940 40.889288 5.896538 8
-71.865527 41.233653 3.893020 8
-67.122311 41.281458 2.183043 8
-59.958184 43.876426 -1.749698 9
-50.476845 49.075654 -7.897636 9
-44.317356 51.085619 -11.181127 9
-40.111876 51.162469 -12.753293 9
-36.368694 50.818895 -13.947028 9
-32.760291 50.393369 -15.058163 9
-29.218748 49.956249 -16.147984 9
-25.763467 49.481522 -17.195671 9
-22.355914 49.010826 -18.236820 9
-19.026002 48.505349 -19.240140 9
-15.738733 48.004694 -20.238887 9
-12.507375 47.489997 -21.218257 9
-9.350886 46.933233 -22.156647 9
-6.223954 46.390649 -23.099724 9
-3.156060 45.820607 -24.014990 9
-0.172313 45.183793 -24.872830 9
2.796619 44.573944 -25.747087 9
5.700152 43.916331 -26.580509 9
8.562841 43.243017 -27.398620 9
11.411342 42.592593 -28.231017 9
14.200832 41.893801 -29.024494 9
16.948698 41.169778 -29.797337 9
19.660216 40.425894 -30.554226 9
22.369368 39.717319 -31.335874 9
25.058704 39.014619 -32.120697 9
27.636902 38.152298 -32.790608 9
30.234701 37.357951 -33.509962 9
32.819121 36.573089 -34.236690 9
35.346817 35.712712 -34.911633 9
37.844735 34.823179 -35.568369 9
40.379276 34.037189 -36.298529 9
42.817774 33.082030 -36.915275 9
45.203520 32.035974 -37.474451 9
47.197666 30.133316 -37.466417 9
49.417347 28.716319 -37.794772 9
51.113123 26.054477 -37.315230 9
53.195185 24.253298 -37.419463 9
55.289084 22.451878 -37.537507 9
57.215566 20.185195 -37.371966 9
58.955354 17.356562 -36.869365 9
61.048354 15.402700 -36.942416 9
61.579324 8.943003 -34.223285 9
64.945148 10.500282 -36.522415 5
67.242590 8.990620 -36.921529 5
69.508226 7.361698 -37.259878 5
71.757066 5.648804 -37.560777 5
73.972639 3.785547 -37.786152 5
76.164775 1.788522 -37.948375 5
78.307427 -0.454870 -37.983822 5
80.391680 -3.009878 -37.858730 5
82.401358 -5.981454 -37.517894 5
84.227941 -9.878607 -36.678253 5
83.966526 -23.160990 -30.582705 5
86.458565 -24.983142 -31.028572 5
-101.688062 33.190291 23.813215 8
-92.710990 36.444333 18.811396 8
-85.581283 38.242457 15.261960 8
-79.490072 39.243656 12.512900 8
-73.786102 40.017559 10.017717 8
-68.273695 40.737011 7.611559 8
-64.298358 40.035855 6.528166 8
-50.187126 49.855465 -3.979336 9
-43.751466 52.114212 -7.586112 9
-39.559186 52.145575 -9.172931 9
-35.798636 51.790519 -10.400976 9
-32.046261 51.497154 -11.667935 9
-28.398127 51.156400 -12.879384 9
-24.876159 50.736627 -14.010058 9
-21.364388 50.369702 -15.173584 9
-17.953719 49.944887 -16.276674 9
-14.682362 49.407699 -17.275880 9
-11.394124 48.949552 -18.331577 9
-8.177988 48.456480 -19.349584 9
-4.994663 47.976974 -20.370309 9
-1.925948 47.396922 -21.302359 9
1.138207 46.862837 -22.264739 9
4.164767 46.328293 -23.220291 9
7.093171 45.701557 -24.097647 9
10.012528 45.109401 -24.997322 9
12.878001 44.482864 -25.865939 9
15.690409 43.818953 -26.702213 9
18.469131 43.144846 -27.527735 9
21.214625 42.458909 -28.341779 9
23.928332 41.761106 -29.144835 9
26.607592 41.044263 -29.932115 9
29.243169 40.288656 -30.689822 9
31.901433 39.612806 -31.504901 9
34.440643 38.751739 -32.185565 9
37.000464 37.962024 -32.918419 9
39.544484 37.175042 -33.653880 9
42.027178 36.295619 -34.325387 9
44.352240 35.110087 -34.786233 9
46.545287 33.646796 -35.061580 9
48.691143 32.071156 -35.269559 9
50.623259 29.987159 -35.143852 9
52.661182 28.109958 -35.174024 9
54.595483 25.944090 -35.026474 9
56.556011 23.791204 -34.905527 9
58.509210 21.564872 -34.754450 9
59.311058 16.169385 -32.564779 9
61.492734 14.349305 -32.730897 9
64.676528 15.384216 -34.732866 5
67.037944 14.125667 -35.267144 5
69.380107 12.807347 -35.772473 5
71.705236 11.428732 -36.249691 5
74.007589 9.962898 -36.683379 5
76.276054 8.360341 -37.044931 5
78.541846 6.715982 -37.394154 5
80.774516 4.909997 -37.660073 5
82.994297 2.999977 -37.879679 5
85.176391 0.870669 -37.986992 5
87.320120 -1.511227 -37.966300 5
89.401609 -4.288199 -37.739527 5
91.403408 -7.600072 -37.233174 5
93.146867 -12.407119 -35.911649 5
93.652495 -24.023394 -30.815327 5
-85.679228 34.116150 22.620587 8
-77.774074 36.829250 18.151981 8
-71.176561 38.481548 14.753017 8
-65.423724 39.459994 12.035519 8
-50.925412 49.581700 0.949329 9
-43.646558 52.660412 -3.523768 9
-39.277932 52.839104 -5.302741 9
-35.367308 52.611662 -6.692698 9
-31.545763 52.362121 -8.045094 9
-27.808714 52.091435 -9.362003 9
-24.208104 51.734303 -10.587614 9
-20.555736 51.508703 -11.913102 9
-17.137988 51.068557 -13.039320 9
-13.751329 50.652842 -14.174813 9
-10.416591 50.234126 -15.296458 9
-7.109770 49.841612 -16.429246 9
-3.932285 49.337959 -17.459300 9
-0.793027 48.839021 -18.484648 9
2.304698 48.338413 -19.500433 9
5.380243 47.862057 -20.528061 9
8.370573 47.316139 -21.492302 9
11.317725 46.757518 -22.440134 9
14.247740 46.223972 -23.401941 9
17.064981 45.562757 -24.258305 9
19.910641 44.993635 -25.182277 9
22.685445 44.355236 -26.048472 9
25.409341 43.674825 -26.879319 9
28.099671 42.978104 -27.695341 9
30.798736 42.338912 -28.552426 9
33.436927 41.630661 -29.355790 9
36.037195 40.890027 -30.134013 9
38.606459 40.126415 -30.894829 9
41.142476 39.331896 -31.633181 9
43.571963 38.350288 -32.237795 9
45.876825 37.125505 -32.672405 9
48.008911 35.529376 -32.851189 9
50.064179 33.745123 -32.909182 9
52.096467 31.880693 -32.924759 9
54.050670 29.796099 -32.803189 9
56.078673 27.846553 -32.790663 9
58.123276 25.898797 -32.794821 9
60.112832 23.763868 -32.689104 9
61.133542 18.933048 -30.810196 9
61.707609 12.603415 -27.993188 9
66.588936 18.478893 -33.210425 5
68.967614 17.310211 -33.795544 5
71.338174 16.121779 -34.375275 5
73.705137 14.924876 -34.957302 5
76.037584 13.613147 -35.474923 5
78.349972 12.222429 -35.952627 5
80.659918 10.806223 -36.425021 5
82.946275 9.279952 -36.840816 5
85.217955 7.663589 -37.214146 5
87.467598 5.913574 -37.520425 5
89.697336 4.019607 -37.755873 5
91.915401 1.997497 -37.932361 5
94.097567 -0.288455 -37.972647 5
96.249569 -2.851539 -37.873491 5
98.346242 -5.871263 -37.536369 5
100.311835 -9.851976 -36.681677 5
100.781729 -23.097709 -30.641739 5
103.295865 -24.949270 -31.107077 5
-80.889674 24.501686 31.348055 8
-55.143875 45.744997 9.331622 9
-44.050271 52.677557 1.084672 9
-39.326210 53.182549 -1.065127 9
-35.285595 53.051654 -2.598509 9
-31.282564 52.962766 -4.149018 9
-12.530177 69.907762 -21.044040 1
-8.335459 70.607891 -23.123986 1
-7.417995 67.478167 -21.779501 1
-16.489210 51.987232 -9.604522 9
-12.995130 51.677965 -10.870632 9
-7.877358 53.532083 -13.990672 4
-4.343223 53.467967 -15.423043 4
-1.651953 52.344419 -15.940010 4
0.508054 50.513733 -15.861691 4
3.414155 49.733218 -16.669603 9
6.490340 49.243092 -17.713079 9
9.501410 48.713306 -18.715712 9
12.499382 48.218159 -19.739174 9
15.462313 47.724041 -20.756058 9
18.360765 47.181946 -21.727571 9
21.231537 46.646696 -22.698527 9
24.030170 46.042101 -23.609276 9
26.790116 45.418712 -24.500950 9
29.529268 44.805032 -25.396276 9
32.214329 44.139522 -26.248237 9
34.898748 43.516212 -27.129585 9
37.522883 42.822390 -27.954903 9
40.126327 42.128678 -28.778580 9
42.632747 41.278627 -29.485032 9
44.998898 40.167051 -30.000233 9
47.208723 38.735365 -30.286660 9
49.381526 37.217943 -30.519647 9
51.402955 35.346013 -30.508566 9
53.444333 33.488476 -30.521840 9
55.488379 31.604633 -30.530679 9
57.535471 29.692672 -30.534405 9
59.577705 27.729256 -30.517496 9
60.588953 22.978587 -28.605370 9
64.263426 25.320123 -31.562309 5
66.163052 22.862049 -31.250505 5
68.361662 21.200097 -31.492274 5
70.787405 20.201731 -32.186006 5
73.179641 19.115152 -32.826908 5
75.556039 17.986933 -33.446997 5
77.932128 16.863890 -34.077364 5
80.273142 15.621828 -34.638741 5
82.595715 14.306108 -35.162074 5
84.919852 12.983251 -35.690542 5
87.229068 11.584685 -36.181786 5
89.519749 10.083512 -36.620676 5
91.801739 8.507395 -37.026002 5
94.068683 6.814614 -37.373937 5
96.321318 4.989629 -37.657277 5
98.558011 3.001639 -37.860090 5
100.785572 0.859168 -37.990256 5
102.980184 -1.603382 -37.953967 5
105.110950 -4.636354 -37.612138 5
106.999620 -9.519768 -36.242396 5
108.004669 -21.140280 -31.107983 5
-45.171183 51.950937 6.484612 9
-39.906692 52.961026 3.770432 9
-14.394180 76.308760 -19.919755 1
-16.551100 69.794215 -15.342339 1
-7.739259 75.645917 -22.281090 1
-6.879505 72.514133 -20.873572 1
-5.925601 69.427881 -19.538265 1
-5.137973 66.071398 -17.989641 4
-5.551034 61.124354 -15.056120 4
-2.756199 60.157803 -15.700489 4
-0.354427 58.708013 -15.917608 4
1.703185 56.804685 -15.744701 4
3.592944 54.658032 -15.373317 4
5.354860 52.306660 -14.841970 4
7.535090 50.528989 -14.814254 9
10.612275 50.080578 -15.911864 9
13.619559 49.585035 -16.960917 9
16.590247 49.088820 -18.001204 9
19.502860 48.555418 -19.003295 9
22.412914 48.071357 -20.038558 9
25.259235 47.535273 -21.024853 9
28.069911 46.989801 -21.997628 9
30.865503 46.468908 -22.984295 9
33.569478 45.832911 -23.875223 9
36.282599 45.259676 -24.811290 9
38.926903 44.602323 -25.678392 9
41.533727 43.914164 -26.519230 9
43.975093 42.929905 -27.133732 9
46.294284 41.713104 -27.575639 9
48.506442 40.274720 -27.857809 9
50.573736 38.509771 -27.907141 9
52.652528 36.746154 -27.970010 9
54.738488 34.973394 -28.038910 9
56.823126 33.169562 -28.098353 9
58.911185 31.343219 -28.155144 9
60.985638 29.447565 -28.176714 9
61.708935 23.883659 -25.640887 9
65.853785 27.529141 -29.566177 5
68.316689 26.686269 -30.346586 5
70.752786 25.793153 -31.095231 5
73.178687 24.893965 -31.843138 5
74.908260 21.787813 -31.113318 5
77.315215 20.788859 -31.815387 5
79.692817 19.704409 -32.466254 5
82.064287 18.606118 -33.114447 5
84.427340 17.482229 -33.752782 5
86.759751 16.240723 -34.322814 5
89.096112 15.006038 -34.905934 5
91.415156 13.686440 -35.444362 5
93.716469 12.266184 -35.929897 5
96.017359 10.810560 -36.404850 5
98.309876 9.272997 -36.841425 5
100.595170 7.644604 -37.235776 5
102.864709 5.860588 -37.550596 5
105.101831 3.792181 -37.711873 5
107.230114 0.899858 -37.405802 5
109.182293 -3.442893 -36.279742 5
110.804755 -10.671615 -33.526078 5
112.653647 -17.113335 -31.301574 5
-14.320261 80.729955 -18.539820 1
-9.968364 81.470231 -20.793114 1
-6.895849 80.893680 -21.752038 1
-6.336165 77.490065 -20.022134 1
-5.424476 74.418368 -18.640070 1
-5.608290 69.965776 -16.004468 1
-2.892370 68.946616 -16.585840 1
-0.624427 67.396276 -16.678204 1
0.846203 64.824777 -15.851262 4
2.752965 62.785526 -15.523531 4
4.592303 60.637059 -15.111825 4
6.221355 58.173339 -14.437113 4
7.724923 55.491419 -13.591529 4
9.945400 53.800797 -13.627949 4
11.549452 51.188548 -12.880932 9
14.615270 50.761290 -14.016492 9
17.688020 50.405958 -15.202701 9
20.627451 49.900427 -16.252561 9
23.543310 49.411857 -17.308481 9
26.386066 48.855721 -18.300983 9
29.247295 48.383847 -19.355740 9
32.058721 47.879261 -20.376785 9
34.819744 47.336219 -21.360578 9
37.564828 46.814582 -22.355865 9
40.255257 46.239280 -23.303398 9
41.478628 42.789496 -22.000417 9
45.248112 44.442094 -24.684688 9
47.522240 43.119010 -25.049903 9
49.683665 41.554493 -25.237586 9
51.807175 39.893158 -25.361832 9
53.904035 38.151448 -25.436977 9
55.978188 36.330674 -25.465676 9
58.088612 34.567701 -25.550275 9
60.209749 32.803035 -25.646392 9
61.502025 28.835589 -24.162281 9
64.895698 30.381590 -26.671812 5
67.389853 29.602983 -27.501041 5
69.877917 28.841619 -28.343597 5
72.332662 28.015741 -29.142293 5
74.760560 27.136605 -29.906335 5
77.171417 26.228220 -30.653395 5
79.604818 25.419051 -31.471617 5
81.657201 23.302668 -31.410993 5
83.763388 21.303115 -31.446946 5
86.136354 20.248929 -32.126370 5
88.497353 19.155283 -32.786037 5
90.850985 18.034320 -33.434739 5
93.192967 16.861762 -34.057488 5
95.514590 15.588167 -34.623782 5
97.838852 14.307454 -35.195030 5
100.146332 12.917738 -35.707612 5
102.458809 11.516400 -36.224121 5
104.747281 9.933585 -36.640321 5
106.946787 7.736435 -36.695401 5
109.037310 4.668043 -36.244774 5
110.976497 0.243295 -35.013015 5
112.732943 -6.087172 -32.697550 5
114.616128 -12.270366 -30.536697 5
-16.118251 83.163111 -15.232836 1
-11.892681 83.676829 -17.347313 1
-7.860464 84.086596 -19.323923 1
-4.609382 83.724049 -20.512637 1
-4.008766 80.391182 -18.804081 1
-12.420709 66.418789 -6.909206 1
-5.305408 70.488042 -12.412518 1
-1.159299 71.190478 -14.646040 1
-1.426579 66.456803 -11.762717 1
4.138772 69.091676 -15.765684 1
5.752687 66.721542 -15.107513 1
7.045352 63.881370 -14.040151 4
8.493860 61.197894 -13.140387 4
10.696219 59.533323 -13.175467 4
11.992113 56.547202 -12.046441 4
13.158108 53.298055 -10.714404 4
15.507152 51.777449 -10.920195 9
18.545215 51.344506 -12.070925 9
21.621164 51.033904 -13.315988 9
24.567680 50.576346 -14.424591 9
27.566944 50.267230 -15.649009 9
30.429055 49.785256 -16.718441 9
33.228424 49.247375 -17.733785 9
35.991291 48.695266 -18.730816 9
38.748555 48.184299 -19.755228 9
41.484855 47.686197 -20.783744 9
44.005385 46.810054 -21.504131 9
46.427759 45.763210 -22.088754 9
48.641322 44.294166 -22.343848 9
50.823892 42.752197 -22.550143 9
52.933808 41.035966 -22.631040 9
55.053106 39.319110 -22.723054 9
57.185982 37.611173 -22.833571 9
59.361875 35.985449 -23.017687 9
61.472411 34.172433 -23.072941 9
61.698036 27.340747 -19.430870 9
66.358113 32.258684 -24.478796 5
68.859828 31.503875 -25.332642 5
71.358854 30.778273 -26.208010 5
73.835239 30.022648 -27.062308 5
76.292526 29.242971 -27.900568 5
78.724162 28.413094 -28.705129 5
81.138568 27.553953 -29.491711 5
83.547172 26.700866 -30.285428 5
85.945241 25.835315 -31.073731 5
88.333010 24.954786 -31.855362 5
90.156183 21.804641 -31.117349 5
92.520538 20.762092 -31.812741 5
94.876738 19.689603 -32.494550 5
97.224070 18.577457 -33.157154 5
99.559655 17.403222 -33.786926 5
101.886615 16.170943 -34.387749 5
104.199932 14.840685 -34.935443 5
106.461512 13.167618 -35.277710 5
108.623178 10.778689 -35.187935 5
110.669293 7.415821 -34.519217 5
112.619316 2.999925 -33.240164 5
114.512107 -2.418064 -31.399994 5
116.920200 -4.224569 -31.788145 5
117.741320 -20.967731 -23.304162 5
-11.843422 88.007858 -16.019230 3
-7.480483 88.731332 -18.375756 3
-4.776690 87.762843 -18.979804 3
-2.373129 86.494083 -19.275570 3
-1.441428 83.562742 -17.919281 1
-0.257612 80.865667 -16.823104 1
-1.727990 74.937282 -12.602297 1
0.931687 73.872875 -13.161758 1
2.742199 71.771179 -12.724091 1
5.751239 71.192982 -13.745414 1
7.964688 69.618119 -13.818049 1
9.026535 66.488518 -12.447842 1
11.344539 65.026320 -12.648511 4
12.558511 62.002907 -11.424469 4
13.671276 58.760600 -10.031275 4
14.704650 55.316372 -8.489214 4
16.211292 52.503829 -7.545622 9
19.365305 52.222325 -8.863144 9
22.500407 51.980746 -10.201940 9
25.508410 51.600417 -11.406561 9
28.478608 51.219794 -12.599825 9
31.416097 50.845542 -13.787913 9
34.315185 50.465750 -14.961086 9
35.565320 47.100720 -13.621968 9
39.904807 49.501265 -17.108516 9
42.583622 48.877509 -18.054392 9
45.093451 47.961246 -18.756377 9
47.453231 46.763908 -19.230248 9
49.706851 45.352342 -19.535833 9
51.868553 43.737111 -19.686206 9
54.013439 42.068698 -19.804485 9
56.154936 40.372874 -19.912067 9
58.336465 38.751359 -20.088544 9
60.500062 37.066334 -20.226592 9
61.722840 32.929854 -18.507279 9
65.136348 34.445259 -21.103043 5
67.700254 33.812865 -22.059446 5
70.255945 33.203923 -23.031474 5
72.772094 32.526120 -23.950984 5
75.285756 31.883808 -24.895742 5
77.751489 31.133781 -25.761720 5
80.211027 30.400057 -26.640169 5
82.658680 29.663083 -27.517126 5
85.065163 28.814665 -28.316654 5
87.485128 28.044428 -29.173513 5
89.848764 27.085732 -29.901886 5
92.233708 26.230771 -30.705964 5
94.602872 25.332265 -31.483895 5
96.713036 23.272781 -31.483593 5
98.842927 21.202855 -31.494796 5
101.198294 20.163861 -32.207062 5
103.541165 19.059455 -32.882885 5
105.842921 17.712428 -33.408469 5
108.051368 15.756541 -33.552503 5
110.172552 13.103232 -33.269490 5
112.195951 9.524691 -32.427933 5
114.209275 5.462407 -31.320742 5
116.640328 4.283549 -32.045278 5
118.556586 -1.514242 -29.940845 6
120.871765 -4.375160 -29.687355 6
123.129557 -8.279387 -28.834127 6
-12.814321 91.270168 -13.621932 3
-9.037905 91.312212 -15.343161 3
