ply
format ascii 1.0
element vertex 1392
property float x
property float y
property float z
property int scalar_Label
end_header
39.315757 -48.864704 -3.310056 9
37.025725 -48.881204 -3.238804 9
34.738052 -48.847857 -3.172936 9
32.450133 -48.844457 -3.112568 9
30.162403 -48.890401 -3.057756 9
27.875344 -48.924045 -3.008362 9
25.586953 -48.872972 -2.964173 9
23.298790 -48.897341 -2.925602 9
21.008633 -48.888310 -2.892351 9
18.718892 -48.927683 -2.864662 9
16.424911 -48.913080 -2.842223 9
14.126356 -48.868914 -2.825102 9
11.833022 -48.944665 -2.813801 9
9.528637 -48.908565 -2.807562 9
7.225757 -48.934730 -2.806976 9
4.915952 -48.927063 -2.811733 9
2.600260 -48.907067 -2.821923 9
0.282775 -48.914870 -2.837696 9
-2.034653 -48.961739 -2.859101 9
-4.365942 -48.943011 -2.885832 9
-6.704322 -48.919349 -2.918112 9
-9.048900 -48.899904 -2.955998 9
-11.392200 -48.930888 -2.999639 9
-13.749993 -48.917901 -3.048815 9
-16.114673 -48.910562 -3.103695 9
-18.488359 -48.899508 -3.164297 9
-20.866710 -48.908396 -3.230704 9
-23.253557 -48.918921 -3.302919 9
-25.660819 -48.880247 -3.380934 9
-28.059553 -48.922961 -3.464937 9
-30.495741 -48.852382 -3.554833 9
-32.911778 -48.908499 -3.650788 9
-35.369722 -48.845629 -3.752830 9
-37.820496 -48.856298 -3.860992 9
-40.295279 -48.825530 -3.975404 9
-42.766132 -48.853645 -4.096003 9
-45.315756 -48.666476 -4.223433 9
-47.891629 -48.452484 -4.357561 9
-50.666868 -47.686132 -4.500378 9
-53.583514 -46.591920 -4.652047 9
-56.766031 -44.843122 -4.814881 9
-60.021878 -43.037290 -4.987115 9
-63.328937 -41.241930 -5.168694 9
-66.697327 -39.432103 -5.360020 9
-70.505843 -36.639698 -5.568662 8
-73.295239 -36.590230 -5.766279 8
-76.087983 -36.584424 -5.971202 8
-78.915647 -36.545802 -6.184205 8
-81.770125 -36.497231 -6.405254 8
-84.633110 -36.482336 -6.634002 8
-87.551861 -36.396562 -6.871811 8
-90.460965 -36.386867 -7.117042 8
-93.398777 -36.369316 -7.370845 8
-96.426791 -36.220519 -7.635312 8
-99.437649 -36.165501 -7.907292 8
-102.452887 -36.157642 -8.187486 8
-105.589451 -35.972548 -8.480127 8
-113.058586 -27.773104 -8.942180 8
-114.965242 -30.130032 -9.210326 8
-120.677091 -25.653813 -9.635376 7
-124.016803 -25.567550 -9.978201 7
-127.454715 -25.375920 -10.334372 7
-130.839675 -25.340357 -10.697687 7
-134.334830 -25.185870 -11.075365 7
-137.886101 -25.008498 -11.465375 7
-143.357124 -21.881627 -11.957548 7
-145.056583 -24.753357 -12.278529 7
-148.776227 -24.524137 -12.707056 7
147.828783 -30.664586 -8.889009 6
144.816142 -30.869917 -8.529843 6
141.907211 -30.895727 -8.183227 6
138.971757 -31.040244 -7.843515 6
136.074423 -31.150956 -7.513241 6
133.219356 -31.212610 -7.192321 6
130.382402 -31.282422 -6.879719 6
127.555560 -31.380763 -6.575086 6
124.783986 -31.383101 -6.279632 6
122.012650 -31.435974 -5.991586 6
119.277520 -31.436351 -5.711799 6
117.357032 -29.015792 -5.456278 6
112.933939 -34.326234 -5.157969 5
109.514396 -36.791802 -4.891429 5
106.611959 -37.744448 -4.642736 5
103.979567 -37.877279 -4.405302 5
101.392938 -37.903533 -4.175233 5
98.821301 -37.923720 -3.952021 5
96.259616 -37.954546 -3.735552 5
93.719090 -37.950176 -3.525747 5
91.183000 -37.974055 -3.322513 5
89.355558 -34.955218 -3.119783 5
86.148424 -38.001896 -2.935424 5
83.647910 -38.008989 -2.751400 5
81.149732 -38.051678 -2.573782 5
78.669409 -38.051348 -2.402199 5
76.194556 -38.067088 -2.236822 5
73.725672 -38.095993 -2.077606 5
71.268148 -38.104212 -1.924291 5
68.830264 -38.030341 -1.776340 5
66.095877 -40.075996 -1.650718 9
63.492604 -41.473633 -1.527723 9
60.924159 -42.849797 -1.411717 9
58.383338 -44.257897 -1.303028 9
55.880100 -45.606455 -1.200676 9
53.421208 -46.801396 -1.103490 9
51.008790 -47.761616 -1.010293 9
48.633384 -48.518482 -0.921041 9
46.304883 -48.831531 -0.832675 9
43.998392 -48.909614 -0.747102 9
41.696560 -48.968127 -0.666650 9
39.399238 -48.986503 -0.591019 9
37.104700 -48.971919 -0.520242 9
34.810659 -48.973120 -0.454905 9
32.517342 -48.973773 -0.394791 9
30.224331 -48.987671 -0.340074 9
27.931346 -48.982286 -0.290306 9
25.637914 -48.983649 -0.245829 9
23.343772 -48.989404 -0.206607 9
21.047984 -48.980904 -0.172377 9
18.750133 -48.966350 -0.143247 9
16.450266 -48.956804 -0.119377 9
14.151084 -48.998220 -0.101433 9
11.844726 -48.969678 -0.087682 9
9.538814 -48.991448 -0.079864 9
7.230484 -49.021510 -0.077385 9
4.914335 -49.008451 -0.079510 9
2.593431 -48.994375 -0.086864 9
0.269852 -49.000081 -0.099765 9
-2.057691 -49.014504 -0.118070 9
-4.395371 -48.994662 -0.141187 9
-6.738178 -48.983431 -0.169756 9
-9.083805 -48.996428 -0.204018 9
-11.436722 -49.005513 -0.243604 9
-13.803821 -48.975048 -0.288060 9
-16.172317 -48.981503 -0.338470 9
-18.555334 -48.955252 -0.393930 9
-20.941823 -48.956354 -0.455279 9
-23.338777 -48.950996 -0.522110 9
-25.738350 -48.976618 -0.594937 9
-28.156422 -48.964237 -0.672946 9
-30.577186 -48.984440 -0.757052 9
-33.023599 -48.945817 -0.846233 9
-35.469566 -48.954726 -0.941781 9
-37.938836 -48.921927 -1.042755 9
-40.411107 -48.924424 -1.150050 9
-42.898132 -48.920749 -1.263285 9
-45.407702 -48.887837 -1.382326 9
-48.018559 -48.581945 -1.505180 9
-50.780954 -47.877068 -1.631341 9
-53.770820 -46.586980 -1.760180 9
-56.912932 -44.982290 -1.894749 9
-60.168836 -43.200145 -2.036688 9
-63.459890 -41.471244 -2.187876 9
-66.851595 -39.621352 -2.347566 9
-70.604592 -36.995846 -2.513410 8
-73.376751 -37.003229 -2.699692 8
-76.175413 -36.995327 -2.893208 8
-79.013047 -36.945524 -3.094054 8
-81.815844 -37.028634 -3.302677 8
-84.704848 -36.964635 -3.518750 8
-87.608788 -36.922060 -3.742707 8
-90.543754 -36.866678 -3.974678 8
-93.497690 -36.826256 -4.214782 8
-96.460011 -36.823020 -4.463057 8
-99.500803 -36.716612 -4.720143 8
-102.506338 -36.736986 -4.985310 8
-105.557214 -36.724128 -5.259343 8
-109.178329 -35.706081 -5.549733 8
-114.773291 -31.198295 -5.881328 8
-120.634927 -26.467030 -6.234911 7
-123.942016 -26.443039 -6.558104 7
-127.291005 -26.407610 -6.891516 7
-130.719348 -26.300866 -7.236221 7
-134.150556 -26.254129 -7.590793 7
-137.677580 -26.116953 -7.957666 7
-141.234209 -26.000628 -8.335521 7
-144.801529 -25.935012 -8.723977 7
-148.527882 -25.695842 -9.127681 7
147.850518 -31.594277 -5.707205 6
144.909444 -31.634182 -5.364790 6
141.992908 -31.672489 -5.031020 6
139.095566 -31.720078 -4.705681 6
136.216796 -31.777379 -4.388651 6
133.384363 -31.772877 -4.079935 6
130.548443 -31.829468 -3.779104 6
127.735658 -31.879125 -3.486190 6
124.947308 -31.915763 -3.201024 6
122.179520 -31.947337 -2.923456 6
119.450633 -31.917738 -2.653136 6
117.112365 -30.756303 -2.384698 5
113.274080 -34.249799 -2.147732 5
109.769946 -36.947622 -1.919202 5
107.898970 -34.436191 -1.663099 5
104.201560 -38.096506 -1.461504 5
101.643259 -37.999465 -1.237898 5
99.067470 -38.007928 -1.021728 5
96.504951 -38.013700 -0.811984 5
93.949129 -38.040662 -0.608858 5
91.417687 -38.015619 -0.411399 5
88.889198 -38.022781 -0.220534 5
86.369369 -38.038313 -0.035927 5
83.855911 -38.071922 0.142331 5
81.362023 -38.058096 0.315280 5
78.855659 -38.154808 0.480543 5
76.382963 -38.122805 0.641962 5
73.904661 -38.166309 0.796305 5
71.449347 -38.119618 0.946454 5
68.995621 -38.103012 1.090397 5
66.272094 -40.017402 1.192076 9
63.665713 -41.373997 1.297037 9
61.094707 -42.699531 1.395753 9
58.541534 -44.135067 1.485510 9
56.030642 -45.472721 1.570631 9
53.555383 -46.747861 1.650612 9
51.137936 -47.676674 1.731822 9
48.758272 -48.386680 1.811952 9
46.414467 -48.808018 1.892901 9
44.103107 -48.851570 1.977077 9
41.794083 -48.910802 2.055779 9
39.490207 -48.914915 2.130680 9
37.188819 -48.887932 2.201279 9
34.887862 -48.868968 2.266676 9
32.586442 -48.924771 2.325259 9
30.286526 -48.889365 2.381054 9
27.986379 -48.918351 2.430288 9
25.685403 -48.894534 2.475846 9
23.384074 -48.906240 2.515550 9
21.083064 -48.955257 2.549342 9
18.777455 -48.918667 2.580322 9
16.469945 -48.896930 2.605966 9
14.163528 -48.936335 2.625083 9
11.849274 -48.897453 2.641221 9
9.534633 -48.901450 2.651282 9
7.217275 -48.914346 2.656124 9
4.897177 -48.937371 2.655702 9
2.570325 -48.935558 2.650900 9
0.239134 -48.938085 2.640955 9
-2.102289 -48.901988 2.626945 9
-4.443138 -48.915316 2.606601 9
-6.792199 -48.912657 2.581571 9
-9.143502 -48.937065 2.550740 9
-11.496713 -48.988420 2.514094 9
-13.863938 -48.996928 2.473356 9
-16.242373 -48.986411 2.427885 9
-18.619982 -49.022741 2.376021 9
-21.017284 -49.002653 2.320264 9
-23.420674 -48.998425 2.258800 9
-25.834687 -48.990087 2.192070 9
-28.246200 -49.035472 2.118672 9
-30.695232 -48.968057 2.042459 9
-33.129170 -49.007537 1.958263 9
-35.592808 -48.976007 1.870132 9
-38.044242 -49.034230 1.774387 9
-40.534614 -48.996439 1.675095 9
-43.023773 -49.009232 1.568967 9
-45.585002 -48.831035 1.461015 9
-48.213911 -48.495886 1.350207 9
-50.974279 -47.826040 1.239736 9
-53.948138 -46.611901 1.133002 9
-57.119781 -44.949432 1.027183 9
-60.393429 -43.146718 0.915750 9
-63.732873 -41.316196 0.796267 9
-67.082794 -39.608123 0.665917 9
-70.753883 -37.221678 0.537686 8
-73.559038 -37.164277 0.363234 8
-76.372860 -37.138528 0.181273 8
-79.206447 -37.117524 -0.007862 8
-82.055834 -37.111697 -0.204417 8
-84.916981 -37.130640 -0.408597 8
-87.814704 -37.119998 -0.619832 8
-90.727326 -37.129791 -0.838867 8
-93.673134 -37.122199 -1.065409 8
-96.656103 -37.092046 -1.299599 8
-99.646229 -37.102170 -1.542158 8
-102.667110 -37.105759 -1.792789 8
-105.743846 -37.057375 -2.051392 8
-109.382223 -36.024397 -2.313535 8
-114.939442 -31.612122 -2.572919 8
-120.727977 -27.036724 -2.850450 7
-124.058316 -26.982790 -3.155671 7
-127.400088 -26.970867 -3.470599 7
-130.808714 -26.908028 -3.795354 7
-134.246768 -26.860334 -4.130224 7
-137.740258 -26.787321 -4.475512 7
-141.184185 -26.856653 -4.830809 7
-144.771870 -26.765653 -5.197558 7
-148.383696 -26.705446 -5.575297 7
148.112244 -31.985552 -2.542128 6
145.189876 -31.967977 -2.212410 6
142.266253 -32.006441 -1.891198 6
139.388639 -31.990303 -1.577675 6
136.520701 -32.002690 -1.272248 6
133.659056 -32.052670 -0.974965 6
130.841968 -32.042110 -0.684713 6
128.021554 -32.091920 -0.402647 6
125.247066 -32.070051 -0.127069 6
122.476313 -32.087700 0.140768 6
119.712735 -32.136569 0.400988 6
117.295282 -31.197137 0.670282 6
113.657063 -34.041612 0.869041 5
110.121403 -36.795150 1.057442 5
107.154918 -37.895969 1.265876 5
104.494716 -38.070334 1.484438 5
101.910558 -38.034979 1.700727 5
99.323986 -38.054028 1.909646 5
96.771496 -37.991806 2.114187 5
94.208923 -38.012556 2.310811 5
91.671360 -37.978770 2.502695 5
89.128199 -38.013708 2.686994 5
86.607225 -37.998688 2.866641 5
84.098234 -37.972675 3.040791 5
81.596760 -37.953825 3.209046 5
79.115396 -37.875112 3.373282 5
76.623709 -37.891440 3.529341 5
74.146691 -37.871261 3.680856 5
71.675460 -37.859790 3.826628 5
69.215757 -37.818248 3.967842 5
66.476949 -39.760692 4.043862 9
63.866486 -41.069688 4.131973 9
61.265788 -42.547161 4.208286 9
58.713921 -43.890816 4.282241 9
56.187270 -45.283441 4.348286 9
53.700487 -46.581868 4.411124 9
51.268324 -47.579148 4.477786 9
48.889288 -48.177823 4.551965 9
46.537990 -48.579677 4.627399 9
44.206449 -48.818877 4.703190 9
41.895323 -48.779305 4.783520 9
39.583286 -48.792272 4.857223 9
37.274261 -48.763175 4.927568 9
34.966140 -48.717708 4.993703 9
32.656673 -48.780468 5.051245 9
30.348922 -48.725098 5.108188 9
28.040069 -48.670602 5.160357 9
25.731223 -48.703646 5.204640 9
23.420981 -48.692659 5.245752 9
21.109203 -48.679385 5.282201 9
18.795421 -48.663648 5.313998 9
16.482005 -48.697290 5.339248 9
14.167397 -48.740444 5.359395 9
11.842291 -48.668332 5.379011 9
9.520452 -48.690959 5.390396 9
7.192957 -48.687137 5.397984 9
4.863910 -48.708470 5.399869 9
2.527006 -48.695620 5.398220 9
0.190907 -48.731637 5.389970 9
-2.151966 -48.750930 5.377514 9
-4.508408 -48.711413 5.362374 9
-6.864252 -48.721813 5.340541 9
-9.232257 -48.695728 5.315154 9
-11.596762 -48.734606 5.282490 9
-13.970049 -48.761617 5.245326 9
-16.356846 -48.755833 5.204382 9
-18.754885 -48.735778 5.158945 9
-21.152675 -48.760904 5.106855 9
-23.564888 -48.759850 5.050626 9
-25.995843 -48.719087 4.990677 9
-28.423206 -48.739581 4.923415 9
-30.869847 -48.723514 4.852225 9
-33.315923 -48.754091 4.774177 9
-35.785291 -48.738752 4.692406 9
-38.256658 -48.761012 4.604009 9
-40.751751 -48.743184 4.511549 9
-43.250596 -48.758172 4.412531 9
-45.805292 -48.635412 4.312450 9
-48.411799 -48.402665 4.210171 9
-51.265990 -47.476541 4.123793 9
-54.260049 -46.240528 4.040343 9
-57.443570 -44.582926 3.962598 9
-60.712171 -42.832798 3.879877 9
-65.559477 -36.974926 3.909482 9
-68.383908 -36.792654 3.763010 8
-71.131373 -36.865634 3.602705 8
-73.907564 -36.913023 3.436657 8
-76.696523 -36.977013 3.263591 8
-80.764171 -34.081588 3.161119 8
-82.382853 -36.995606 2.900171 8
-85.262801 -36.997856 2.708265 8
-88.159684 -37.014630 2.508933 8
-91.075779 -37.041724 2.302183 8
-94.035430 -37.029552 2.089014 8
-96.986672 -37.087900 1.866847 8
-99.982780 -37.108105 1.637954 8
-103.012830 -37.115597 1.401593 8
-106.119447 -37.032342 1.159030 8
-109.837047 -35.877898 0.927135 8
-115.707462 -30.936141 0.747641 8
-121.083338 -27.140199 0.531526 7
-124.370393 -27.181644 0.242787 7
-127.730921 -27.156285 -0.054066 7
-131.100227 -27.177529 -0.360848 7
-134.544804 -27.136385 -0.676398 7
-137.993964 -27.151109 -1.002324 7
-141.518700 -27.109625 -1.337682 7
-145.069289 -27.093260 -1.683518 7
-148.634460 -27.119418 -2.040084 7
148.495588 -32.106325 0.622116 6
145.565807 -32.084055 0.939865 6
142.661775 -32.054997 1.249968 6
139.778545 -32.028589 1.552407 6
136.919168 -31.995735 1.847501 6
134.046478 -32.047669 2.133402 6
131.243989 -31.973461 2.414826 6
128.426816 -31.986439 2.687160 6
125.639096 -31.971449 2.953145 6
122.883756 -31.915839 3.213312 6
120.131880 -31.898097 3.465766 6
117.404855 -31.855741 3.712254 6
114.265073 -33.139345 3.913928 5
110.573979 -36.321452 4.050316 5
107.545175 -37.579481 4.233816 5
104.862928 -37.788489 4.442039 5
102.262474 -37.771185 4.651158 5
99.679943 -37.735065 4.854946 5
97.114355 -37.679644 5.053540 5
94.539162 -37.705943 5.243564 5
91.989796 -37.675449 5.429803 5
89.453905 -37.631897 5.610874 5
87.611889 -34.507772 5.899401 5
84.412625 -37.535660 5.956753 5
81.906376 -37.481506 6.121751 5
79.396151 -37.489622 6.278982 5
76.906309 -37.434223 6.433316 5
74.418176 -37.409699 6.581165 5
71.937969 -37.380712 6.723950 5
69.463233 -37.359411 6.861230 5
66.720418 -39.239749 6.914728 9
64.092520 -40.581728 6.983770 9
61.496540 -41.920457 7.046630 9
58.919267 -43.364905 7.098771 9
56.380866 -44.748648 7.147360 9
53.871557 -46.149824 7.189180 9
51.421780 -47.218887 7.239703 9
49.029071 -47.859671 7.303678 9
46.670676 -48.221027 7.374990 9
44.329458 -48.452651 7.447236 9
42.007708 -48.424854 7.526468 9
39.682681 -48.514724 7.595727 9
37.365018 -48.467987 7.666616 9
35.046971 -48.451475 7.731553 9
32.728819 -48.480693 7.789807 9
30.411697 -48.439116 7.846798 9
28.093790 -48.405729 7.898879 9
25.775195 -48.396104 7.945317 9
23.455726 -48.392621 7.986936 9
21.135616 -48.408118 8.023131 9
18.812845 -48.394747 8.056168 9
16.489413 -48.411413 8.083254 9
14.161426 -48.390308 8.107613 9
11.829646 -48.361842 8.127798 9
9.496333 -48.360636 8.142146 9
7.162555 -48.394261 8.150282 9
4.820902 -48.384347 8.155950 9
2.476622 -48.392777 8.156175 9
0.125522 -48.384012 8.152645 9
-2.231271 -48.373662 8.144598 9
-4.593679 -48.365613 8.131827 9
-6.954095 -48.413019 8.111775 9
-9.330965 -48.392921 8.090296 9
-11.713021 -48.386016 8.063508 9
-14.095869 -48.417190 8.030208 9
-16.493128 -48.410734 7.993964 9
-18.897789 -48.409782 7.952696 9
-21.302044 -48.453231 7.904549 9
-23.727496 -48.438179 7.854321 9
-26.154384 -48.460920 7.797461 9
-28.585429 -48.507310 7.734610 9
-31.924799 -44.930212 7.833421 9
-34.409525 -44.987118 7.759154 9
-35.975660 -48.510794 7.522488 9
-38.472347 -48.477616 7.443210 9
-40.954374 -48.541808 7.354410 9
-43.475243 -48.515973 7.264447 9
-46.036149 -48.406949 7.172859 9
-49.960425 -44.078896 7.259488 9
-51.561705 -47.117001 7.019562 9
-54.642162 -45.664969 6.968284 9
-57.815689 -44.080840 6.915622 9
-61.144041 -42.207757 6.867738 9
-64.494240 -40.430745 6.808154 9
-68.750733 -36.432850 6.830817 8
-71.506894 -36.517000 6.679591 8
-74.297903 -36.560307 6.523854 8
-77.120489 -36.575534 6.362947 8
-79.968136 -36.581824 6.195987 8
-82.808328 -36.655870 6.019981 8
-85.701693 -36.659172 5.840053 8
-88.591620 -36.721658 5.651259 8
-91.525457 -36.740309 5.457252 8
-94.505157 -36.715893 5.257783 8
-97.458957 -36.798230 5.047572 8
-100.515049 -36.728487 4.835260 8
-103.545862 -36.764942 4.612054 8
-106.669500 -36.679435 4.385188 8
-110.543644 -35.268947 4.190503 8
-116.794683 -29.689227 4.107233 8
-121.627890 -26.910471 3.925803 7
-124.943426 -26.930067 3.654105 7
-128.303805 -26.932893 3.374235 7
-131.665035 -26.994689 3.084045 7
-135.068588 -27.046523 2.785191 7
-138.544725 -27.042920 2.478478 7
-142.042896 -27.067785 2.161680 7
-145.593629 -27.074919 1.835623 7
-149.174679 -27.100602 1.499312 7
149.038336 -31.876579 3.798370 6
146.117570 -31.803591 4.105938 6
143.224028 -31.718298 4.406570 6
140.351287 -31.633193 4.700044 6
138.783238 -28.410903 5.089387 6
134.621519 -31.573360 5.262311 6
131.787260 -31.542396 5.533083 6
128.974059 -31.506460 5.797264 6
126.186064 -31.451923 6.055485 6
123.416617 -31.393963 6.307335 6
120.655917 -31.358789 6.551914 6
117.903656 -31.347566 6.789215 6
114.998065 -31.859647 6.999045 5
111.159011 -35.430551 7.075296 5
108.032245 -36.947706 7.226172 5
105.293107 -37.298757 7.418815 5
102.672548 -37.305221 7.620191 5
100.099722 -37.185983 7.821443 5
97.515434 -37.149660 8.013481 5
94.951042 -37.080053 8.201539 5
92.392158 -37.030145 8.383280 5
89.836528 -37.009948 8.558255 5
87.304192 -36.931293 8.730702 5
84.775168 -36.877463 8.896740 5
82.250657 -36.843764 9.056612 5
79.730542 -36.831363 9.210276 5
77.225087 -36.785181 9.360528 5
74.730532 -36.718437 9.506800 5
72.238652 -36.674717 9.646926 5
69.754712 -36.621332 9.782616 5
66.989183 -38.550335 9.809238 9
64.337371 -39.960596 9.856626 9
61.714250 -41.404813 9.896081 9
59.141157 -42.703151 9.937373 9
56.588811 -44.086142 9.968272 9
54.058990 -45.555280 9.988698 9
51.599496 -46.587060 10.027524 9
49.180825 -47.393485 10.073573 9
46.806300 -47.825765 10.135472 9
44.465489 -47.872872 10.214279 9
42.124481 -47.989424 10.284715 9
39.792501 -47.984558 10.357582 9
37.462038 -47.977639 10.426192 9
35.133557 -47.925037 10.493063 9
32.804068 -47.936913 10.551901 9
30.475254 -47.902240 10.609087 9
28.145959 -47.899648 10.660101 9
25.816468 -47.915706 10.705712 9
23.486033 -47.916782 10.747881 9
21.153173 -47.884434 10.787699 9
18.819389 -47.882025 10.821465 9
16.482665 -47.864355 10.851824 9
14.144905 -47.874283 10.876257 9
11.800486 -47.830129 10.899569 9
9.456911 -47.845800 10.915042 9
7.111529 -47.878615 10.925180 9
4.761371 -47.898724 10.931738 9
2.400389 -47.858903 10.937499 9
0.035869 -47.836940 10.937852 9
-2.330239 -47.847051 10.931943 9
-4.698803 -47.879496 10.920332 9
-7.080381 -47.862498 10.907240 9
-9.464605 -47.872626 10.888126 9
-11.855934 -47.881521 10.864641 9
-14.250745 -47.912066 10.835418 9
-16.668513 -47.860250 10.806532 9
-19.075439 -47.910523 10.767142 9
-21.506975 -47.880790 10.727875 9
-23.937491 -47.901284 10.681091 9
-26.377044 -47.923544 10.629589 9
-28.820878 -47.969308 10.572080 9
-31.295029 -47.932898 10.514610 9
-33.763547 -47.964880 10.448470 9
-36.251269 -47.966972 10.379259 9
-38.739056 -48.012933 10.302732 9
-41.248705 -48.024499 10.223284 9
-43.779824 -48.008279 10.140461 9
-46.378394 -47.820250 10.062178 9
-49.099206 -47.307598 9.996614 9
-51.945783 -46.492241 9.942102 9
-55.056482 -44.998197 9.918599 9
-58.304624 -43.249331 9.902232 9
-61.654319 -41.369760 9.885845 9
-65.040786 -39.547227 9.859118 9
-69.280483 -35.650743 9.933693 8
-72.076849 -35.677845 9.794706 8
-74.887010 -35.719733 9.649084 8
-77.739520 -35.708345 9.500218 8
-80.583971 -35.767464 9.341709 8
-83.451911 -35.821481 9.177337 8
-86.330985 -35.899930 9.005547 8
-89.251783 -35.936362 8.829491 8
-92.182046 -36.003755 8.645505 8
-95.115710 -36.114119 8.452982 8
-99.641578 -33.062389 8.399502 8
-101.148624 -36.152456 8.056339 8
-104.182191 -36.218505 7.845546 8
-107.472296 -35.854163 7.646508 8
-111.761281 -33.724576 7.515075 8
-117.965311 -28.300351 7.510416 8
-122.379826 -26.318444 7.347113 7
-125.678368 -26.402505 7.089396 7
-129.043683 -26.430778 6.825811 7
-132.425888 -26.490949 6.552681 7
-135.866629 -26.515689 6.272411 7
-139.287285 -26.633505 5.980081 7
-142.783221 -26.692893 5.681073 7
-146.362043 -26.687807 5.375188 7
-149.961695 -26.716471 5.058793 7
146.844506 -31.132679 7.300691 6
143.933365 -31.046198 7.591156 6
141.026185 -31.000321 7.873024 6
138.126004 -30.989107 8.146556 6
135.279798 -30.896111 8.417096 6
132.461757 -30.778930 8.682317 6
129.651007 -30.688828 8.939952 6
126.850345 -30.618732 9.190373 6
124.067980 -30.545584 9.434770 6
121.282530 -30.528938 9.670248 6
118.547419 -30.413151 9.904738 6
115.865317 -30.178510 10.139615 5
111.908783 -34.024938 10.152832 5
108.678253 -35.800576 10.265394 5
105.843635 -36.405467 10.433381 5
103.204294 -36.416168 10.627767 5
100.599053 -36.352287 10.820866 5
98.009155 -36.274203 11.009486 5
95.439240 -36.159847 11.194994 5
92.871731 -36.074693 11.373720 5
90.292112 -36.082367 11.541929 5
87.749371 -35.974181 11.711897 5
85.202420 -35.923670 11.873485 5
82.662693 -35.880790 12.029673 5
80.123291 -35.879692 12.178414 5
77.611233 -35.777970 12.328477 5
75.095929 -35.731068 12.470396 5
72.582241 -35.716388 12.605546 5
70.078444 -35.683700 12.737103 5
68.084459 -32.193553 13.084481 5
64.626212 -39.023339 12.767497 9
61.985147 -40.474796 12.787623 9
59.378059 -41.921022 12.802313 9
56.810693 -43.302088 12.815612 9
54.265110 -44.777382 12.817197 9
51.782741 -45.901376 12.836601 9
49.355486 -46.642998 12.876377 9
46.960971 -47.161504 12.926331 9
44.598141 -47.360191 12.993251 9
42.247392 -47.440376 13.063865 9
39.904032 -47.424398 13.136790 9
37.563640 -47.353391 13.209320 9
35.222106 -47.326859 13.274702 9
32.880746 -47.307055 13.335507 9
30.539273 -47.322560 13.389771 9
28.197508 -47.260786 13.445265 9
25.855354 -47.274402 13.491459 9
23.510274 -47.198292 13.539790 9
21.165956 -47.220184 13.577234 9
18.818627 -47.202965 13.613315 9
16.468952 -47.186818 13.645242 9
14.117753 -47.190535 13.671697 9
11.761273 -47.160790 13.696411 9
9.401322 -47.135930 13.716695 9
7.041458 -47.157375 13.729632 9
4.667691 -47.079183 13.745465 9
2.298625 -47.097324 13.750413 9
-0.075604 -47.111124 13.751539 9
-2.454164 -47.131141 13.748087 9
-4.848017 -47.081193 13.745398 9
-7.242603 -47.074550 13.735491 9
-9.635576 -47.120777 13.717680 9
-12.037545 -47.150884 13.696793 9
-14.455778 -47.129490 13.675283 9
-16.881709 -47.112238 13.649219 9
-19.307809 -47.138636 13.615818 9
-21.746926 -47.143277 13.579623 9
-24.191565 -47.165496 13.537862 9
-26.647473 -47.179990 13.492265 9
-29.117399 -47.178251 13.443380 9
-31.597365 -47.180200 13.389788 9
-34.083405 -47.202676 13.330296 9
-36.585137 -47.209514 13.267350 9
-39.096261 -47.226839 13.199116 9
-41.613851 -47.265479 13.124820 9
-44.129602 -47.352725 13.042592 9
-46.761627 -47.104683 12.978224 9
-49.479013 -46.652132 12.922576 9
-52.386842 -45.698924 12.895036 9
-55.616322 -43.909222 12.917132 9
-58.857805 -42.240018 12.924865 9
-62.236065 -40.339527 12.941169 9
-65.696207 -38.377294 12.954572 9
-69.971326 -34.454190 13.086983 8
-72.765615 -34.543094 12.953956 8
-75.580385 -34.627555 12.815704 8
-78.429320 -34.676821 12.674071 8
-81.294876 -34.736267 12.526089 8
-84.165212 -34.833754 12.369969 8
-87.078441 -34.883600 12.210916 8
-90.002382 -34.960608 12.044226 8
-92.953867 -35.028989 11.871989 8
-97.543162 -31.774329 11.890040 8
-98.954547 -35.118656 11.511619 8
-101.989255 -35.173976 11.321230 8
-105.053361 -35.225501 11.124513 8
-108.500192 -34.612331 10.958466 8
-113.885662 -30.526647 10.976859 8
-120.101146 -25.188992 11.049743 7
-123.416711 -25.231159 10.817306 7
-126.756942 -25.289409 10.576483 7
-130.138065 -25.337348 10.328527 7
-133.484861 -25.501285 10.066806 7
-136.872284 -25.655172 9.797784 7
-140.373136 -25.686677 9.526764 7
-143.884884 -25.763666 9.245138 7
-147.440035 -25.836191 8.955195 7
147.702733 -30.174266 10.533577 6
144.788831 -30.044834 10.816326 6
141.883067 -29.944372 11.091047 6
138.999168 -29.840129 11.359626 6
136.142101 -29.717577 11.623025 6
133.287243 -29.636390 11.877909 6
130.457091 -29.539030 12.127692 6
127.653663 -29.416744 12.373048 6
124.849785 -29.341264 12.609744 6
122.067667 -29.251130 12.841571 6
119.290990 -29.191453 13.065816 6
117.086434 -27.428421 13.393097 5
112.944958 -31.725934 13.326130 5
111.185729 -28.577775 13.733544 5
106.500155 -35.162035 13.496973 5
103.807748 -35.284260 13.677245 5
101.192770 -35.183581 13.867208 5
98.576754 -35.128363 14.049092 5
95.993165 -34.990584 14.231690 5
93.392014 -34.962120 14.401882 5
90.796973 -34.953934 14.565765 5
88.240525 -34.821903 14.733561 5
85.676793 -34.759991 14.891705 5
83.129984 -34.657838 15.048064 5
80.575280 -34.634024 15.194160 5
78.041052 -34.545277 15.340373 5
75.516311 -34.440589 15.483250 5
72.987775 -34.394428 15.617342 5
70.469748 -34.323070 15.748842 5
67.954961 -34.267994 15.874714 5
64.957957 -37.782633 15.726813 9
62.298198 -39.223571 15.728853 9
59.650837 -40.842793 15.711780 9
57.059794 -42.275367 15.703481 9
54.495318 -43.764372 15.685540 9
51.988506 -44.971201 15.684227 9
49.533703 -45.858673 15.702831 9
47.130011 -46.301155 15.751576 9
44.753560 -46.477082 15.816952 9
42.390031 -46.510931 15.889437 9
40.030449 -46.512918 15.960466 9
37.673458 -46.484137 16.029997 9
35.317922 -46.417660 16.098620 9
32.960815 -46.438781 16.156373 9
30.604613 -46.409785 16.214230 9
28.247841 -46.384887 16.267883 9
25.890307 -46.370139 16.316849 9
23.531699 -46.358091 16.361730 9
21.171992 -46.357414 16.401827 9
18.809586 -46.334338 16.439873 9
16.444204 -46.303102 16.474722 9
14.077948 -46.306766 16.502882 9
11.710217 -46.329163 16.525653 9
9.334412 -46.289325 16.549615 9
6.961991 -46.334868 16.562756 9
4.578989 -46.309181 16.577815 9
2.196029 -46.329465 16.585239 9
-0.191591 -46.349575 16.588777 9
-2.591641 -46.313551 16.592981 9
-4.994517 -46.304284 16.591078 9
-7.403701 -46.296405 16.585120 9
-9.810120 -46.349066 16.570270 9
-12.241120 -46.293576 16.560254 9
-14.663745 -46.333461 16.538473 9
-17.106106 -46.308060 16.517983 9
-19.547871 -46.331303 16.489493 9
-21.999917 -46.346615 16.457577 9
-24.459491 -46.369789 16.420928 9
-26.933829 -46.370348 16.381979 9
-29.415106 -46.385886 16.337658 9
-31.906227 -46.404944 16.288860 9
-34.402475 -46.447242 16.233970 9
-36.921307 -46.447322 16.178196 9
-39.446514 -46.469591 16.116337 9
-41.985657 -46.487478 16.050477 9
-44.544667 -46.483504 15.981950 9
-47.158763 -46.348333 15.919309 9
-49.968481 -45.659094 15.895590 9
-52.958815 -44.515451 15.902385 9
-56.212074 -42.721161 15.954398 9
-59.590434 -40.727867 16.015791 9
-63.030335 -38.730656 16.071125 9
-66.511062 -36.788049 16.115727 9
-70.784102 -32.947880 16.298343 8
-73.631103 -32.968829 16.179684 8
-76.470327 -33.059070 16.050537 8
-79.354537 -33.088705 15.920646 8
-82.219338 -33.214104 15.778214 8
-85.145451 -33.246517 15.637240 8
-88.059449 -33.357039 15.484951 8
-91.017235 -33.421029 15.330448 8
-94.008664 -33.464922 15.171649 8
-96.981844 -33.598505 15.000570 8
-100.054395 -33.581226 14.834317 8
-103.101408 -33.670053 14.654456 8
-106.137858 -33.830826 14.463462 8
-110.106682 -32.295983 14.382899 8
-117.009965 -25.518201 14.650166 8
-121.369832 -23.647530 14.570385 7
-124.698046 -23.723746 14.351266 7
-128.042546 -23.829718 14.123131 7
-131.386916 -23.992959 13.884125 7
-134.798294 -24.101614 13.641393 7
-138.211505 -24.265678 13.387702 7
-141.729881 -24.321126 13.133225 7
-145.215746 -24.488693 12.863987 7
-148.792736 -24.576969 12.591647 7
148.770666 -28.756584 13.827200 6
145.876861 -28.519984 14.107818 6
142.969958 -28.357293 14.377540 6
140.057879 -28.253556 14.637285 6
137.197573 -28.070478 14.896619 6
134.331628 -27.945996 15.146137 6
131.486314 -27.814381 15.390471 6
128.685124 -27.609712 15.634497 6
125.869914 -27.485251 15.867291 6
123.091471 -27.300967 16.099087 6
120.309796 -27.167543 16.321845 6
118.385422 -24.463405 16.733375 5
114.309271 -28.412382 16.636491 5
112.509307 -25.267519 17.074418 5
107.267287 -33.557133 16.623445 5
104.535232 -33.729826 16.791930 5
101.890393 -33.649508 16.975252 5
99.263261 -33.546221 17.155653 5
96.650761 -33.427118 17.332665 5
94.033395 -33.367423 17.500283 5
91.432091 -33.283717 17.665260 5
88.829277 -33.248345 17.821748 5
86.259956 -33.103378 17.982784 5
83.686706 -33.012314 18.134983 5
81.126522 -32.894056 18.285101 5
78.575049 -32.765055 18.431837 5
76.021414 -32.682465 18.570397 5
73.474816 -32.596355 18.705014 5
70.936731 -32.493622 18.836855 5
68.398651 -32.425649 18.961547 5
65.328919 -36.269882 18.742861 9
62.617491 -37.937546 18.706409 9
59.967072 -39.408870 18.681713 9
57.330457 -41.062303 18.635837 9
54.738908 -42.628879 18.592425 9
52.204546 -43.938508 18.566756 9
49.740571 -44.725637 18.582829 9
47.307099 -45.339344 18.610059 9
44.911743 -45.563343 18.668056 9
42.534222 -45.568504 18.741848 9
40.159807 -45.549915 18.814046 9
37.785358 -45.572148 18.878843 9
35.414591 -45.501306 18.948374 9
33.042245 -45.510962 19.006927 9
30.670601 -45.473257 19.066118 9
28.298291 -45.449911 19.120346 9
25.925097 -45.427448 19.170843 9
23.551571 -45.442650 19.214239 9
21.175825 -45.422798 19.257207 9
18.798905 -45.423079 19.294684 9
16.417811 -45.385191 19.332042 9
14.036210 -45.390354 19.361792 9
11.649425 -45.363675 19.390844 9
9.259290 -45.343377 19.415667 9
6.869480 -45.371771 19.432333 9
4.473906 -45.379683 19.447240 9
2.066086 -45.318285 19.464913 9
-0.336272 -45.353415 19.469963 9
-2.747010 -45.361527 19.473837 9
-5.172693 -45.304729 19.480042 9
-7.593113 -45.332691 19.474670 9
-10.026984 -45.316098 19.469709 9
-12.468009 -45.302295 19.460746 9
-14.914293 -45.303905 19.446592 9
-17.367091 -45.314378 19.427834 9
-19.830039 -45.316550 19.406040 9
-22.294887 -45.353216 19.377227 9
-24.781901 -45.329621 19.350129 9
-27.270526 -45.345264 19.315523 9
-29.769030 -45.362805 19.276831 9
-32.279705 -45.374867 19.234700 9
-34.803858 -45.379032 19.189315 9
-37.331776 -45.414083 19.137088 9
-39.877776 -45.427476 19.082795 9
-42.430234 -45.463349 19.022364 9
-45.022995 -45.408798 18.966021 9
-47.689727 -45.166598 18.922451 9
-50.557200 -44.363131 18.925166 9
-53.640920 -43.007012 18.972826 9
-56.957881 -41.102134 19.064466 9
-60.383267 -39.053482 19.163247 9
-63.936368 -36.823666 19.272181 9
-68.969312 -30.828512 19.708400 8
-71.797568 -30.930202 19.597522 8
-74.668777 -30.969739 19.487274 8
-77.541120 -31.056346 19.367966 8
-80.431330 -31.148132 19.243229 8
-83.353247 -31.214271 19.115660 8
-86.279054 -31.321413 18.979416 8
-89.248338 -31.380866 18.842055 8
-92.220709 -31.484794 18.695591 8
-95.207368 -31.608189 18.542117 8
-98.233659 -31.699439 18.385902 8
-101.271236 -31.819261 18.221740 8
-104.343132 -31.922401 18.053325 8
-107.688460 -31.555168 17.917731 8
-112.974867 -27.639059 18.064393 8
-119.719807 -21.294597 18.395545 7
-123.049639 -21.382763 18.196964 7
-126.372287 -21.540764 17.986345 7
-129.721796 -21.707850 17.768480 7
-133.085105 -21.907150 17.541459 7
-136.491026 -22.091388 17.308856 7
-139.972621 -22.210451 17.074304 7
-143.493208 -22.327851 16.832708 7
-147.020486 -22.495310 16.580055 7
-150.565212 -22.695610 16.317576 7
147.235990 -26.389681 17.492000 6
146.099746 -21.996398 18.091060 6
141.358379 -26.099135 18.006714 6
138.475084 -25.888873 18.260981 6
135.596146 -25.710923 18.507233 6
132.740769 -25.516029 18.749582 6
131.576113 -20.816040 19.365556 6
127.060542 -25.172934 19.214804 6
124.252522 -24.975742 19.441966 6
121.454146 -24.791354 19.663069 6
118.651441 -24.661537 19.874518 6
116.296925 -23.169447 20.200804 5
111.649079 -29.070722 19.869102 5
108.250132 -31.242203 19.857364 5
105.404535 -31.696086 19.992449 5
102.736691 -31.593038 20.172730 5
100.077281 -31.500867 20.347546 5
97.439348 -31.367936 20.521678 5
94.804203 -31.262771 20.688921 5
92.196610 -31.082030 20.858893 5
89.578743 -30.980285 21.017303 5
86.967886 -30.886321 21.170772 5
84.371297 -30.763668 21.322788 5
81.776035 -30.671196 21.467835 5
79.195990 -30.536709 21.612818 5
76.605670 -30.494425 21.744929 5
74.032733 -30.392263 21.878775 5
71.461521 -30.315444 22.006200 5
68.896724 -30.234006 22.130129 5
65.740252 -34.480813 21.826064 9
63.016121 -36.047331 21.778290 9
60.305303 -37.805968 21.706453 9
57.651900 -39.397589 21.646046 9
55.032467 -41.004295 21.579235 9
52.456114 -42.523365 21.516360 9
49.958026 -43.476467 21.505539 9
47.504664 -44.101612 21.523480 9
45.092483 -44.294121 21.581103 9
42.695829 -44.303695 21.653581 9
40.304279 -44.244434 21.729523 9
37.913680 -44.171211 21.803419 9
35.520742 -44.194225 21.864060 9
33.129637 -44.171362 21.925907 9
30.738506 -44.139600 21.985219 9
28.346953 -44.142767 22.037512 9
25.954324 -44.102702 22.090810 9
23.461760 -40.190472 22.539483 9
21.029517 -40.182979 22.583245 9
18.772923 -44.161904 22.211681 9
16.375397 -44.167176 22.246613 9
13.972833 -44.131846 22.282333 9
11.568717 -44.125207 22.311667 9
9.158554 -44.088227 22.340733 9
6.745407 -44.068112 22.364630 9
4.326484 -44.036993 22.386245 9
1.905695 -44.036575 22.401235 9
-0.523874 -44.006261 22.415894 9
-2.949140 -44.055681 22.418801 9
-5.392486 -44.012822 22.427849 9
-7.834715 -44.025833 22.427605 9
-10.291011 -43.992823 22.428660 9
-12.738647 -44.057778 22.416011 9
-15.213320 -44.009238 22.411651 9
-17.693734 -43.979319 22.401805 9
-20.168687 -44.023647 22.380675 9
-22.653715 -44.060015 22.356791 9
-25.161177 -44.035558 22.335613 9
-27.670259 -44.050826 22.306675 9
-30.186883 -44.078284 22.272814 9
-32.708905 -44.127062 22.233061 9
-35.254342 -44.127476 22.194589 9
-38.904941 -40.091015 22.568411 9
-40.369876 -44.174125 22.101619 9
-42.944376 -44.205736 22.048566 9
-45.553053 -44.168258 21.998735 9
-49.739079 -39.126699 22.456568 9
-51.211125 -42.871848 22.011812 9
-54.422448 -41.208019 22.115174 9
-57.836568 -39.105099 22.258082 9
-61.404856 -36.742718 22.421845 9
-64.995443 -34.507770 22.567044 9
-70.221377 -28.104248 23.125442 8
-73.093778 -28.192914 23.024664 8
-75.958267 -28.348970 22.912613 8
-78.885293 -28.396525 22.806791 8
-81.818387 -28.480289 22.692676 8
-84.758393 -28.597260 22.570537 8
-87.724033 -28.704371 22.444574 8
-90.699088 -28.839808 22.310966 8
-93.728001 -28.907813 22.178990 8
-96.751451 -29.039279 22.035799 8
-99.783576 -29.202524 21.884454 8
-102.845640 -29.354604 21.729029 8
-106.056287 -29.266769 21.591184 8
-116.444184 -15.571580 22.734896 7
-118.682694 -17.723434 22.367088 7
-121.962355 -17.945951 22.176063 7
-125.293282 -18.129044 21.982867 7
-128.620117 -18.373488 21.778030 7
-132.010735 -18.561607 21.572314 7
-135.476002 -18.680765 21.366626 7
-138.909478 -18.910887 21.144497 7
-142.387327 -19.125351 20.917336 7
-145.844785 -19.428354 20.675753 7
-149.416783 -19.609721 20.438235 7
148.907210 -23.567596 20.999738 6
145.954684 -23.331780 21.260197 6
143.018516 -23.100822 21.514994 6
140.135885 -22.781713 21.772911 6
137.261922 -22.478841 22.024403 6
134.376332 -22.244652 22.264516 6
131.504477 -22.015360 22.499290 6
128.659117 -21.754311 22.732337 6
125.828204 -21.490974 22.960931 6
123.008269 -21.233419 23.184356 6
120.208032 -20.953890 23.405412 6
117.408456 -20.707806 23.618691 6
113.838810 -22.988178 23.574205 5
109.562289 -27.845560 23.261939 5
106.474186 -28.985963 23.316409 5
103.723750 -29.048881 23.475135 5
101.041062 -28.914926 23.649672 5
98.401609 -28.653536 23.833251 5
95.740082 -28.510521 24.000591 5
93.087774 -28.367061 24.163955 5
90.454766 -28.176449 24.328299 5
87.828893 -27.985707 24.488778 5
85.191932 -27.880175 24.636377 5
82.573883 -27.718305 24.786097 5
79.937462 -27.687187 24.918027 5
77.336088 -27.505299 25.062297 5
74.735237 -27.348746 25.200133 5
72.140360 -27.184707 25.335091 5
69.550570 -27.014442 25.467075 5
66.254794 -31.966025 25.035745 9
63.443362 -33.955727 24.921598 9
60.696829 -35.774069 24.821162 9
58.003981 -37.472624 24.729043 9
55.346860 -39.191002 24.630003 9
52.730042 -40.878774 24.529723 9
50.196901 -41.978888 24.490409 9
47.724701 -42.565450 24.504426 9
45.283004 -42.886107 24.544549 9
42.866295 -42.890399 24.616721 9
40.451982 -42.889410 24.686196 9
38.042347 -42.794642 24.762986 9
35.629551 -42.813549 24.823702 9
33.218997 -42.751725 24.890316 9
30.807607 -42.702457 24.952297 9
28.395240 -42.652716 25.011128 9
25.981444 -42.601484 25.066931 9
23.567622 -42.622960 25.111241 9
21.151122 -42.593022 25.158220 9
18.732882 -42.575724 25.200562 9
16.310501 -42.527758 25.243229 9
13.887454 -42.524386 25.277595 9
11.459719 -42.499022 25.311295 9
9.026356 -42.453214 25.344156 9
6.593337 -42.462562 25.367478 9
4.155334 -42.463613 25.388551 9
1.710372 -42.444817 25.408704 9
-0.733067 -42.484266 25.418926 9
-3.189266 -42.463759 25.432841 9
-5.657968 -42.400740 25.448433 9
-8.124718 -42.402235 25.453335 9
-10.593820 -42.432565 25.451650 9
-13.076545 -42.423421 25.451253 9
-15.557174 -42.470940 25.441028 9
-18.068220 -42.398093 25.441394 9
-20.563474 -42.455746 25.423376 9
-23.077483 -42.463497 25.407776 9
-25.602128 -42.467213 25.389278 9
-28.133896 -42.484840 25.365790 9
-30.676206 -42.502555 25.338882 9
-33.234015 -42.502638 25.310564 9
-35.793755 -42.541165 25.274364 9
-38.367657 -42.570670 25.235708 9
-40.953246 -42.602861 25.193223 9
-43.563454 -42.595044 25.151757 9
-46.215437 -42.496480 25.117047 9
-49.048199 -41.873761 25.138397 9
-52.063785 -40.773702 25.210103 9
-57.610069 -32.213193 26.124591 9
-58.972079 -36.373063 25.590027 9
-62.657088 -33.794712 25.815286 9
-66.374984 -31.328672 26.022519 9
-71.959589 -24.104673 26.759440 8
-74.880140 -24.206648 26.666054 8
-77.785570 -24.394348 26.558824 8
-80.730083 -24.530432 26.453093 8
-83.679279 -24.702405 26.339023 8
-86.687528 -24.783547 26.230630 8
-92.143320 -19.403170 26.720735 8
-92.749247 -24.997190 25.994567 8
-95.795753 -25.145613 25.865050 8
-98.853068 -25.320644 25.727948 8
-101.940704 -25.482357 25.587559 8
-105.014284 -25.721785 25.433934 8
-108.809175 -24.605611 25.421509 8
-117.518344 -14.264816 26.391761 7
-120.758184 -14.605452 26.206235 7
-124.036955 -14.922280 26.018018 7
-127.319471 -15.281104 25.820031 7
-130.662116 -15.583114 25.622623 7
-134.013697 -15.920731 25.415945 7
-137.380443 -16.283176 25.201074 7
-140.806681 -16.598617 24.985352 7
-144.268741 -16.909556 24.764217 7
-147.742498 -17.255805 24.533491 7
149.486054 -16.106995 25.296957 6
146.534030 -15.694935 25.567246 6
143.594242 -15.288434 25.832321 6
140.695020 -14.814695 26.099989 6
137.819177 -14.310755 26.366509 6
134.964950 -13.776908 26.631982 6
132.110309 -13.269288 26.890441 6
129.264391 -12.762622 27.144648 6
126.435844 -12.229911 27.397630 6
123.643656 -11.609549 27.656313 6
120.858375 -10.982770 27.911874 6
118.090610 -10.312929 28.168475 6
111.836945 -21.269530 27.112244 5
107.940751 -24.928871 26.864318 5
105.027117 -25.394492 26.971274 5
102.298785 -25.259066 27.142328 5
99.594191 -25.072985 27.315311 5
98.427490 -18.737956 28.194673 5
94.216814 -24.678810 27.652510 5
91.549971 -24.438027 27.820649 5
88.881104 -24.235486 27.980709 5
86.215382 -24.049406 28.135230 5
83.553638 -23.875487 28.284736 5
80.907335 -23.652108 28.436545 5
78.251428 -23.508501 28.575388 5
75.603417 -23.351978 28.712257 5
72.949374 -23.264705 28.837357 5
70.300684 -23.180660 28.958570 5
66.857557 -28.843594 28.383218 9
63.981826 -31.027581 28.220914 9
61.162211 -33.148011 28.061298 9
58.408774 -35.090957 27.918420 9
55.690225 -37.111171 27.761474 9
53.042874 -38.826245 27.637287 9
50.474731 -40.020842 27.572675 9
47.962001 -40.810055 27.554048 9
45.502133 -41.036808 27.601200 9
43.053960 -41.171892 27.656466 9
40.618411 -41.120322 27.731714 9
38.183495 -41.070887 27.803674 9
35.748913 -41.020584 27.872731 9
33.313654 -41.010834 27.933735 9
30.878830 -40.944310 27.998819 9
28.442875 -40.907418 28.057225 9
26.005624 -40.861819 28.113743 9
23.566593 -40.815381 28.167398 9
21.125753 -40.780413 28.216649 9
18.684801 -40.797545 28.256383 9
16.237472 -40.730651 28.303723 9
13.791272 -40.742900 28.338134 9
11.339003 -40.710677 28.375187 9
8.884473 -40.700743 28.406463 9
6.422588 -40.655889 28.439186 9
3.960855 -40.663745 28.462276 9
1.489722 -40.629350 28.487736 9
-0.980643 -40.650024 28.503242 9
-3.462452 -40.624150 28.521655 9
-5.946094 -40.632627 28.532716 9
-8.440993 -40.609492 28.544779 9
-10.934603 -40.641352 28.546848 9
-13.442221 -40.631950 28.551119 9
-15.962412 -40.598639 28.555378 9
-18.484291 -40.604755 28.551575 9
-21.016532 -40.603671 28.545609 9
-23.556645 -40.610591 28.535531 9
-26.097880 -40.657264 28.517301 9
-28.665586 -40.630920 28.505191 9
-31.227954 -40.674865 28.481018 9
-33.810920 -40.679429 28.458653 9
-36.406812 -40.680615 28.433506 9
-39.013554 -40.688455 28.404283 9
-41.623857 -40.730023 28.367539 9
-44.274951 -40.676380 28.339512 9
-46.967757 -40.536224 28.319031 9
-49.840435 -39.879419 28.360103 9
-53.106010 -38.101056 28.538368 9
-56.599886 -35.802070 28.777776 9
-60.292800 -33.118426 29.060875 9
-64.270124 -29.848457 29.412475 9
-69.709411 -22.838777 30.225294 8
-72.668015 -22.850262 30.156944 8
-75.659398 -22.830398 30.088572 8
-78.655602 -22.853565 30.010878 8
-81.679051 -22.863604 29.930786 8
-84.728667 -22.865979 29.847551 8
-87.801433 -22.870108 29.759943 8
-90.890172 -22.893853 29.665709 8
-93.995170 -22.936975 29.564828 8
-97.152286 -22.923308 29.466543 8
-100.311093 -22.963937 29.357208 8
-103.509626 -22.979499 29.246428 8
-107.588345 -21.304988 29.335155 8
110.362009 -17.622187 30.922040 5
106.302396 -21.871125 30.545272 5
103.433841 -22.088428 30.667911 5
100.660145 -22.010471 30.823887 5
97.916666 -21.857480 30.985745 5
95.163391 -21.784620 31.133852 5
92.460580 -21.537317 31.300735 5
89.761267 -21.303197 31.462572 5
87.070268 -21.058639 31.622428 5
84.381065 -20.832169 31.776657 5
81.702537 -20.577009 31.931346 5
79.020622 -20.363993 32.077330 5
76.345988 -20.134557 32.222242 5
73.673202 -19.916574 32.362476 5
71.005810 -19.685306 32.501298 5
68.340425 -19.458662 32.636387 5
64.623678 -27.335407 31.696058 9
61.726585 -29.727859 31.474526 9
58.891505 -32.031624 31.260006 9
56.111240 -34.286324 31.047412 9
53.404020 -36.269576 30.866628 9
50.781333 -37.736023 30.750889 9
48.237032 -38.554347 30.718388 9
46.038475 -34.098921 31.392378 9
43.258416 -39.163431 30.781936 9
40.799398 -39.046206 30.866189 9
38.340315 -38.914709 30.949612 9
35.878216 -38.858985 31.020010 9
33.415236 -38.851442 31.081089 9
30.952817 -38.773211 31.149005 9
28.489060 -38.728660 31.209587 9
26.024020 -38.686123 31.267143 9
23.558408 -38.689348 31.315698 9
21.088145 -38.594499 31.374924 9
18.617396 -38.570081 31.421780 9
16.145503 -38.574136 31.461991 9
13.667777 -38.526813 31.506517 9
11.189072 -38.520847 31.542629 9
8.702375 -38.462516 31.583210 9
6.216954 -38.473211 31.611555 9
3.721910 -38.431187 31.644423 9
1.222495 -38.401097 31.672908 9
-1.279062 -38.402128 31.694351 9
-3.788278 -38.388949 31.715001 9
-6.303965 -38.376216 31.732828 9
-8.831551 -38.331093 31.752363 9
-11.363154 -38.311360 31.765611 9
-13.897730 -38.321547 31.771932 9
-16.450162 -38.277235 31.782987 9
-19.002567 -38.283126 31.784282 9
-21.561109 -38.303567 31.780733 9
-24.132453 -38.307314 31.776646 9
-26.720044 -38.283373 31.773525 9
-29.312447 -38.287068 31.763697 9
-31.916827 -38.287441 31.751426 9
-34.531414 -38.294057 31.735368 9
-37.157484 -38.303403 31.715985 9
-39.797915 -38.306634 31.694475 9
-42.440083 -38.351081 31.664282 9
-45.108534 -38.350570 31.637267 9
-47.915733 -37.941220 31.663484 9
-50.978673 -36.793667 31.788045 9
-54.397443 -34.674123 32.042711 9
-58.195408 -31.608201 32.423440 9
-62.289870 -27.925943 32.884399 9
-66.703412 -23.623692 33.425601 9
-72.382669 -16.186816 34.390288 8
-75.378446 -16.318007 34.315327 8
-78.391406 -16.452871 34.236275 8
-81.404078 -16.636540 34.146950 8
-84.433174 -16.826340 34.053135 8
-87.477716 -17.025910 33.954295 8
-90.538016 -17.235573 33.850343 8
-93.614380 -17.455668 33.741191 8
-96.709090 -17.682218 33.627331 8
-99.827126 -17.905923 33.509961 8
-102.981905 -18.100893 33.392492 8
-106.701226 -17.200439 33.417450 8
105.741013 -14.622293 34.868767 5
102.811540 -14.813462 34.984936 5
100.076029 -14.300291 35.195062 5
97.342987 -13.787102 35.402220 5
94.612370 -13.271814 35.606731 5
91.902608 -12.668044 35.820723 5
89.198507 -12.032960 36.036308 5
86.499635 -11.361508 36.254260 5
83.818774 -10.578084 36.485334 5
81.125136 -9.832401 36.708454 5
78.496387 -8.671697 36.987971 5
75.933231 -7.011623 37.336413 5
65.494962 -21.925634 35.511217 9
62.434943 -25.153308 35.140859 9
59.466298 -28.178130 34.794708 9
56.616457 -30.663975 34.521733 9
53.827763 -33.061554 34.257196 9
51.143805 -34.799432 34.084328 9
48.546098 -35.859456 34.006453 9
46.004673 -36.397296 34.001505 9
43.506317 -36.366365 34.076777 9
41.009063 -36.347271 34.147718 9
38.513864 -36.308410 34.218969 9
36.019893 -36.241658 34.291753 9
33.525722 -36.159417 34.364276 9
31.030375 -36.081648 34.433616 9
28.533796 -36.057073 34.492585 9
26.035890 -36.006137 34.552919 9
23.536711 -35.979975 34.607071 9
21.034135 -35.908805 34.665377 9
18.282571 -30.256613 35.549334 9
16.022777 -35.836270 34.764131 9
13.513606 -35.821611 34.806540 9
11.000759 -35.803496 34.846957 9
8.479592 -35.732589 34.892734 9
5.954965 -35.682958 34.932848 9
3.426672 -35.651006 34.967824 9
0.894677 -35.635951 34.997772 9
-1.648883 -35.573069 35.032354 9
-4.193196 -35.558673 35.057176 9
-6.742756 -35.554296 35.077977 9
-9.301787 -35.533275 35.098737 9
-11.861448 -35.556438 35.110344 9
-14.440071 -35.511991 35.129527 9
-17.028458 -35.464528 35.146607 9
-19.613158 -35.487458 35.150572 9
-22.211079 -35.488843 35.155182 9
-24.829675 -35.438944 35.164882 9
-27.447288 -35.444881 35.163603 9
-30.070497 -35.473236 35.156337 9
-32.708959 -35.483484 35.149140 9
-35.360703 -35.487806 35.140168 9
-38.021386 -35.505559 35.126502 9
-40.705516 -35.484116 35.116000 9
-43.389982 -35.511417 35.095474 9
-46.119442 -35.432218 35.088128 9
-49.120323 -34.515240 35.203227 9
-56.007469 -21.363856 37.143054 9
-56.236096 -29.582234 35.887060 9
-60.697384 -24.737813 36.578511 9
-66.042455 -17.697865 37.592964 9
63.659246 -16.378388 39.574479 9
60.432006 -20.865444 38.965954 9
57.275129 -25.577020 38.316885 9
55.434828 -17.038461 39.734760 9
51.575645 -31.058906 37.620070 9
48.911423 -32.427748 37.480934 9
46.324263 -33.044944 37.456809 9
43.782229 -33.089604 37.520142 9
41.249588 -32.989892 37.603847 9
38.715747 -32.921978 37.680206 9
36.181842 -32.858198 37.753585 9
33.648147 -32.756024 37.830735 9
31.112710 -32.699470 37.898355 9
28.575859 -32.582089 37.973344 9
26.037410 -32.541469 38.033849 9
23.496321 -32.462454 38.098182 9
20.952807 -32.397351 38.158025 9
18.408131 -32.376056 38.208601 9
