ply
format ascii 1.0
element vertex 1389
property float x
property float y
property float z
property int scalar_Label
end_header
-79.728358 21.985142 -28.988198 8
-76.144562 22.116107 -29.396065 8
-72.546055 22.290953 -29.798982 8
-68.872274 22.423133 -30.209541 8
-65.115505 22.506702 -30.628947 8
-62.197873 23.805950 -30.867959 9
-61.055691 27.503784 -30.741333 9
-60.308925 31.649006 -30.536284 9
-57.790571 33.427806 -30.686579 9
-55.331004 35.285849 -30.821102 9
-50.036908 33.642685 -31.506371 9
-50.343111 38.928083 -31.091396 9
-47.630090 40.497410 -31.262327 9
-44.464702 41.556012 -31.514426 9
-40.692895 41.958449 -31.874476 9
-36.158400 41.568994 -32.368707 9
-31.602312 41.250772 -32.855838 9
-26.897972 40.866324 -33.359114 9
-22.120793 40.502560 -33.864113 9
-17.242956 40.132870 -34.375559 9
-12.284136 39.781162 -34.889492 9
-7.005825 39.211773 -35.447938 9
-1.727836 38.754274 -35.993136 9
3.603566 38.354688 -36.534509 9
9.047676 37.957852 -37.082108 9
14.687470 37.490988 -37.649682 9
20.627286 36.867699 -38.254115 9
26.661582 36.284359 -38.859458 9
32.855115 35.686958 -39.476137 9
39.152162 35.128926 -40.094250 9
-27.358962 95.820769 -28.750452 3
-27.220241 99.404258 -28.441377 3
-27.124906 102.968950 -28.126670 3
-19.165505 100.256327 -29.069411 3
-8.667373 95.766463 -30.392697 3
-1.165884 93.822562 -31.217448 3
-150.115703 -21.237868 -18.530988 7
-147.029703 -20.710081 -18.949342 7
-143.888868 -20.301759 -19.376042 7
-140.761606 -19.816647 -19.793554 7
-137.636751 -19.288484 -20.204778 7
-151.798163 25.189153 -16.416701 7
-149.686763 27.095028 -16.623898 7
-146.675987 26.791768 -17.042496 7
-143.629700 26.477134 -17.462731 7
-140.568047 26.200031 -17.879754 7
-137.446036 25.859623 -18.303844 7
-134.271701 25.480128 -18.732821 7
-131.053194 25.083772 -19.164571 7
-127.783009 24.658439 -19.600537 7
-124.403645 24.092516 -20.053080 7
-121.043783 23.651308 -20.493597 7
-117.629271 23.185953 -20.938265 7
-113.774692 21.976579 -21.468914 8
-111.704049 24.158123 -21.613783 8
-109.464018 26.000984 -21.791907 8
-106.666118 26.846301 -22.082559 8
-103.364844 26.853660 -22.471237 8
-99.865354 26.591316 -22.893079 8
-96.226297 26.175023 -23.335214 8
-92.564997 25.805588 -23.773536 8
-88.849741 25.432541 -24.214251 8
-85.046564 25.006155 -24.663777 8
-81.195601 24.592821 -25.113921 8
-77.339559 24.257468 -25.556279 8
-73.317160 23.764181 -26.021617 8
-69.251473 23.299855 -26.485896 8
-65.066260 22.759399 -26.963231 8
-62.288674 24.232903 -27.169587 9
-61.844074 28.840518 -26.941522 9
-61.577947 33.574770 -26.683198 9
-59.055003 35.298040 -26.835751 9
-56.513721 37.004770 -26.987103 9
-54.004778 38.759519 -27.128113 9
-51.515558 40.545247 -27.261108 9
-48.967057 42.267313 -27.399936 9
-46.004223 43.516725 -27.605794 9
-42.548513 44.231991 -27.890289 9
-38.247096 44.049841 -28.311307 9
-33.865696 43.865628 -28.735855 9
-29.377616 43.653708 -29.168070 9
-24.769296 43.404428 -29.609757 9
-20.076446 43.160205 -30.054535 9
-15.254557 42.878783 -30.509319 9
-10.234948 42.497124 -30.984680 9
-5.175986 42.179686 -31.454405 9
0.018502 41.834159 -31.933625 9
5.288068 41.522975 -32.412256 9
10.656928 41.225755 -32.893774 9
16.191397 40.885600 -33.388036 9
21.911473 40.491349 -33.897432 9
27.762956 40.097790 -34.412958 9
-26.224478 91.054160 -25.893196 3
-26.124636 94.737178 -25.601255 3
-26.008425 98.349635 -25.312589 3
-17.026761 94.748686 -26.325583 3
-10.827985 93.577223 -26.910997 3
-5.505665 93.221539 -27.354617 3
-0.432330 93.161630 -27.749490 3
4.633526 93.204430 -28.130739 3
-151.790387 -24.581041 -14.738987 7
-148.604403 -24.308505 -15.177078 7
-145.447224 -23.906921 -15.602906 7
-142.256030 -23.558882 -16.030442 7
-139.037031 -23.241134 -16.458117 7
-135.845655 -22.804816 -16.873904 7
-151.826485 26.202285 -13.225849 7
-150.183444 29.216555 -13.347139 7
-147.220761 28.962458 -13.741618 7
-144.244306 28.744604 -14.132854 7
-141.218766 28.481877 -14.527997 7
-138.184366 28.268844 -14.918705 7
-135.105736 28.027345 -15.312033 7
-131.973013 27.740655 -15.709726 7
-128.808721 27.460428 -16.107122 7
-125.609231 27.180981 -16.504799 7
-122.346658 26.849605 -16.907977 7
-119.045128 26.518251 -17.311773 7
-115.829772 26.423526 -17.692385 7
-112.392264 25.986909 -18.108032 8
-108.596471 24.989452 -18.582943 8
-107.594030 28.990258 -18.535176 8
-104.438723 29.191433 -18.880849 8
-100.979250 28.936711 -19.275229 8
-97.519051 28.754977 -19.662470 8
-94.005915 28.559991 -20.051887 8
-90.418801 28.321716 -20.446977 8
-86.773229 28.068999 -20.844718 8
-83.038447 27.758683 -21.250213 8
-79.296987 27.518592 -21.648886 8
-75.438200 27.186767 -22.059621 8
-71.534382 26.873722 -22.469695 8
-64.647123 22.496869 -23.372491 8
-62.266797 24.504885 -23.507880 9
-62.228301 29.634188 -23.252132 9
-60.976408 33.047390 -23.197322 9
-60.059511 36.830618 -23.086771 9
-57.554521 38.541558 -23.231758 9
-55.067007 40.281344 -23.369191 9
-52.522791 41.959526 -23.510859 9
-49.983647 43.653977 -23.646784 9
-47.206230 45.081501 -23.814903 9
-43.928420 45.959143 -24.054804 9
-40.096779 46.259846 -24.372726 9
-35.744516 46.054953 -24.761473 9
-31.309800 45.848142 -25.152939 9
-26.834733 45.687129 -25.540500 9
-22.195469 45.443989 -25.942362 9
-17.436401 45.171779 -26.351364 9
-12.628280 44.946181 -26.756718 9
-7.716183 44.714251 -27.166165 9
-2.711689 44.491038 -27.577635 9
2.366602 44.297255 -27.988119 9
7.532782 44.121965 -28.399302 9
12.863223 43.898678 -28.821498 9
18.342537 43.647788 -29.251938 9
23.994167 43.354554 -29.693259 9
-24.983482 89.954081 -22.691441 3
-24.886890 93.650314 -22.424174 3
-20.096510 93.423007 -22.783985 3
-15.177501 93.186077 -23.149477 3
-10.380047 93.142214 -23.487334 3
-5.413206 93.058271 -23.835756 3
-0.319608 92.973056 -24.188594 3
4.718608 93.026802 -24.522115 3
-150.625564 -26.662811 -11.258563 7
-147.396495 -26.467963 -11.695133 7
-144.141017 -26.295864 -12.130804 7
-140.904633 -26.017381 -12.557017 7
-137.658662 -25.716069 -12.979146 7
-134.365719 -25.488751 -13.403968 7
-131.059574 -25.242123 -13.825167 7
-150.461749 30.786849 -10.163616 7
-147.575857 30.664911 -10.530011 7
-144.655951 30.524651 -10.896976 7
-141.655018 30.262746 -11.272621 7
-138.679216 30.124954 -11.638156 7
-135.641491 29.916366 -12.008724 7
-132.584007 29.732763 -12.376862 7
-129.529715 29.621449 -12.738596 7
-126.391387 29.404402 -13.108667 7
-123.208690 29.168617 -13.480114 7
-120.015002 28.981259 -13.847222 7
-116.786537 28.796612 -14.213879 7
-112.855219 27.395559 -14.689416 8
-110.710773 29.310387 -14.866377 8
-108.205132 30.571385 -15.097974 8
-105.260160 31.088061 -15.395399 8
-101.903420 30.955518 -15.752683 8
-98.483519 30.787697 -16.113322 8
-94.999645 30.587640 -16.477215 8
-91.473166 30.393082 -16.840806 8
-87.906001 30.208865 -17.203644 8
-84.282942 30.013707 -17.567907 8
-80.617348 29.830273 -17.931361 8
-74.511653 26.194663 -18.655857 8
-73.101790 29.424593 -18.663715 8
-69.238251 29.189773 -19.034187 8
-65.260119 28.878588 -19.413693 8
-62.203730 29.880449 -19.650005 9
-61.294236 33.723021 -19.568055 9
-60.879207 38.122902 -19.413369 9
-58.325659 39.736149 -19.564513 9
-55.790273 41.382289 -19.707952 9
-53.216266 42.991817 -19.851715 9
-50.703559 44.686407 -19.981664 9
-48.055514 46.233500 -20.125249 9
-44.935497 47.258383 -20.328337 9
-41.254254 47.692132 -20.601529 9
-37.056240 47.618964 -20.936926 9
-32.752513 47.512961 -21.277552 9
-28.294649 47.327706 -21.629480 9
-23.802970 47.195506 -21.976258 9
-19.227722 47.065914 -22.324259 9
-14.553955 46.927075 -22.675110 9
-9.814600 46.815074 -23.024198 9
-4.938471 46.663397 -23.380361 9
0.045029 46.505498 -23.739376 9
5.217089 46.270273 -24.111041 9
10.416939 46.111751 -24.474656 9
-6.745268 65.958982 -22.065388 4
-5.323550 68.920670 -21.967787 1
-23.701879 88.818897 -19.465245 3
-23.615991 92.535185 -19.221907 3
-19.810264 93.128892 -19.421004 3
-15.103794 93.057323 -19.717589 3
-10.263562 92.969724 -20.018976 3
-5.337307 92.907978 -20.319131 3
-0.351879 92.895048 -20.614622 3
4.722353 92.910059 -20.908547 3
-151.846505 -31.524847 -7.429336 7
-149.646716 -28.169007 -7.701609 7
-146.396910 -28.004015 -8.131392 7
-143.102678 -27.910455 -8.562339 7
-139.793919 -27.798133 -8.989770 7
-136.497048 -27.596275 -9.409618 7
-133.188207 -27.371874 -9.825495 7
-129.857453 -27.149684 -10.238846 7
-150.506249 31.774082 -7.054777 7
-147.649602 31.685687 -7.403425 7
-144.754935 31.567658 -7.752671 7
-141.857863 31.504615 -8.097151 7
-138.936537 31.446144 -8.440042 7
-135.935654 31.274846 -8.789339 7
-132.927119 31.151609 -9.134391 7
-129.881598 31.014850 -9.479390 7
-126.832269 30.933775 -9.819457 7
-123.701645 30.755081 -10.165626 7
-120.552961 30.608068 -10.508692 7
-117.386362 30.492840 -10.848561 7
-113.189236 28.562591 -11.327408 8
-109.541806 27.757689 -11.721995 8
-108.569390 31.715223 -11.738529 8
-105.720063 32.360009 -12.011844 8
-102.438172 32.316113 -12.339127 8
-99.066022 32.188419 -12.672594 8
-95.664325 32.081407 -13.003756 8
-92.254395 32.029312 -13.329634 8
-88.689075 31.804974 -13.669868 8
-85.120785 31.650271 -14.003754 8
-81.546486 31.558775 -14.331646 8
-77.907998 31.444959 -14.661130 8
-74.203238 31.309471 -14.992271 8
-70.447111 31.176591 -15.322924 8
-66.597843 30.991761 -15.658289 8
-62.235222 30.200553 -16.051796 9
-62.237762 35.214382 -15.882687 9
-61.580021 39.260107 -15.796032 9
-58.972377 40.771992 -15.951529 9
-56.468095 42.425110 -16.088741 9
-53.913116 44.026296 -16.226926 9
-51.320199 45.594672 -16.364351 9
-48.710498 47.157799 -16.498305 9
-45.729706 48.313000 -16.671475 9
-42.247896 48.939272 -16.898374 9
-38.150351 48.942301 -17.191224 9
-33.896786 48.854661 -17.494051 9
-29.540554 48.740662 -17.800121 9
-25.129038 48.653884 -18.103584 9
-20.640561 48.573810 -18.406721 9
-16.009434 48.437629 -18.716754 9
-11.299672 48.314408 -19.025960 9
-6.529188 48.223985 -19.332034 9
-1.616319 48.090974 -19.643828 9
3.363477 47.991090 -19.952525 9
-13.094198 67.438673 -17.903145 1
-12.951019 71.465339 -17.686058 1
-12.854022 75.467386 -17.462602 1
-12.800661 79.442645 -17.233169 1
-22.355889 91.428692 -15.987621 3
-19.771884 93.039034 -16.029899 3
-15.038450 92.935407 -16.288742 3
-10.160633 92.808041 -16.551865 3
-5.257499 92.754744 -16.806647 3
-0.292591 92.747441 -17.056595 3
4.707172 92.807639 -17.298749 3
97.940471 28.318870 -26.233236 5
105.445870 28.044707 -26.607324 5
-151.820999 -30.099484 -3.696169 7
-148.843217 -29.138797 -4.088842 7
-145.560135 -29.056089 -4.512516 7
-142.259091 -28.965263 -4.932937 7
-138.931069 -28.889413 -5.351140 7
-135.586770 -28.796770 -5.765793 7
-132.221347 -28.699049 -6.177425 7
-128.841227 -28.578428 -6.585208 7
-149.066437 29.136491 -4.149076 7
-147.601767 32.410939 -4.317078 7
-144.727028 32.310401 -4.649928 7
-141.846836 32.256638 -4.978679 7
-138.908383 32.131935 -5.309597 7
-136.021395 32.178568 -5.629479 7
-133.049387 32.100447 -5.954586 7
-130.048844 32.023600 -6.278078 7
-127.025067 31.960369 -6.599247 7
-123.997629 31.949815 -6.915701 7
-120.858668 31.784825 -7.240109 7
-117.732284 31.708663 -7.557697 7
-113.360443 29.428065 -8.015891 8
-111.190059 31.224967 -8.210463 8
-108.866169 32.736775 -8.418212 8
-106.005052 33.328874 -8.683408 8
-102.759482 33.315610 -8.987644 8
-99.402019 33.181655 -9.298988 8
-96.036152 33.101931 -9.605368 8
-92.654767 33.064035 -9.907523 8
-89.284259 33.107933 -10.202375 8
-85.762512 32.987302 -10.508173 8
-82.195360 32.869874 -10.812721 8
-78.573706 32.744560 -11.116892 8
-74.931809 32.662488 -11.416720 8
-71.225984 32.562890 -11.716927 8
-67.452191 32.443622 -12.017773 8
-62.299678 30.563586 -12.462227 9
-62.227634 35.457853 -12.346218 9
-59.729699 37.129969 -12.489738 9
-59.419257 41.554920 -12.393167 9
-56.886809 43.146988 -12.530895 9
-54.326616 44.716805 -12.666021 9
-51.774280 46.308871 -12.794709 9
-49.160878 47.842930 -12.924146 9
-46.288053 49.097279 -13.074750 9
-42.928360 49.834607 -13.269358 9
-38.938332 49.928246 -13.521527 9
-34.782353 49.916491 -13.782623 9
-30.491906 49.841226 -14.049021 9
-26.113924 49.757529 -14.315636 9
-21.679689 49.700681 -14.579075 9
-17.175877 49.658963 -14.840431 9
-12.539927 49.573416 -15.105563 9
-8.133315 49.796985 -15.339036 9
-8.600455 54.693369 -15.095025 4
-16.065321 65.966044 -14.183007 4
-11.398657 65.894236 -14.427094 4
-12.113094 70.701947 -14.157684 1
-11.611066 74.353221 -14.000358 1
-11.465329 78.259157 -13.807466 1
-21.084270 90.312077 -12.723071 3
-20.051590 93.211494 -12.614239 3
-14.945757 92.791442 -12.865632 3
-10.200607 92.759744 -13.074276 3
-8.801631 95.420146 -12.979583 3
-4.317919 95.715100 -13.147823 3
0.596655 95.767770 -13.342984 3
5.698176 95.774876 -13.543088 3
99.528976 32.114288 -21.179480 5
107.494988 31.560240 -21.512205 5
127.166472 23.083078 -22.787979 6
135.593724 22.691184 -23.111558 6
144.125442 22.393127 -23.424493 6
-151.537677 -29.477262 -0.017390 7
-148.266054 -29.427709 -0.433920 7
-144.949033 -29.449119 -0.849294 7
-141.623867 -29.428910 -1.260337 7
-138.286038 -29.380716 -1.667369 7
-134.910019 -29.372052 -2.072594 7
-131.535733 -29.295079 -2.472440 7
-151.888154 30.049587 -0.725621 7
-150.165542 32.684090 -0.949154 7
-147.407395 32.784742 -1.261778 7
-144.564302 32.737643 -1.577779 7
-141.697020 32.692177 -1.891586 7
-138.817866 32.676997 -2.202005 7
-135.912802 32.661669 -2.510277 7
-132.921467 32.522035 -2.821986 7
-129.936330 32.457085 -3.128456 7
-126.929599 32.408176 -3.432205 7
-123.930657 32.433156 -3.730402 7
-120.861410 32.380482 -4.030311 7
-117.805428 32.412386 -4.324006 7
-111.922483 27.367686 -4.878600 8
-111.278170 31.906938 -4.935244 8
-107.432577 30.747519 -5.287770 8
-106.038769 33.866673 -5.404677 8
-102.906638 34.021483 -5.679631 8
-99.611015 33.964349 -5.964488 8
-96.266032 33.892430 -6.248427 8
-92.893290 33.842410 -6.529321 8
-89.473257 33.785119 -6.808883 8
-86.001966 33.717126 -7.087361 8
-82.466559 33.622306 -7.365817 8
-78.916863 33.576158 -7.639516 8
-75.308075 33.514777 -7.912469 8
-71.658145 33.466104 -8.182886 8
-67.954860 33.415098 -8.451746 8
-64.208666 33.378078 -8.717950 8
-62.282852 35.785842 -8.813188 9
-61.429446 39.542728 -8.806906 9
-59.690634 42.116188 -8.875537 9
-57.154781 43.682074 -9.010047 9
-54.631615 45.275161 -9.137696 9
-52.076062 46.841617 -9.262436 9
-49.475070 48.368858 -9.385329 9
-44.072146 46.720153 -9.745750 9
-43.441754 50.542068 -9.685153 9
-39.493927 50.658216 -9.905297 9
-35.363607 50.649788 -10.133420 9
-31.150375 50.631564 -10.360681 9
-26.825295 50.576938 -10.589259 9
-22.475705 50.579651 -10.811560 9
-17.982522 50.520711 -11.037287 9
-13.396079 50.455901 -11.261922 9
-13.852570 55.322226 -11.066757 4
-20.499424 65.926974 -10.369057 4
-17.486069 67.285898 -10.451412 1
-16.722518 70.719297 -10.348111 1
-12.133511 70.702667 -10.542103 1
-7.070023 70.357867 -10.763799 1
-6.417905 73.894090 -10.634449 1
-19.800932 89.185150 -9.427008 3
-19.736112 92.893317 -9.256158 3
-14.996373 92.763439 -9.433433 3
-12.297655 94.343689 -9.449271 3
-9.303590 95.721043 -9.480024 3
-6.947660 97.621190 -9.457068 2
-7.261259 101.535467 -9.235817 2
-5.436624 103.820063 -9.164477 2
-0.728816 104.033771 -9.290138 2
4.922464 103.667615 -9.470888 2
120.676390 27.348606 -17.190783 6
128.570814 27.210416 -17.405065 6
136.720700 27.052198 -17.618988 6
145.115139 26.889466 -17.830938 6
-151.121497 -29.265497 3.641856 7
-147.858286 -29.212871 3.237383 7
-144.535836 -29.270903 2.834576 7
-141.201608 -29.295603 2.435766 7
-137.852487 -29.296027 2.040860 7
-134.462550 -29.340143 1.648429 7
-131.036119 -29.411123 1.258668 7
-151.807472 30.755459 2.336131 7
-149.809519 32.685170 2.076472 7
-147.034855 32.736156 1.773935 7
-144.207127 32.715538 1.472160 7
-141.375547 32.740661 1.174284 7
-138.499620 32.721418 0.877724 7
-135.632768 32.776661 0.586036 7
-132.686372 32.718406 0.293345 7
-129.749429 32.737240 0.005662 7
-126.775772 32.737973 -0.280077 7
-123.798347 32.787511 -0.561547 7
-120.780374 32.814628 -0.841235 7
-117.651087 32.691484 -1.124099 7
-113.336857 30.484458 -1.486436 8
-111.165574 32.230359 -1.691852 8
-108.728295 33.499067 -1.910789 8
-105.956000 34.204712 -2.148458 8
-102.812061 34.323183 -2.407718 8
-99.522497 34.260391 -2.672366 8
-96.248389 34.286015 -2.930697 8
-92.909405 34.271302 -3.188430 8
-89.509395 34.226579 -3.445199 8
-86.075257 34.195971 -3.698952 8
-82.599652 34.169944 -3.950115 8
-79.106990 34.185430 -4.196807 8
-75.546042 34.169906 -4.442635 8
-71.918490 34.129673 -4.687352 8
-68.206949 34.044839 -4.932082 8
-64.514483 34.057161 -5.169241 8
-62.263753 36.016254 -5.296331 9
-60.768390 38.935203 -5.363405 9
-59.934620 42.642010 -5.377700 9
-57.327622 44.099233 -5.513317 9
-54.754227 45.612650 -5.640585 9
-52.241536 47.212264 -5.757587 9
-49.713445 48.805995 -5.869706 9
-46.868619 50.052177 -5.997997 9
-43.661553 50.920671 -6.145251 9
-39.921634 51.247171 -6.322815 9
-35.766966 51.190994 -6.521837 9
-31.590857 51.191119 -6.714771 9
-27.287357 51.137499 -6.908668 9
-22.966284 51.147614 -7.095814 9
-18.513432 51.106987 -7.283712 9
-16.357537 53.398459 -7.310381 4
-16.470749 57.867671 -7.181048 4
-20.587215 66.027442 -6.785658 4
-19.376195 69.039751 -6.737133 1
-16.673100 70.668652 -6.779729 1
-12.205281 70.749135 -6.928300 1
-10.394803 73.233339 -6.899943 1
-10.541981 77.388739 -6.743177 1
-13.580663 83.906185 -6.403684 1
-18.435541 91.762393 -5.953043 3
-15.012962 92.707999 -6.008214 3
-5.840789 89.139459 -6.401136 1
-9.498894 95.783660 -6.016034 3
-9.915088 99.787290 -5.823038 2
-9.828729 103.349445 -5.656545 2
-5.916290 104.054532 -5.706045 2
2.074478 101.887967 -5.977506 2
1.515322 105.931269 -5.756415 2
1.516785 109.522752 -5.563808 2
124.330751 29.852674 -12.041460 6
132.219973 29.792776 -12.169525 6
140.279588 29.769937 -12.289460 6
148.619548 29.719063 -12.406314 6
-150.958473 -28.286484 7.301399 7
-147.630078 -28.470784 6.908556 7
-144.271539 -28.668368 6.519094 7
-140.950336 -28.688755 6.134405 7
-137.588937 -28.753576 5.753141 7
-134.200688 -28.822006 5.375527 7
-130.790666 -28.878628 5.001701 7
-151.800273 31.638878 5.384820 7
-149.266898 32.236454 5.097383 7
-145.118906 29.060784 4.758728 7
-143.737530 32.436401 4.519885 7
-140.893134 32.429721 4.234162 7
-138.061457 32.504622 3.952884 7
-135.175918 32.515378 3.673509 7
-132.262439 32.522070 3.397035 7
-129.342844 32.570957 3.124429 7
-126.370077 32.567708 2.853702 7
-123.402923 32.631359 2.587477 7
-120.389514 32.661093 2.323487 7
-117.352619 32.703030 2.062800 7
-113.106417 30.614067 1.748477 8
-110.989203 32.439762 1.540890 8
-108.533810 33.660758 1.322606 8
-105.751697 34.335692 1.093514 8
-102.633492 34.484584 0.852593 8
-99.382729 34.472248 0.609806 8
-96.104085 34.476941 0.370481 8
-92.779174 34.470939 0.133751 8
-89.384275 34.420680 -0.101554 8
-85.957588 34.387954 -0.333363 8
-82.520953 34.405781 -0.560420 8
-79.010412 34.381402 -0.786004 8
-75.475059 34.388511 -1.007415 8
-71.903409 34.411563 -1.225149 8
-68.304850 34.464497 -1.438591 8
-64.628959 34.480879 -1.650327 8
-62.282716 36.295664 -1.784641 9
-60.706031 39.092787 -1.871462 9
-59.955103 42.887062 -1.907819 9
-57.429794 44.428850 -2.033461 9
-54.922985 46.005127 -2.152011 9
-52.280247 47.432489 -2.271709 9
-49.749687 49.008090 -2.379239 9
-46.942138 50.281995 -2.495317 9
-43.742820 51.144121 -2.625840 9
-40.005236 51.458488 -2.778239 9
-35.948219 51.492870 -2.940553 9
-31.762065 51.466085 -3.102462 9
-27.511344 51.451131 -3.260361 9
-23.175542 51.429365 -3.415108 9
-18.759332 51.408755 -3.566232 9
-17.950174 55.000472 -3.525350 4
-17.960317 59.328632 -3.437515 4
-21.819826 67.206713 -3.151440 1
-21.491338 71.001592 -3.072682 1
-16.849550 70.822981 -3.202389 1
-12.182968 70.711853 -3.324794 1
-12.240298 74.817091 -3.209293 1
-12.238935 78.803971 -3.092304 1
-13.901541 84.126633 -2.891940 1
-17.108111 90.608710 -2.616507 3
-15.704954 93.199370 -2.554694 3
-14.803653 96.175430 -2.464317 3
-13.508346 98.817152 -2.386870 2
-13.558414 102.472129 -2.243790 2
-10.612521 103.829607 -2.229304 2
-7.024674 104.751324 -2.235384 2
-6.954913 108.260646 -2.082117 2
-3.839435 109.573618 -2.053790 2
1.257969 109.555685 -2.100123 2
126.648913 28.052496 -7.062193 6
134.498790 28.033810 -7.114850 6
137.438708 31.358197 -6.956674 6
145.622407 31.352011 -6.992325 6
-150.933192 -26.899224 10.938207 7
-147.631478 -27.061543 10.561224 7
-144.296942 -27.246392 10.188268 7
-140.968741 -27.341476 9.818794 7
-137.565452 -27.570560 9.453738 7
-134.179173 -27.680140 9.092190 7
-130.726585 -27.889061 8.734673 7
-151.339608 31.397093 8.414121 7
-148.598456 31.488855 8.130669 7
-145.846742 31.603381 7.850877 7
-143.026387 31.607991 7.574296 7
-140.214990 31.685322 7.301461 7
-137.401022 31.806717 7.032424 7
-134.516637 31.826845 6.766297 7
-131.637274 31.910705 6.504089 7
-127.075657 28.644934 6.215017 7
-125.773030 32.020771 5.989687 7
-122.809219 32.093632 5.737893 7
-119.814196 32.160588 5.489540 7
-116.787197 32.222364 5.244622 7
-112.765185 30.543492 4.978891 8
-110.635491 32.335515 4.765135 8
-108.197761 33.577504 4.549413 8
-105.316235 34.075559 4.326916 8
-102.185949 34.200378 4.102144 8
-98.968368 34.238487 3.879413 8
-95.695787 34.248330 3.659644 8
-92.382264 34.255411 3.443304 8
-89.039188 34.279204 3.230819 8
-85.650541 34.296781 3.021757 8
-82.202630 34.290485 2.815728 8
-78.716313 34.293687 2.613493 8
-75.203781 34.325058 2.415565 8
-69.648347 31.605632 2.152276 8
-68.014150 34.358069 2.030083 8
-64.334125 34.361252 1.842608 8
-62.221185 36.469890 1.716475 9
-60.822700 39.478310 1.622420 9
-59.779749 42.886752 1.547917 9
-57.263071 44.428003 1.426979 9
-54.763544 46.001932 1.312947 9
-52.243346 47.563073 1.204475 9
-49.698150 49.108168 1.101425 9
-46.882229 50.359781 0.994882 9
-43.667174 51.192202 0.880216 9
-39.936278 51.502507 0.753291 9
-35.873831 51.519733 0.620988 9
-31.706173 51.501302 0.491722 9
-27.492304 51.512988 0.367819 9
-23.222848 51.546419 0.249125 9
-18.873396 51.578926 0.134963 9
-16.989426 54.103809 0.115919 4
-17.235465 58.663016 0.178643 4
-22.000767 67.394808 0.405203 1
-21.482784 70.999453 0.451083 1
-16.958951 70.916475 0.364547 1
-12.732981 71.184261 0.296245 1
-12.345457 74.880468 0.365693 1
-10.988941 77.692862 0.408164 1
-14.148381 84.284952 0.605946 1
-15.820226 89.487047 0.757578 3
-15.772083 93.185158 0.857173 3
-14.935328 96.201816 0.936423 3
-12.521260 97.960201 0.971640 2
-12.482154 101.552919 1.086930 2
-11.022952 104.030649 1.163668 2
-7.189217 104.755489 1.175531 2
-7.046296 108.201311 1.303944 2
-3.989915 109.544905 1.353188 2
1.504851 109.238724 1.341573 2
120.546572 31.965230 -1.789700 6
128.148864 32.011672 -1.767723 6
136.024924 32.020139 -1.737233 6
144.101249 32.046731 -1.695518 6
-151.164572 -24.751449 14.532192 7
-147.871329 -24.967919 14.172678 7
-144.536600 -25.228680 13.818071 7
-141.201101 -25.415733 13.466357 7
-137.826932 -25.634297 13.119315 7
-134.421307 -25.860809 12.776520 7
-151.815724 26.559789 11.784587 7
-150.462964 30.134380 11.463705 7
-147.726865 30.260297 11.189663 7
-145.000240 30.454097 10.919032 7
-142.229660 30.590669 10.653039 7
-139.393449 30.627743 10.391803 7
-136.570171 30.744382 10.133917 7
-133.727567 30.868372 9.879992 7
-130.858670 30.986469 9.630106 7
-127.959510 31.092739 9.384262 7
-125.037865 31.204989 9.142390 7
-122.054761 31.249466 8.904613 7
-119.055979 31.318585 8.670714 7
-116.065312 31.456257 8.440792 7
-112.320392 30.287161 8.213201 8
-110.146227 31.993280 7.993785 8
-107.704786 33.224387 7.779728 8
-104.773413 33.635552 7.568432 8
-101.574470 33.646640 7.359825 8
-98.362268 33.695582 7.155373 8
-95.108098 33.736443 6.954906 8
-91.824617 33.791260 6.758596 8
-88.505192 33.851024 6.566437 8
-85.085690 33.821781 6.377671 8
-81.693094 33.896328 6.193946 8
-78.197909 33.885134 6.013624 8
-74.718742 33.961787 5.838440 8
-71.151821 33.980418 5.666960 8
-67.522224 33.980349 5.499597 8
-63.864958 34.011175 5.337007 8
-62.328727 36.863368 5.216618 9
-62.001750 41.216282 5.125194 9
-59.534793 42.799522 5.003098 9
-57.005947 44.316376 4.886340 9
-54.516768 45.893728 4.776790 9
-51.973779 47.418914 4.672715 9
-49.467081 49.000224 4.575842 9
-46.700755 50.299334 4.480424 9
-43.498166 51.136113 4.382867 9
-39.677859 51.339124 4.279446 9
-35.630829 51.365456 4.177896 9
-31.525913 51.405376 4.081718 9
-27.327963 51.424459 3.990376 9
-23.066331 51.456419 3.904637 9
-18.724375 51.486804 3.824357 9
-16.569627 53.736592 3.795067 4
-16.600378 58.083740 3.816351 4
-16.569694 62.295158 3.842992 4
-16.754689 66.633075 3.880288 1
-16.718357 70.692351 3.919462 1
-12.124882 70.625325 3.876839 1
-12.105406 74.642173 3.929402 1
-9.579857 76.444922 3.940715 1
-13.611431 83.783804 4.080882 1
-14.470031 88.313320 4.166461 3
-14.439855 92.037401 4.241057 3
-14.356228 95.663437 4.320114 3
-9.997111 95.904279 4.330682 3
-11.130990 100.422651 4.442499 2
-10.740321 103.712295 4.533446 2
-6.320474 103.999882 4.565039 2
-5.595651 107.030032 4.663252 2
-3.884136 109.335168 4.752156 2
8.834461 104.012278 4.685981 2
120.268261 31.928563 3.237103 6
127.943784 31.906225 3.326982 6
135.841104 31.881476 3.429297 6
143.960645 31.861092 3.544747 6
-151.685823 -21.753953 18.054964 7
-148.403222 -22.043080 17.715497 7
-145.070663 -22.396628 17.382224 7
-141.733021 -22.683954 17.051349 7
-138.360669 -22.987188 16.725262 7
-134.967107 -23.267844 16.402944 7
-151.808582 27.486746 14.846634 7
-147.864130 24.659014 14.644948 7
-146.722438 28.723784 14.288550 7
-143.971568 28.889232 14.027237 7
-141.170129 28.984253 13.771834 7
-138.384397 29.162356 13.519176 7
-135.567181 29.317240 13.271452 7
-132.685713 29.383094 13.029742 7
-129.793198 29.477364 12.791874 7
-126.891630 29.603771 12.557878 7
-123.959013 29.718579 12.328494 7
-121.029135 29.889139 12.102776 7
-118.035945 29.989384 11.882515 7
-113.792980 27.846622 11.693885 8
-111.741188 29.790965 11.459863 8
-109.546315 31.458421 11.236237 8
-106.975497 32.466525 11.026005 8
-104.009638 32.825477 10.827504 8
-100.831327 32.878165 10.636451 8
-97.600531 32.903560 10.450111 8
-94.368319 32.985989 10.267898 8
-91.066173 33.017683 10.090631 8
-87.730710 33.059204 9.917926 8
-84.383073 33.143384 9.749701 8
-80.953371 33.167698 9.586511 8
-77.502565 33.224836 9.427980 8
-73.997603 33.268579 9.274363 8
-70.456528 33.326577 9.125641 8
-66.861195 33.375642 8.981947 8
-62.277667 32.183354 8.844736 9
-62.233628 36.993326 8.707744 9
-59.466546 38.224811 8.581193 9
-59.177580 42.572411 8.462252 9
-56.705223 44.151620 8.350271 9
-54.250369 45.762183 8.245014 9
-51.680700 47.247297 8.146252 9
-49.173601 48.820250 8.054287 9
-46.322993 50.016086 7.968073 9
-43.098265 50.822777 7.887188 9
-39.270401 51.012904 7.810571 9
-35.202352 51.012212 7.739211 9
-31.031090 50.978075 7.673665 9
-26.863753 51.025859 7.614514 9
-22.577867 51.029505 7.561440 9
-18.250902 51.071448 7.514941 9
-15.244657 52.484282 7.481327 4
-15.252239 56.820162 7.468705 4
-15.278691 61.096831 7.463675 4
-15.269364 65.265490 7.465790 4
-14.132378 68.339673 7.469932 1
-12.231353 70.702764 7.477769 1
-10.251892 72.993490 7.492433 1
-8.136242 75.166912 7.513704 1
-11.919854 82.310545 7.566267 1
-11.926448 86.153268 7.609253 1
-13.088564 90.873433 7.662769 3
-12.823751 94.366700 7.716928 3
-10.409928 96.137196 7.770273 3
-9.827045 99.327418 7.836198 2
-9.774005 102.880647 7.909673 2
-6.645203 104.121747 7.981759 2
-1.598586 104.019611 8.057836 2
3.318577 104.103608 8.143420 2
104.935395 37.197361 8.121415 5
121.219138 31.056338 8.256978 6
128.939347 31.000796 8.417482 6
136.888093 30.939153 8.592953 6
145.036775 30.896989 8.784066 6
-151.831422 -19.901005 21.562272 7
-149.329856 -18.000875 21.149563 7
-146.026943 -18.401601 20.838902 7
-142.670517 -18.866650 20.535227 7
-139.288352 -19.314765 20.235256 7
-151.825596 21.365431 18.412063 7
-150.887505 26.115123 17.974328 7
-148.179651 26.343825 17.709516 7
-145.437534 26.531222 17.451109 7
-142.680875 26.727785 17.197311 7
-139.872606 26.850575 16.950825 7
-137.083774 27.063394 16.706311 7
-134.276174 27.279093 16.466679 7
-131.421060 27.438624 16.233689 7
-128.560769 27.634452 16.004550 7
-123.608649 23.680298 15.896182 7
-122.652106 27.793343 15.567494 7
-119.713636 27.980658 15.353344 7
-116.744762 28.159003 15.144435 7
-113.085469 27.121145 14.970600 8
-111.053179 29.102476 14.727657 8
-108.748904 30.579879 14.504167 8
-106.123827 31.502067 14.300133 8
-103.023620 31.645374 14.119237 8
-99.851880 31.723973 13.944798 8
-96.631539 31.780600 13.775860 8
-93.404223 31.884183 13.611063 8
-90.105306 31.933739 13.452493 8
-86.768027 31.984789 13.299076 8
-83.390993 32.037110 13.150882 8
-80.006088 32.139037 13.007138 8
-76.545544 32.192848 12.869651 8
-72.972575 32.151830 12.739190 8
-69.386811 32.160371 12.613393 8
-65.770855 32.194341 12.492797 8
-62.266085 32.441210 12.374714 9
-61.713153 36.571997 12.205958 9
-61.162830 40.618480 12.047611 9
-58.698262 42.193566 11.932353 9
-53.907398 40.931422 11.862289 9
-53.782511 45.389044 11.722347 9
-51.256055 46.920995 11.628771 9
-48.667919 48.395208 11.542948 9
-45.822067 49.593476 11.467531 9
-42.567088 50.363626 11.404189 9
-38.593356 50.392328 11.356430 9
-34.585021 50.456669 11.314889 9
-30.447536 50.457687 11.280887 9
-26.202647 50.423992 11.254244 9
-21.932060 50.443180 11.234143 9
-17.505669 50.385592 11.222252 9
-13.158290 50.487965 11.216103 9
-12.801037 54.498246 11.173671 4
-12.803747 58.783352 11.135750 4
-12.888574 63.069972 11.105209 4
-11.492663 65.938102 11.098184 4
-11.510704 70.043454 11.084125 1
-7.573851 70.623549 11.118730 1
-5.763943 73.091662 11.138798 1
-5.719128 77.040134 11.148045 1
-8.565768 83.316879 11.134322 1
-11.764193 89.730498 11.123488 3
-11.433511 93.182073 11.156487 3
-9.929021 95.673003 11.208965 3
-5.353017 95.804515 11.302321 3
-0.489009 95.802189 11.407196 3
-0.097397 99.182934 11.469557 2
0.721126 102.216420 11.543542 2
99.311421 35.989914 12.794618 5
106.674255 35.784864 12.991966 5
123.522130 29.262617 13.322099 6
131.305973 29.179364 13.555176 6
139.323010 29.087944 13.805938 6
147.498774 29.043489 14.074037 6
-150.753803 -12.560601 24.421550 7
-147.690225 -12.462224 24.107317 7
-144.294091 -13.215097 23.842262 7
-140.913411 -13.827677 23.574290 7
-151.877276 22.495961 21.501091 7
-149.219629 22.887945 21.229128 7
-146.484732 23.123446 20.970234 7
-143.759297 23.421711 20.713843 7
-140.993219 23.663706 20.465516 7
-138.213271 23.915538 20.222168 7
-135.400586 24.136547 19.985603 7
-132.592439 24.410571 19.752172 7
-129.747478 24.648743 19.525739 7
-126.884779 24.894198 19.304458 7
-123.979416 25.098155 19.090330 7
-121.043908 25.289512 18.882135 7
-118.047498 25.411952 18.682055 7
-114.091437 23.791679 18.553612 8
-112.223287 26.116909 18.280878 8
-108.569081 25.204519 18.135247 8
-107.739727 29.334909 17.812363 8
-104.979990 30.041372 17.621130 8
-101.799698 30.071176 17.459616 8
-98.608548 30.140945 17.302183 8
-95.404080 30.246107 17.149116 8
-92.142441 30.317192 17.002827 8
-88.837145 30.378980 16.862524 8
-85.520155 30.482315 16.726642 8
-82.130521 30.536188 16.598177 8
-78.709650 30.605684 16.475125 8
-75.216045 30.632685 16.359365 8
-71.699354 30.691116 16.248711 8
-68.141958 30.757065 16.144011 8
-63.839328 29.884381 16.073065 8
-62.283380 32.736905 15.900133 9
-60.645133 35.442972 15.739737 9
-58.188453 37.075927 15.617862 9
-58.013731 41.559889 15.423617 9
-55.554853 43.152204 15.318567 9
-53.113046 44.774748 15.220092 9
-50.657364 46.390368 15.129238 9
-48.067654 47.861557 15.049755 9
-45.179179 49.010477 14.986413 9
-41.651989 49.477676 14.948830 9
-37.759075 49.600643 14.927855 9
-33.654593 49.565868 14.918579 9
-29.517623 49.573098 14.915819 9
-25.319616 49.593222 14.920561 9
-21.002874 49.569736 14.934534 9
-16.612589 49.552849 14.956617 9
-12.152562 49.548840 14.986875 9
-10.349133 52.176284 14.954123 4
-10.407756 56.544620 14.881500 4
-10.545936 60.909849 14.816059 4
-10.731693 65.241538 14.758412 4
-6.930569 65.945891 14.810145 4
-5.365927 68.664013 14.813132 1
-3.027793 70.703404 14.843480 1
1.829804 70.631770 14.944423 1
7.655488 69.850445 15.077085 1
-10.234517 88.420278 14.628697 3
-10.270364 92.177199 14.631508 3
-6.531037 92.931120 14.735662 3
-1.426534 92.697312 14.881669 3
3.526377 92.674441 15.032097 3
8.629514 92.632141 15.194782 3
94.824759 34.081124 17.423090 5
101.875575 33.981982 17.668546 5
119.579962 26.611108 18.200826 6
127.259167 26.489089 18.490245 6
135.226867 26.316934 18.800959 6
143.438241 26.133688 19.132453 6
-150.013879 -4.732666 27.129391 7
-147.424246 -3.532350 26.770351 7
-150.003021 11.250407 25.580003 7
-149.172620 16.566786 24.999263 7
-146.469218 16.989228 24.727176 7
-143.805518 17.539000 24.453758 7
-141.180528 18.205505 24.179954 7
-138.555149 18.891243 23.911639 7
-135.908262 19.548662 23.651532 7
-133.247959 20.198900 23.398374 7
-130.398266 20.467023 23.172720 7
-127.536918 20.752967 22.952031 7
-124.691986 21.114402 22.733290 7
-121.773809 21.368799 22.526292 7
-118.742400 21.446955 22.334426 7
-114.812408 19.864617 22.233434 8
-113.019052 22.393851 21.928037 8
-111.140223 24.715108 21.642076 8
-108.980882 26.493777 21.391559 8
-106.415032 27.544611 21.184442 8
-103.419060 27.873804 21.019113 8
-100.286734 28.019587 20.868752 8
-97.098756 28.127307 20.726274 8
-93.891205 28.259035 20.588797 8
-90.612402 28.333771 20.460161 8
-87.292458 28.403223 20.338004 8
-83.945643 28.491166 20.221329 8
-80.532392 28.539788 20.112837 8
-77.091153 28.609198 20.009908 8
-73.584080 28.646260 19.915005 8
-70.065965 28.731405 19.824687 8
-66.467485 28.768947 19.743264 8
-62.297312 28.103457 19.699053 9
-62.224901 32.932434 19.426187 9
-59.689811 34.462297 19.303258 9
-59.678486 39.204951 19.051887 9
-57.230437 40.804650 18.942167 9
-54.811486 42.448612 18.838341 9
-52.394955 44.103326 18.741846 9
-49.871602 45.640580 18.658072 9
-47.307229 47.143824 18.583526 9
-44.225922 48.076526 18.540690 9
-40.599042 48.439471 18.529599 9
-36.683238 48.546050 18.537312 9
-28.999402 44.682597 18.720017 9
-28.449618 48.543959 18.586833 9
-24.157627 48.474884 18.627460 9
-19.855286 48.475343 18.674139 9
-15.469397 48.471519 18.730237 9
-10.999083 48.465679 18.795926 9
-6.443434 48.460035 18.871397 9
-1.698601 48.359825 18.961081 9
3.057896 48.337546 19.057809 9
7.950444 48.279356 19.166884 9
12.924734 48.238987 19.286293 9
18.037823 48.169072 19.418540 9
1.221310 67.015698 18.690140 1
1.245184 71.071614 18.641535 1
1.194227 75.127070 18.598989 1
0.887214 79.327704 18.555233 1
-1.220763 84.893675 18.449841 1
3.201918 85.238822 18.607548 1
77.850947 31.847749 21.507786 5
89.501798 27.933245 21.963465 5
91.238370 31.596549 22.043740 5
98.261817 31.418511 22.341064 5
105.661025 31.104955 22.664667 5
125.306013 22.415169 23.481246 6
133.517083 21.992109 23.863336 6
142.004074 21.540275 24.269947 6
-149.995962 4.570518 29.595478 7
-147.979630 7.022909 29.157647 7
-145.535811 8.307927 28.815140 7
-143.013183 9.383736 28.495886 7
-140.388334 10.211007 28.202086 7
-137.724792 10.959541 27.921157 7
-135.020885 11.632691 27.652652 7
-132.256696 12.192700 27.398966 7
-129.470601 12.733072 27.153488 7
-126.646000 13.221206 26.918362 7
-123.806797 13.712058 26.689834 7
-120.894452 14.087695 26.475671 7
-117.961570 14.462174 26.268238 7
-112.632147 10.214322 26.365210 8
-113.360226 17.736812 25.712344 8
-111.717915 20.577990 25.370717 8
-109.769936 22.797757 25.077573 8
-107.495105 24.398278 24.831608 8
-104.686743 25.058886 24.651469 8
-101.583615 25.247054 24.507167 8
-98.416223 25.378916 24.372860 8
-95.186012 25.462036 24.248085 8
-91.909863 25.528248 24.130960 8
-88.630213 25.647109 24.017430 8
-85.301596 25.747305 23.911844 8
-81.925466 25.834008 23.813974 8
-78.497813 25.903984 23.724097 8
-75.051963 26.008504 23.639337 8
-71.514660 26.043322 23.565840 8
-65.090489 22.114464 23.726938 8
-64.251437 26.045004 23.444861 8
-62.287783 28.384007 23.262576 9
-61.078732 31.695729 23.033547 9
-60.999218 36.409785 22.733760 9
-58.643921 38.130063 22.612055 9
-56.296577 39.863797 22.497715 9
-53.852997 41.483894 22.397923 9
-51.494337 43.214547 22.300031 9
-49.042390 44.841025 22.216181 9
-46.277467 46.116419 22.160370 9
-43.112911 46.962934 22.137146 9
-39.315923 47.146637 22.160047 9
-35.262031 47.115654 22.204024 9
-31.143108 47.089762 22.256863 9
-26.950567 47.062275 22.319192 9
-22.692876 47.044713 22.390608 9
-18.292179 46.960353 22.475830 9
-13.858503 46.925203 22.568441 9
-9.346994 46.895701 22.671255 9
-4.701285 46.820465 22.787631 9
-0.022588 46.800411 22.911939 9
4.795960 46.736925 23.050402 9
9.681053 46.702190 23.199067 9
14.720872 46.619459 23.363008 9
19.868769 46.535658 23.539817 9
2.441079 65.927087 22.499897 4
2.785096 69.721607 22.439446 1
2.774860 73.756797 22.369599 1
2.658362 77.816892 22.303651 1
69.203095 28.728529 25.794262 5
75.696951 28.496717 26.086880 5
82.377964 28.243350 26.399004 5
89.331796 27.910370 26.735524 5
96.436249 27.597850 27.090372 5
103.782817 27.244085 27.468809 5
141.116224 5.746275 29.440513 6
-113.390840 -7.189309 31.700420 8
-115.136825 3.118436 30.707685 8
-114.435084 8.159876 30.142807 8
-113.225545 12.049280 29.679364 8
-112.171114 16.119858 29.213318 8
-110.446420 18.826834 28.861841 8
-108.376969 20.848947 28.571492 8
-103.028052 17.013234 28.728048 8
-102.166228 21.205871 28.291103 8
-98.998156 21.353829 28.163705 8
-95.814212 21.528678 28.041434 8
-92.593157 21.695822 27.926934 8
-89.326589 21.844041 27.821098 8
-85.995406 21.946301 27.725958 8
-82.599611 22.007189 27.641240 8
-79.203773 22.128368 27.559716 8
-75.729294 22.192092 27.489978 8
-72.223645 22.272429 27.426821 8
-68.654994 22.325190 27.373531 8
-65.043612 22.382236 27.327969 8
-62.228184 23.591650 27.208892 9
-62.275159 28.660306 26.825143 9
-61.931119 33.090972 26.495604 9
-59.804043 35.121398 26.344492 9
-57.415076 36.811602 26.225907 9
-55.091388 38.587812 26.109710 9
-52.774546 40.374824 26.001224 9
-50.386676 42.079625 25.907052 9
-47.939112 43.720894 25.825914 9
-45.071321 44.887217 25.787186 9
-41.666215 45.473158 25.798758 9
-37.603029 45.377804 25.868420 9
-33.523347 45.340494 25.943704 9
-29.356576 45.285053 26.030333 9
-25.128390 45.242101 26.126378 9
-20.986118 45.365780 26.220833 9
-16.555708 45.270609 26.342166 9
-12.058860 45.191856 26.473562 9
-7.441900 45.079161 26.619104 9
-2.792197 45.021230 26.772530 9
2.000974 44.913959 26.942030 9
6.878676 44.817741 27.123473 9
11.869773 44.709121 27.319077 9
16.967995 44.597805 27.528557 9
22.203388 44.461222 27.754182 9
27.534559 44.339980 27.993264 9
33.028298 44.180769 28.250618 9
38.823126 43.875046 28.535851 9
45.518571 42.948381 28.889634 9
77.483914 22.025383 30.954489 5
84.507392 21.488256 31.339026 5
91.815331 20.868534 31.751812 5
99.397747 20.184042 32.192513 5
-110.561141 -5.395924 34.998537 8
-111.766697 3.590909 34.027320 8
-111.377498 9.150216 33.379743 8
-110.429638 13.466373 32.855729 8
-109.049949 16.853744 32.425327 8
-107.180172 19.265706 32.091119 8
-104.733183 20.609546 31.859794 8
-101.686163 20.913255 31.727531 8
-98.512298 21.047328 31.617595 8
-95.324920 21.212624 31.512520 8
-92.097378 21.365520 31.416188 8
-88.818330 21.490397 31.330026 8
-85.511067 21.627216 31.250696 8
-82.138412 21.720027 31.183098 8
-78.704630 21.779704 31.126395 8
-75.206719 21.805673 31.080749 8
-71.621418 21.768211 31.048807 8
-68.024418 21.780400 31.021111 8
-62.288665 18.881411 31.248698 9
-62.204350 23.874210 30.816485 9
-60.819162 27.003618 30.551160 9
-60.609536 31.627312 30.168093 9
-58.322273 33.466639 30.029644 9
-56.087813 35.371617 29.894420 9
-53.850099 37.269724 29.768561 9
-51.514979 39.047299 29.661754 9
-49.236407 40.895875 29.557715 9
-46.525286 42.238102 29.505884 9
-43.428530 43.156704 29.499614 9
-39.686951 43.382914 29.562621 9
-35.600329 43.289284 29.663536 9
-31.475077 43.229735 29.772169 9
-27.247328 43.136644 29.894694 9
-22.980628 43.081289 30.025189 9
-18.561253 42.946997 30.174265 9
-14.089431 42.842422 30.332704 9
-9.537921 42.741782 30.503133 9
-4.889063 42.630602 30.687238 9
4.702953 37.864808 31.310094 9
4.593168 42.492363 31.087520 9
9.607415 42.301392 31.319684 9
14.680462 42.151382 31.562611 9
19.906375 41.959813 31.824531 9
25.222133 41.787711 32.100236 9
30.696716 41.578538 32.395721 9
36.300727 41.362997 32.708685 9
42.066214 41.118964 33.041987 9
84.983830 10.812095 36.430899 5
94.603792 8.271848 37.078859 5
-106.597582 6.878427 36.974169 8
-105.097732 10.168436 36.524807 8
-102.374619 11.164961 36.317004 8
-99.354748 11.653438 36.168859 8
-96.240878 12.018385 36.041411 8
-93.064244 12.322041 35.928406 8
-89.879791 12.661152 35.820250 8
-86.619232 12.924050 35.728146 8
-83.278356 13.110317 35.652182 8
-79.921677 13.327195 35.581823 8
-76.471937 13.456283 35.528894 8
-72.977163 13.576769 35.485683 8
-69.411364 13.652798 35.455860 8
-65.785225 13.704356 35.437602 8
-62.269321 13.976586 35.406935 9
-62.220784 19.124898 34.905587 9
-60.907023 22.420488 34.595877 9
-60.946625 27.469536 34.122309 9
-58.869975 29.618824 33.943545 9
-56.659070 31.582143 33.792235 9
-54.496661 33.601375 33.644483 9
-49.410535 31.986971 33.866858 9
-50.052271 37.475112 33.392574 9
-47.605166 39.139544 33.307506 9
-44.748836 40.332396 33.279067 9
-41.300807 40.870326 33.326357 9
-37.327310 40.865445 33.439038 9
-33.210928 40.774094 33.571721 9
-28.978084 40.632274 33.721163 9
-24.704127 40.525994 33.878935 9
-20.320291 40.383796 34.052711 9
-15.841871 40.226186 34.240791 9
-11.249656 40.037419 34.445245 9
-6.632854 39.910892 34.656675 9
-1.838264 39.696680 34.891339 9
3.006780 39.524765 35.135939 9
7.966016 39.336117 35.397239 9
13.039296 39.135119 35.675307 9
18.282695 38.874998 35.975884 9
23.660265 38.594594 36.295389 9
29.159141 38.310020 36.632673 9
34.794187 38.012627 36.989373 9
40.542698 37.726285 37.363449 9
-63.734670 -5.600680 41.314905 9
-61.926019 -2.587463 40.967179 9
-62.185946 3.420857 40.294111 9
-41.994625 -20.240151 42.955990 9
-60.568016 11.930908 39.370357 9
-61.727789 18.778549 38.631673 9
-60.721960 22.485773 38.254322 9
-58.796371 24.891771 38.032408 9
-56.788047 27.166483 37.834610 9
-54.718805 29.345649 37.656924 9
-52.668645 31.536024 37.487290 9
-50.541216 33.618062 37.339259 9
-48.238209 35.478633 37.225838 9
-45.527572 36.853382 37.177586 9
-42.412131 37.773057 37.191688 9
-38.439567 37.743141 37.326099 9
-34.320346 37.619936 37.483175 9
-30.083560 37.443264 37.658753 9
-25.752285 37.243773 37.849684 9
-21.305510 37.002941 38.058573 9
-16.824801 36.811482 38.275118 9
-12.209893 36.566226 38.511964 9
-7.533675 36.346843 38.760070 9
-2.748148 36.107273 39.025417 9
2.104285 35.893150 39.302948 9
7.156013 35.579386 39.608550 9
12.367956 35.211490 39.937404 9
17.627015 34.900462 40.276289 9
23.006437 34.580390 40.633985 9
28.550372 34.216133 41.015672 9
34.300224 33.777715 41.426095 9
40.226144 33.298848 41.861859 9
-57.946538 -2.393484 44.866033 9
-59.125102 4.868508 43.987725 9
-58.738388 9.710374 43.422858 9
-57.683230 13.510293 42.998482 9
-56.326834 16.825373 42.644614 9
-54.801673 19.859072 42.335669 9
-54.320683 24.215413 41.868179 9
-52.444646 26.685269 41.648991 9
-50.494435 29.038567 41.454112 9
-48.417608 31.217093 41.291090 9
-45.825557 32.758476 41.219611 9
-42.743717 33.728558 41.232185 9
-38.912221 33.855208 41.365209 9
-34.736680 33.652537 41.553428 9
-30.439937 33.392426 41.762186 9
-26.089843 33.155864 41.981301 9
-21.642067 32.896050 42.217317 9
-17.055395 32.572963 42.476044 9
-12.421806 32.289477 42.744261 9
-1.896027 26.019987 43.837837 9
3.263171 25.489664 44.176713 9
8.727152 24.758934 44.560217 9
14.279683 24.053267 44.958373 9
20.057273 23.244262 45.389694 9
26.152290 22.254464 45.866184 9
32.460185 21.194450 46.373559 9
39.160892 19.909140 46.935235 9
-65.182187 137.298735 -213.252805 0
-69.124239 136.673015 -213.423716 0
-73.226040 136.686741 -213.673696 0
-77.357355 136.745997 -213.942720 0
-81.480404 136.698083 -214.215164 0
-85.837216 137.444825 -214.585208 0
-89.798965 136.660308 -214.809976 0
-94.003440 136.691779 -215.134999 0
-98.228785 136.717876 -215.474604 0
-65.065083 135.991798 -208.239041 0
-69.325395 136.733544 -208.530608 0
-73.435043 136.724229 -208.768361 0
-77.574670 136.763435 -209.024465 0
-81.681627 136.603407 -209.276280 0
-85.866090 136.668417 -209.562996 0
-90.061955 136.697124 -209.860742 0
-94.270066 136.693217 -210.169953 0
-98.398599 136.352057 -210.461746 0
-61.260200 136.483413 -203.203291 0
-65.391595 136.674941 -203.420154 0
-69.503929 136.698253 -203.637149 0
-73.635549 136.728017 -203.868048 0
-77.768258 136.688312 -204.106904 0
-81.918734 136.647407 -204.359240 0
-86.113251 136.699031 -204.632821 0
-90.324025 136.732033 -204.918850 0
-94.543311 136.718859 -205.215168 0
-61.367012 136.230076 -198.324911 0
-65.572680 136.707592 -198.549423 0
-69.700336 136.740800 -198.757154 0
-73.841150 136.753961 -198.976501 0
-77.964469 136.625099 -199.199175 0
-82.153010 136.681716 -199.447751 0
-86.340754 136.658684 -199.704159 0
-90.563026 136.686418 -199.977592 0
-94.639068 136.138665 -200.223719 0
-57.458272 136.355487 -193.308640 0
-61.628164 136.697160 -193.498439 0
-65.754582 136.744756 -193.684426 0
-69.882410 136.722969 -193.878970 0
-74.004435 136.607254 -194.080691 0
-78.178135 136.632014 -194.302981 0
-82.370261 136.652285 -194.537803 0
-86.584391 136.678619 -194.785900 0
-90.816908 136.694624 -195.046454 0
-57.680592 136.715685 -188.484609 0
-61.794430 136.722404 -188.646985 0
-65.927190 136.741241 -188.821800 0
-70.045298 136.624197 -189.002533 0
-74.210207 136.635870 -189.201094 0
-78.399110 136.668501 -189.412841 0
-82.597020 136.659842 -189.635044 0
-86.834269 136.722114 -189.873024 0
-90.859255 135.957901 -190.084450 0
-53.642157 136.321801 -183.490408 0
-57.826840 136.705773 -183.644383 0
-61.957242 136.732126 -183.798324 0
-66.096209 136.722408 -183.962568 0
-70.236588 136.647291 -184.136191 0
-74.413598 136.655265 -184.324241 0
-78.606586 136.652429 -184.523713 0
-82.825730 136.675367 -184.735980 0
-87.060531 136.679951 -184.959644 0
-53.851478 136.695953 -178.674048 0
-57.979096 136.725434 -178.807731 0
-62.119367 136.739045 -178.952060 0
-66.250139 136.637183 -179.104950 0
-70.424425 136.656043 -179.271575 0
-74.595886 136.588934 -179.447528 0
-78.821317 136.665288 -179.638063 0
-83.054099 136.689958 -179.838922 0
-87.069169 135.846579 -180.030638 0
-49.796421 136.312107 -173.729892 0
-53.993984 136.729808 -173.847631 0
-58.129331 136.735474 -173.972080 0
-62.260908 136.650999 -174.106178 0
-66.431121 136.672168 -174.251940 0
-70.604683 136.632850 -174.407790 0
-74.794743 136.590521 -174.574391 0
-79.036202 136.678909 -174.753376 0
-83.276343 136.681620 -174.942435 0
-49.940495 136.421771 -168.915965 0
-54.124604 136.703348 -169.020968 0
-58.258340 136.642956 -169.136721 0
-62.424412 136.664672 -169.262451 0
-66.593911 136.626726 -169.398457 0
-70.791447 136.637309 -169.544693 0
-75.006836 136.645898 -169.701316 0
-79.245335 136.670015 -169.868422 0
-83.264418 135.792861 -170.045680 0
