ply
format ascii 1.0
element vertex 1389
property float x
property float y
property float z
property int scalar_Label
end_header
107.510484 -35.976807 -14.056760 5
104.601629 -36.220108 -14.135179 5
101.731328 -36.195286 -14.099731 5
98.857484 -36.259124 -14.096555 5
95.994636 -36.262009 -14.064359 5
93.135974 -36.264110 -14.027794 5
90.281428 -36.257016 -13.983410 5
87.426706 -36.307510 -13.958607 5
84.576899 -36.321806 -13.914909 5
81.730301 -36.300756 -13.852642 5
78.882659 -36.370444 -13.823590 5
76.037940 -36.364578 -13.759430 5
73.193248 -36.381971 -13.700751 5
70.348519 -36.400339 -13.638385 5
67.503779 -36.446597 -13.583404 5
64.660192 -36.548488 -13.547252 5
59.245109 25.788523 12.249808 9
59.061923 -38.487555 -14.179039 9
56.518586 -43.179629 -16.027594 9
53.854659 -44.907783 -16.649611 9
51.214880 -46.545567 -17.231327 9
48.619650 -48.347728 -17.878215 9
46.024509 -49.838932 -18.393429 9
43.415451 -50.985453 -18.762646 9
40.749105 -51.528809 -18.878080 9
38.034981 -51.683819 -18.828297 9
35.303146 -51.745374 -18.735532 9
32.564828 -51.808067 -18.639046 9
29.813063 -51.833239 -18.522670 9
27.052167 -51.855276 -18.400670 9
24.290756 -51.923768 -18.293740 9
21.516412 -51.971558 -18.173777 9
18.739585 -52.054693 -18.064203 9
15.941115 -52.083552 -17.927388 9
13.135381 -52.130786 -17.793736 9
10.318379 -52.179931 -17.656289 9
7.490734 -52.235742 -17.516995 9
4.653455 -52.303671 -17.378107 9
1.787866 -52.316571 -17.211173 9
-1.081717 -52.368389 -17.055826 9
-3.966863 -52.418053 -16.894639 9
-6.861709 -52.487106 -16.736693 9
-9.778740 -52.536590 -16.565359 9
-12.704140 -52.612520 -16.400145 9
-15.662368 -52.642856 -16.210234 9
-18.625109 -52.714322 -16.032572 9
-21.605544 -52.789014 -15.850900 9
-24.624836 -52.812521 -15.641740 9
-27.620866 -52.951548 -15.476679 9
-30.657237 -53.038979 -15.283775 9
-33.733676 -53.081971 -15.065879 9
-36.827504 -53.139823 -14.848468 9
-40.000266 -53.072254 -14.570512 9
-43.410858 -52.537205 -14.082552 9
-47.389523 -50.857532 -13.087460 9
-51.991768 -48.008637 -11.570753 9
-56.749291 -45.048612 -9.992527 9
-63.915884 -37.467744 -6.369192 8
-65.850905 -40.564864 -7.428625 8
-69.327822 -40.633539 -7.149157 8
-72.869455 -40.644641 -6.836674 8
-76.409213 -40.725529 -6.547382 8
-80.034460 -40.718522 -6.211101 8
-83.672661 -40.757702 -5.887216 8
-87.308661 -40.867859 -5.586812 8
-91.038866 -40.886970 -5.237152 8
-94.814067 -40.903047 -4.877328 8
-98.573346 -41.014990 -4.551817 8
-102.393479 -41.100164 -4.205172 8
-106.454671 -40.890168 -3.714918 8
-113.486384 -36.368131 -1.245845 8
-121.220783 -31.097843 1.589834 7
-125.455389 -31.088408 2.034781 7
-129.804315 -31.000570 2.526960 7
-134.165825 -30.980185 2.999567 7
-138.609755 -30.933059 3.496356 7
-143.196138 -30.785552 4.052147 7
-147.786959 -30.722844 4.581173 7
148.200073 -27.886056 -6.830833 6
145.092388 -27.875932 -6.869551 6
142.001457 -27.855246 -6.898920 6
138.924346 -27.832186 -6.922448 6
135.855131 -27.830195 -6.950080 6
132.806523 -27.788576 -6.956189 6
129.756581 -27.807982 -6.983353 6
126.727616 -27.776655 -6.984365 6
123.700113 -27.791798 -7.000329 6
120.683647 -27.801032 -7.009135 6
117.211056 -30.788561 -8.271665 5
113.800982 -33.836760 -9.555302 5
110.541434 -36.302602 -10.588498 5
107.519949 -37.331110 -11.010014 5
104.626510 -37.483793 -11.057040 5
101.754240 -37.519362 -11.050170 5
98.891002 -37.522220 -11.025076 5
96.030940 -37.543675 -11.003454 5
93.175902 -37.558379 -10.974592 5
90.325866 -37.554229 -10.933366 5
87.475976 -37.602466 -10.909930 5
84.630816 -37.618571 -10.868510 5
81.787518 -37.644403 -10.826822 5
78.946427 -37.651168 -10.772660 5
76.106382 -37.639896 -10.706438 5
73.266248 -37.676585 -10.656144 5
70.426180 -37.684164 -10.589071 5
67.585424 -37.697310 -10.519917 5
64.744738 -37.753258 -10.464503 5
59.248763 26.863022 17.116246 9
59.147039 -39.557436 -11.060978 9
56.608212 -44.287749 -12.984937 9
53.948264 -46.029832 -13.633067 9
51.312045 -47.671720 -14.235233 9
48.710546 -49.370288 -14.858410 9
46.125204 -50.933333 -15.420509 9
43.511576 -52.011829 -15.771979 9
40.852416 -52.593242 -15.906855 9
38.137889 -52.724387 -15.844558 9
35.410569 -52.799524 -15.753778 9
32.667505 -52.814707 -15.632697 9
29.928638 -52.904496 -15.539113 9
27.172666 -52.938545 -15.416912 9
24.410983 -52.990082 -15.297560 9
21.634527 -53.013638 -15.161388 9
18.853333 -53.064334 -15.032143 9
16.058944 -53.102542 -14.892647 9
13.254573 -53.146602 -14.750777 9
10.434068 -53.172898 -14.596217 9
7.606090 -53.220519 -14.445881 9
4.770944 -53.290429 -14.300164 9
1.919036 -53.347445 -14.143680 9
-0.941438 -53.424066 -13.990542 9
-3.834057 -53.441046 -13.806001 9
-6.725507 -53.515164 -13.641089 9
-9.625787 -53.611339 -13.480432 9
-12.568508 -53.627985 -13.279256 9
-15.536092 -53.626531 -13.064382 9
-18.504608 -53.678485 -12.867280 9
-21.483602 -53.754828 -12.675134 9
-24.500807 -53.781929 -12.455222 9
-27.529682 -53.834523 -12.240545 9
-30.588611 -53.866621 -12.010564 9
-33.674180 -53.890343 -11.770517 9
-36.750750 -53.992306 -11.559036 9
-39.879421 -54.028354 -11.311545 9
-43.316693 -53.435384 -10.774438 9
-47.378087 -51.582992 -9.661337 9
-51.963891 -48.783273 -8.108941 9
-56.794364 -45.687529 -6.408832 9
-63.939052 -38.181328 -2.690660 8
-65.957805 -41.115340 -3.701616 8
-69.459913 -41.148662 -3.386971 8
-72.975473 -41.221872 -3.082402 8
-76.541131 -41.267952 -2.757100 8
-80.200364 -41.214151 -2.377264 8
-83.847304 -41.252659 -2.031043 8
-87.551653 -41.261814 -1.662242 8
-91.291663 -41.281824 -1.289194 8
-95.064482 -41.318930 -0.914618 8
-98.862487 -41.386403 -0.544552 8
-102.791203 -41.321993 -0.102780 8
-106.932922 -41.012714 0.464744 8
-116.283036 -33.109129 4.629788 8
-122.328034 -30.390797 6.374690 7
-126.672668 -30.268716 6.905722 7
-131.089456 -30.132497 7.455892 7
-135.620660 -29.928720 8.051221 7
-140.240897 -29.698210 8.672822 7
-144.913732 -29.492994 9.296138 7
-149.797873 -29.112924 10.018427 7
148.395191 -28.332963 -3.180137 6
145.282822 -28.319460 -3.226215 6
142.181856 -28.317584 -3.272072 6
139.095527 -28.311983 -3.311046 6
136.015952 -28.334625 -3.357125 6
132.961520 -28.299163 -3.372685 6
129.912735 -28.290514 -3.394800 6
126.874650 -28.282993 -3.412299 6
123.838530 -28.322127 -3.445054 6
120.822124 -28.307050 -3.449130 6
117.293070 -31.613125 -4.895436 5
113.877281 -34.680761 -6.232820 5
110.609819 -37.189958 -7.322015 5
107.588042 -38.217400 -7.760751 5
104.673832 -38.552596 -7.893069 5
101.807531 -38.552353 -7.874437 5
98.949967 -38.515108 -7.834921 5
96.088615 -38.569910 -7.830797 5
93.238501 -38.542962 -7.786284 5
90.389497 -38.545801 -7.750027 5
87.543570 -38.547842 -7.708687 5
84.699900 -38.554534 -7.664640 5
81.858309 -38.558310 -7.614581 5
79.018178 -38.557599 -7.557813 5
76.178940 -38.540210 -7.488994 5
73.339488 -38.556131 -7.429973 5
70.499686 -38.542765 -7.353355 5
67.658984 -38.545884 -7.279154 5
64.817838 -38.581967 -7.214590 5
59.194816 29.364367 22.678602 9
59.201698 -40.032579 -7.676171 9
56.680658 -45.116991 -9.815680 9
54.016994 -46.806744 -10.461246 9
51.385741 -48.513482 -11.110755 9
48.781475 -50.178206 -11.738298 9
46.194230 -51.721762 -12.308979 9
43.589548 -52.879195 -12.705748 9
40.930961 -53.458993 -12.843509 9
38.232104 -53.700966 -12.827533 9
35.500703 -53.735348 -12.714977 9
32.754190 -53.719549 -12.575271 9
30.011217 -53.778419 -12.463705 9
27.259375 -53.831893 -12.344768 9
24.493146 -53.854689 -12.207151 9
21.716074 -53.872577 -12.062228 9
18.930158 -53.898749 -11.915818 9
16.133710 -53.927112 -11.765152 9
13.330817 -53.977722 -11.619145 9
10.509532 -54.000898 -11.455512 9
7.686116 -54.066909 -11.305665 9
4.833528 -54.070617 -11.122358 9
1.991976 -54.167883 -10.975561 9
-0.887280 -54.180157 -10.784871 9
-3.772597 -54.225544 -10.603374 9
-6.659775 -54.316308 -10.436610 9
-9.585413 -54.335681 -10.231655 9
-12.513085 -54.402950 -10.042427 9
-15.476467 -54.417451 -9.823134 9
-18.456848 -54.439196 -9.600903 9
-21.446547 -54.490598 -9.385887 9
-24.456721 -54.541556 -9.164275 9
-27.494287 -54.576483 -8.928796 9
-30.544925 -54.634512 -8.697283 9
-33.639065 -54.642249 -8.435849 9
-36.723145 -54.731707 -8.205198 9
-39.886459 -54.694521 -7.908964 9
-43.345046 -54.063858 -7.329888 9
-47.425912 -52.183618 -6.160478 9
-52.092990 -49.230904 -4.478762 9
-57.007565 -45.986033 -2.645510 9
-63.914657 -38.993525 0.961189 8
-66.251493 -41.307036 0.218239 8
-69.787603 -41.297530 0.573351 8
-73.381663 -41.248023 0.956298 8
-76.979289 -41.261944 1.318410 8
-80.619054 -41.269095 1.693027 8
-84.287853 -41.294843 2.068303 8
-88.065617 -41.205737 2.508241 8
-91.858129 -41.166934 2.934331 8
-95.665296 -41.177648 3.346985 8
-99.547685 -41.141854 3.792625 8
-103.512958 -41.053323 4.274771 8
-116.975536 -26.768964 11.672545 7
-119.898863 -28.675475 11.228288 7
-124.331639 -28.408219 11.854447 7
-129.001136 -27.899451 12.612900 7
-137.833028 -21.757518 16.165747 7
-138.484467 -26.993182 14.119688 7
-143.271889 -26.632469 14.850207 7
-149.909600 -23.978696 16.741109 7
148.661208 -28.521041 0.613097 6
145.535423 -28.526992 0.549298 6
142.419966 -28.551141 0.483042 6
139.322271 -28.561061 0.428877 6
136.242549 -28.550541 0.389541 6
133.178815 -28.522572 0.363637 6
130.116581 -28.543231 0.321424 6
127.067906 -28.553706 0.289308 6
124.030564 -28.560896 0.264150 6
121.011323 -28.520121 0.265990 6
117.460585 -31.900999 -1.263608 5
114.013571 -35.122158 -2.715938 5
110.731210 -37.693895 -3.871272 5
108.097269 -35.609517 -2.930160 5
104.775070 -39.157695 -4.513814 5
101.905668 -39.161896 -4.500557 5
99.044597 -39.134951 -4.468193 5
96.183702 -39.155298 -4.451973 5
93.328617 -39.158771 -4.423075 5
90.474692 -39.201462 -4.406717 5
87.627341 -39.193350 -4.362428 5
84.781063 -39.213239 -4.325642 5
81.938612 -39.184780 -4.262003 5
79.095180 -39.234415 -4.228419 5
76.253910 -39.249037 -4.173969 5
73.413149 -39.227310 -4.098016 5
70.571584 -39.209384 -4.018630 5
67.729762 -39.245014 -3.958255 5
64.886673 -39.264409 -3.885397 5
59.121414 -37.867338 -3.074652 9
56.737522 -45.692112 -6.518969 9
54.074856 -47.432143 -7.207168 9
51.439228 -49.110184 -7.863453 9
48.843052 -50.885717 -8.560198 9
46.254285 -52.423963 -9.145504 9
43.646778 -53.565220 -9.546493 9
40.994990 -54.208944 -9.716881 9
38.290352 -54.412047 -9.681894 9
35.551699 -54.403460 -9.545290 9
32.821146 -54.499215 -9.451045 9
30.068002 -54.499094 -9.307716 9
27.309402 -54.520064 -9.168651 9
24.547759 -54.574484 -9.039493 9
21.768841 -54.588534 -8.886357 9
18.982425 -54.617862 -8.734689 9
16.185150 -54.647815 -8.577706 9
13.377211 -54.681845 -8.416935 9
10.547071 -54.674533 -8.231338 9
7.718138 -54.726001 -8.067060 9
4.873182 -54.766365 -7.891778 9
2.000532 -54.757115 -7.687514 9
-0.873186 -54.799109 -7.500950 9
-3.774630 -54.799613 -7.288936 9
-6.673097 -54.864552 -7.100692 9
-9.612226 -54.853513 -6.870658 9
-12.548994 -54.905856 -6.663793 9
-15.517386 -54.918728 -6.431902 9
-18.498279 -54.951890 -6.202864 9
-21.507792 -54.961721 -5.956070 9
-24.537499 -54.974746 -5.703854 9
-27.574297 -55.026311 -5.462826 9
-30.649029 -55.038613 -5.196080 9
-33.722071 -55.112589 -4.951334 9
-36.846899 -55.119975 -4.667541 9
-40.008982 -55.101458 -4.363762 9
-43.497638 -54.421190 -3.735331 9
-50.572822 -46.115868 0.562507 9
-52.498475 -49.104136 -0.545550 9
-57.521264 -45.676912 1.442733 9
-63.952673 -39.684918 4.689413 8
-66.807675 -40.996395 4.418017 8
-70.385703 -40.942019 4.816885 8
-73.994856 -40.900103 5.219379 8
-77.629186 -40.882812 5.619724 8
-81.341395 -40.798069 6.063240 8
-85.118424 -40.675405 6.535940 8
-88.895971 -40.627776 6.982475 8
-92.739660 -40.544947 7.457384 8
-96.626744 -40.468220 7.940587 8
-100.565507 -40.386733 8.437767 8
-104.614637 -40.213460 8.992816 8
-110.258676 -37.732928 10.719350 8
-123.599851 -24.154861 18.061417 7
-128.586812 -23.219454 19.070009 7
-134.028876 -21.767510 20.358240 7
-139.947556 -19.806012 21.926102 7
-145.353734 -18.701369 23.077935 7
145.930210 -28.189170 4.611601 6
142.805070 -28.194633 4.544712 6
139.697991 -28.183482 4.491649 6
136.594569 -28.214702 4.425022 6
133.509076 -28.224251 4.374468 6
130.441992 -28.202828 4.344240 6
127.379617 -28.213516 4.305081 6
124.331650 -28.204442 4.280974 6
121.286667 -28.235498 4.244164 6
117.720083 -31.619477 2.661868 5
114.241965 -34.950245 1.110256 5
110.906272 -37.815833 -0.220322 5
107.837480 -39.110753 -0.818658 5
104.921954 -39.378221 -0.936157 5
102.040992 -39.428059 -0.947477 5
99.171284 -39.426771 -0.929657 5
96.310179 -39.379738 -0.885189 5
93.444734 -39.434219 -0.882237 5
90.588205 -39.423196 -0.843502 5
87.732736 -39.444738 -0.814387 5
84.879110 -39.491064 -0.791300 5
82.031410 -39.442516 -0.718788 5
79.183116 -39.434827 -0.659735 5
76.335124 -39.451984 -0.606728 5
73.487678 -39.463822 -0.545770 5
70.640088 -39.474916 -0.478969 5
67.791230 -39.458198 -0.393728 5
64.941231 -39.465561 -0.314137 5
59.162822 -38.069556 0.518778 9
56.781815 -46.060949 -3.105797 9
54.114915 -47.809388 -3.818563 9
51.481712 -49.573255 -4.534415 9
48.883428 -51.365533 -5.259514 9
46.291466 -52.905846 -5.862820 9
43.683600 -54.073278 -6.287430 9
41.026087 -54.695793 -6.452212 9
38.329923 -54.986363 -6.456295 9
35.587853 -54.971430 -6.311559 9
32.844225 -55.000124 -6.181675 9
30.089086 -55.008096 -6.036359 9
27.330509 -55.047741 -5.900225 9
24.560577 -55.074881 -5.752411 9
21.779386 -55.095054 -5.595453 9
18.984587 -55.101089 -5.425874 9
16.169508 -55.067753 -5.231614 9
13.353161 -55.085168 -5.055309 9
10.516928 -55.072623 -4.858606 9
7.685309 -55.132897 -4.690317 9
4.827624 -55.143826 -4.492236 9
1.960384 -55.173484 -4.296697 9
-0.932329 -55.166806 -4.077288 9
-3.834452 -55.183926 -3.862667 9
-6.760456 -55.177978 -3.630271 9
-9.681483 -55.243309 -3.425362 9
-12.648093 -55.223220 -3.172432 9
-15.619480 -55.246736 -2.933495 9
-18.601450 -55.295537 -2.699687 9
-21.608937 -55.328851 -2.451171 9
-24.633007 -55.373754 -2.200945 9
-27.707976 -55.343843 -1.906784 9
-30.797918 -55.336765 -1.616023 9
-33.909894 -55.335739 -1.320371 9
-37.039127 -55.353529 -1.025964 9
-40.238611 -55.270482 -0.673814 9
-43.834279 -54.377856 0.086375 9
-48.081794 -52.194157 1.496107 9
-53.087963 -48.601115 3.619390 9
-58.441960 -44.548686 5.989795 9
-64.018779 -40.324875 8.466140 8
-67.588433 -40.261368 8.883043 8
-71.196366 -40.195924 9.311109 8
-74.943864 -39.944634 9.843118 8
-78.668357 -39.815301 10.324826 8
-82.409503 -39.732239 10.794258 8
-86.309069 -39.451911 11.375146 8
-90.203254 -39.264485 11.920907 8
-94.139847 -39.088121 12.473224 8
-98.144278 -38.884056 13.052241 8
-102.251570 -38.602091 13.684275 8
-106.508962 -38.177971 14.403290 8
146.474724 -27.284092 8.995386 6
143.330567 -27.282981 8.922276 6
140.184669 -27.349715 8.823365 6
137.072484 -27.332761 8.770946 6
133.950282 -27.421123 8.674768 6
130.853625 -27.452528 8.612206 6
127.775776 -27.448891 8.572739 6
124.706941 -27.454393 8.535258 6
121.648163 -27.460732 8.503682 6
118.111293 -30.527976 7.020339 5
114.567180 -34.142918 5.282718 5
111.884509 -32.131773 6.230920 5
108.052073 -38.866989 3.019756 5
105.105842 -39.294934 2.818355 5
102.217965 -39.315238 2.816977 5
99.339798 -39.294913 2.840824 5
96.464235 -39.295378 2.860630 5
93.595204 -39.265017 2.900979 5
90.727718 -39.257313 2.936382 5
87.862570 -39.260012 2.972672 5
84.999038 -39.284074 3.004617 5
82.138289 -39.296806 3.047805 5
79.279578 -39.289933 3.106197 5
76.421361 -39.293714 3.165364 5
73.563427 -39.288999 3.234459 5
70.705100 -39.293710 3.304934 5
67.845680 -39.286112 3.387197 5
64.985064 -39.294753 3.467612 5
59.181966 -37.829379 4.356933 9
56.811981 -46.197227 0.446039 9
54.136596 -47.929895 -0.280028 9
51.500363 -49.747045 -1.042227 9
48.901996 -51.611247 -1.822751 9
46.313946 -53.246651 -2.488952 9
43.705825 -54.454694 -2.944893 9
41.035966 -55.014196 -3.083293 9
38.330511 -55.274537 -3.071876 9
35.583140 -55.261627 -2.922659 9
32.828292 -55.254565 -2.770235 9
30.076336 -55.317644 -2.645716 9
27.300190 -55.289627 -2.470926 9
24.522718 -55.310176 -2.313495 9
21.729571 -55.302718 -2.136191 9
18.918332 -55.263062 -1.936843 9
16.117744 -55.328387 -1.782256 9
13.288946 -55.319695 -1.585090 9
10.458177 -55.357259 -1.403978 9
7.598954 -55.333777 -1.186328 9
4.727592 -55.320738 -0.967015 9
1.850333 -55.341873 -0.757647 9
-1.058129 -55.307925 -0.514217 9
-3.967691 -55.327872 -0.290292 9
-6.891791 -55.354991 -0.062796 9
-9.840582 -55.359355 0.183198 9
-12.805398 -55.371495 0.432707 9
-15.799875 -55.353456 0.704720 9
-18.806726 -55.358752 0.972765 9
-21.843740 -55.339210 1.260982 9
-24.875824 -55.391368 1.521225 9
-27.963259 -55.357586 1.832553 9
-31.070693 -55.334877 2.146585 9
-34.177951 -55.372787 2.438440 9
-37.394724 -55.213007 2.838707 9
-40.608876 -55.127916 3.210194 9
-44.272334 -54.119223 4.060302 9
-48.857419 -51.252337 5.869327 9
-54.103362 -47.221027 8.290686 9
-63.833856 -34.356447 15.260253 8
-65.179677 -38.803561 13.379494 8
-68.876512 -38.560619 13.913667 8
-72.611247 -38.326317 14.454841 8
-76.385943 -38.098767 15.004233 8
-80.235812 -37.816966 15.593827 8
-84.146877 -37.511781 16.208084 8
-88.115171 -37.194262 16.841654 8
-92.145986 -36.859119 17.497712 8
-96.243952 -36.502738 18.178604 8
-100.444669 -36.072645 18.912567 8
-104.691494 -35.664797 19.649464 8
147.212715 -25.650060 13.805879 6
144.015468 -25.746992 13.674876 6
140.860817 -25.733595 13.605212 6
137.705864 -25.781109 13.512645 6
134.574875 -25.782176 13.449859 6
131.449001 -25.818606 13.376627 6
128.333553 -25.865161 13.305296 6
125.232198 -25.899674 13.246696 6
122.148696 -25.893872 13.214636 6
118.691110 -28.283596 12.015132 5
115.009305 -32.575838 9.890301 5
111.489794 -36.417274 7.993427 5
108.319417 -38.229298 7.097658 5
105.351496 -38.702613 6.864233 5
102.442173 -38.778241 6.831968 5
99.550541 -38.743423 6.860100 5
96.660048 -38.743392 6.877449 5
93.773515 -38.747453 6.899048 5
90.892326 -38.727114 6.938854 5
88.011743 -38.744870 6.966225 5
85.134879 -38.743554 7.009189 5
82.259932 -38.741948 7.058538 5
79.387074 -38.706465 7.130768 5
76.514010 -38.690681 7.199593 5
73.640759 -38.708918 7.257976 5
70.767391 -38.713020 7.329581 5
67.892930 -38.705448 7.413226 5
65.015563 -38.657033 7.523304 5
59.169181 -36.953469 8.554764 9
56.827234 -46.087083 4.154271 9
54.147550 -47.899475 3.368074 9
51.508000 -49.786815 2.549566 9
48.893813 -51.569900 1.787203 9
46.308013 -53.314333 1.048558 9
43.685606 -54.466138 0.608198 9
41.029691 -55.205258 0.377694 9
38.300706 -55.340977 0.452435 9
35.547478 -55.343006 0.599861 9
32.781029 -55.312617 0.769833 9
30.015227 -55.342216 0.916402 9
27.231123 -55.318219 1.096219 9
24.441907 -55.322642 1.268461 9
21.637951 -55.305891 1.457965 9
18.834645 -55.347047 1.625209 9
16.005347 -55.320536 1.833189 9
13.160305 -55.282623 2.053851 9
10.313466 -55.294631 2.256424 9
7.465475 -55.355206 2.441561 9
4.579979 -55.324456 2.679927 9
1.667371 -55.253315 2.946078 9
-1.241711 -55.254903 3.182856 9
-4.185543 -55.196086 3.457823 9
-7.135226 -55.178465 3.719541 9
-10.099445 -55.173164 3.982740 9
-13.092302 -55.139126 4.268496 9
-16.108065 -55.098044 4.565919 9
-19.140000 -55.071658 4.864010 9
-22.197802 -55.034622 5.175904 9
-25.234919 -55.111935 5.437328 9
-28.343117 -55.062626 5.772580 9
-31.469188 -55.031058 6.107483 9
-34.636639 -54.961725 6.470971 9
-37.830215 -54.895458 6.842107 9
-41.124631 -54.665636 7.308048 9
-45.012517 -53.206949 8.427270 9
-49.929669 -49.690469 10.640270 9
-55.586379 -44.884939 13.551816 9
-63.830339 -35.154696 19.087161 8
-66.986914 -36.024619 19.052132 8
-70.781131 -35.692919 19.663595 8
-74.723664 -35.168483 20.390277 8
-78.713575 -34.652768 21.125835 8
-82.766290 -34.120408 21.884163 8
-86.900421 -33.542982 22.680986 8
-91.154585 -32.860821 23.549107 8
-95.575617 -32.006303 24.526101 8
-100.112608 -31.077058 25.560344 8
-104.837822 -29.966712 26.710721 8
148.406133 -22.286425 19.582680 6
145.153601 -22.411000 19.425783 6
141.938438 -22.451641 19.319018 6
138.728905 -22.533166 19.199181 6
135.531688 -22.627320 19.080504 6
132.350366 -22.715034 18.972557 6
129.189916 -22.765752 18.890692 6
126.045769 -22.794051 18.827480 6
122.909065 -22.843294 18.760998 6
119.789706 -22.851886 18.722260 6
115.822943 -28.565594 15.815234 5
111.987334 -34.276095 12.917779 5
108.712332 -36.639163 11.714618 5
105.675908 -37.466487 11.292218 5
102.745745 -37.526186 11.263357 5
99.830051 -37.506687 11.281109 5
96.918012 -37.497153 11.300533 5
94.009716 -37.492666 11.324093 5
91.103560 -37.511200 11.342720 5
88.203680 -37.479529 11.393324 5
85.307776 -37.400415 11.474534 5
82.409639 -37.396787 11.524345 5
79.513428 -37.366198 11.594441 5
76.617630 -37.314585 11.681846 5
73.720891 -37.297109 11.758721 5
70.823058 -37.238396 11.863160 5
67.923665 -37.212866 11.957574 5
65.021838 -37.175442 12.064773 5
59.196021 -36.847912 12.427678 9
56.804392 -45.351063 8.223108 9
54.121741 -47.355436 7.317630 9
51.468419 -49.253376 6.471153 9
48.864781 -51.305051 5.551394 9
46.276108 -53.132874 4.750254 9
43.649555 -54.341205 4.269595 9
40.972421 -54.990794 4.079351 9
38.245425 -55.222744 4.108374 9
35.476807 -55.188782 4.279836 9
32.700495 -55.162897 4.454006 9
29.922009 -55.179961 4.613059 9
27.124052 -55.138892 4.808859 9
24.313911 -55.091307 5.015072 9
21.505361 -55.110025 5.194306 9
18.669455 -55.051008 5.420744 9
15.834858 -55.057373 5.620764 9
12.973878 -55.004207 5.858890 9
10.106215 -54.982752 6.088106 9
7.225973 -54.968512 6.321141 9
4.331490 -54.956929 6.560444 9
1.408847 -54.900238 6.830987 9
-1.530710 -54.844991 7.108728 9
-4.482845 -54.807868 7.385067 9
-7.467238 -54.726360 7.692806 9
-10.451274 -54.708136 7.975722 9
-13.466907 -54.653873 8.285972 9
-16.507075 -54.589816 8.609986 9
-19.570259 -54.523450 8.943996 9
-22.653659 -54.464817 9.282850 9
-25.747802 -54.440181 9.612749 9
-28.885204 -54.366428 9.977931 9
-32.050823 -54.287078 10.355559 9
-35.243938 -54.206589 10.743458 9
-38.512332 -54.016687 11.199836 9
-41.938280 -53.543689 11.818659 9
-50.528645 -41.857192 18.488980 9
-51.641056 -46.784901 16.230479 9
-58.416333 -39.778769 20.431979 9
-66.241210 -31.083198 25.584236 8
-70.314967 -30.279244 26.476341 8
-77.199899 -24.195157 30.268876 8
-79.091344 -27.821571 28.771227 8
112.904942 -29.176674 19.478380 5
109.263930 -33.856874 17.036927 5
106.871510 -28.927040 19.580572 5
103.180199 -35.095750 16.383108 5
100.228694 -35.081310 16.395305 5
97.283080 -35.053281 16.421702 5
94.338103 -35.066919 16.433663 5
91.399966 -35.038722 16.474436 5
88.463633 -35.025111 16.514786 5
85.531205 -34.975783 16.580784 5
82.599570 -34.931487 16.651319 5
79.667180 -34.939917 16.701652 5
76.736759 -34.872330 16.798577 5
73.805157 -34.794220 16.908155 5
70.871618 -34.726157 17.019726 5
67.935939 -34.672040 17.131280 5
64.996177 -34.571154 17.274411 5
60.187780 12.120983 41.676054 9
59.170526 -35.700434 16.889322 9
56.759853 -44.254401 12.542256 9
54.074630 -46.511900 11.480146 9
51.422246 -48.639154 10.491108 9
48.810542 -50.770058 9.505210 9
46.199585 -52.523001 8.721971 9
43.566847 -53.810939 8.187464 9
40.879001 -54.490673 7.977465 9
38.144161 -54.769716 7.984087 9
35.361001 -54.730961 8.164519 9
32.568170 -54.688849 8.353978 9
29.767803 -54.660339 8.543609 9
26.949586 -54.588836 8.763310 9
24.130750 -54.575656 8.959735 9
21.287735 -54.497272 9.198184 9
18.437488 -54.446753 9.429586 9
15.570799 -54.381639 9.676501 9
12.708709 -54.396681 9.888702 9
9.811856 -54.323308 10.155824 9
5.761338 -49.815197 12.796069 9
3.967158 -54.164988 10.720705 9
1.032105 -54.131908 10.990959 9
-1.935803 -54.044168 11.298913 9
-4.914508 -53.983481 11.600961 9
-7.918656 -53.902608 11.922585 9
-10.940979 -53.828459 12.249474 9
-13.958842 -53.829926 12.544510 9
-17.021198 -53.761273 12.886537 9
-20.118023 -53.659492 13.255874 9
-23.246784 -53.536876 13.646123 9
-26.418924 -53.367914 14.071455 9
-29.596591 -53.254659 14.476436 9
-32.817079 -53.103182 14.912527 9
-36.047876 -52.996384 15.334528 9
-39.394606 -52.688929 15.877650 9
-43.036805 -51.797139 16.754993 9
-47.856782 -48.446362 19.008121 9
-55.110272 -40.172351 24.018061 9
110.402011 -26.616314 24.856189 5
106.934781 -29.979661 23.052120 5
103.854728 -30.504396 22.766563 5
100.845367 -30.481611 22.780091 5
97.841081 -30.454118 22.803826 5
94.839181 -30.446869 22.824479 5
91.844428 -30.388304 22.880124 5
88.853434 -30.298911 22.959865 5
85.860837 -30.262588 23.019034 5
82.870876 -30.187168 23.106713 5
79.881643 -30.075074 23.221638 5
76.890786 -29.970157 23.340471 5
73.928934 -17.667998 29.973115 5
70.902985 -29.819719 23.569710 5
67.903503 -29.636113 23.753868 5
64.900604 -29.523271 23.908099 5
60.492008 5.738738 42.863686 9
59.148220 -34.603231 21.401362 9
56.294755 -36.268803 20.624835 9
53.985332 -45.077093 16.026647 9
51.324465 -47.397921 14.907751 9
48.700586 -49.637377 13.837779 9
46.109768 -51.787150 12.821176 9
43.450586 -52.990744 12.318726 9
40.747039 -53.686743 12.095756 9
37.974194 -53.816199 12.184937 9
35.174805 -53.798938 12.360734 9
32.363214 -53.759913 12.555963 9
29.534489 -53.677726 12.782322 9
26.701388 -53.634797 12.995320 9
23.868056 -53.649455 13.185005 9
21.013699 -53.612247 13.410815 9
18.129396 -53.492301 13.689770 9
15.252498 -53.471938 13.922783 9
12.342038 -53.365366 14.211152 9
9.417306 -53.265564 14.504361 9
6.475205 -53.162353 14.808087 9
3.519554 -53.073070 15.112947 9
0.551128 -53.001414 15.416993 9
-2.467224 -52.820316 15.790317 9
-5.462710 -52.785201 16.092398 9
-8.509523 -52.646435 16.460997 9
-11.574085 -52.520553 16.832018 9
-14.667951 -52.374441 17.223975 9
-17.792052 -52.209893 17.636111 9
-20.934247 -52.064741 18.047564 9
-24.133796 -51.834334 18.516980 9
-27.336567 -51.669535 18.960308 9
-30.574228 -51.487076 19.424290 9
-33.849936 -51.283197 19.911329 9
-37.153573 -51.086126 20.405795 9
-40.587419 -50.662218 21.040247 9
-44.830291 -48.514116 22.666552 9
-52.593860 -38.886379 28.571763 9
61.026212 -6.470430 40.723984 9
58.842205 -27.859374 29.093928 9
56.536949 -39.845875 22.624444 9
53.848620 -42.976732 21.025620 9
51.182648 -45.621124 19.699768 9
48.560256 -48.179525 18.426629 9
45.942029 -50.303327 17.398531 9
43.289149 -51.780000 16.733449 9
40.558238 -52.434132 16.529427 9
37.760767 -52.549374 16.630916 9
34.933032 -52.495473 16.834044 9
32.088800 -52.398347 17.069336 9
29.242401 -52.354944 17.283089 9
26.377078 -52.265801 17.530622 9
23.502142 -52.190989 17.778652 9
20.614525 -52.116206 18.035225 9
17.678720 -51.877806 18.391915 9
14.752023 -51.758921 18.690749 9
11.804478 -51.618188 19.010799 9
8.844054 -51.493792 19.330798 9
5.873376 -51.396587 19.644718 9
2.871404 -51.247666 19.997094 9
-0.139572 -51.135470 20.338273 9
-3.197587 -50.928023 20.742970 9
-6.273959 -50.733271 21.150448 9
-9.381516 -50.511689 21.583289 9
-12.499985 -50.330749 22.003339 9
-15.638071 -50.163041 22.426274 9
-18.831377 -49.908084 22.909700 9
-22.083542 -49.566893 23.453576 9
-25.324471 -49.337568 23.944619 9
-28.620958 -49.039254 24.486774 9
-31.946506 -48.747224 25.037092 9
-35.286388 -48.499267 25.573906 9
-38.742738 -48.052640 26.238189 9
-42.647506 -46.664849 27.463367 9
58.707904 -24.492470 35.126717 9
54.372437 -3.935146 46.854234 9
53.596947 -39.266562 27.041974 9
50.948516 -42.722401 25.224445 9
48.328269 -45.738742 23.660518 9
45.735331 -48.447702 22.275826 9
43.026122 -49.687908 21.729202 9
39.522159 -44.437606 24.873762 9
37.445412 -50.541841 21.580924 9
34.572852 -50.395614 21.844822 9
31.692490 -50.274768 22.103062 9
28.795224 -50.124365 22.387020 9
25.885067 -49.975713 22.678976 9
22.970592 -49.876843 22.951554 9
20.037304 -49.751230 23.248577 9
17.074058 -49.554002 23.595975 9
14.086848 -49.325633 23.970803 9
11.083758 -49.107916 24.349219 9
8.066828 -48.910629 24.725694 9
5.021964 -48.679429 25.131705 9
1.982419 -48.544735 25.492022 9
-1.128951 -48.223135 25.970840 9
-4.264448 -47.902351 26.459877 9
-7.411193 -47.627378 26.933116 9
-10.592202 -47.322992 27.434470 9
-13.765261 -47.123876 27.885490 9
-17.036147 -46.709989 28.473525 9
-20.342599 -46.282927 29.081226 9
-23.680141 -45.858983 29.699288 9
-27.104286 -45.292580 30.413862 9
-30.540203 -44.792936 31.102045 9
-33.990051 -44.351265 31.769027 9
-37.679673 -43.416764 32.742399 9
-41.529153 -42.223706 33.885113 9
53.068793 -31.687050 35.459360 9
50.556052 -37.899530 31.999547 9
47.991603 -42.175862 29.666378 9
45.357748 -44.952015 28.209267 9
42.677967 -46.860069 27.262852 9
39.888294 -47.619287 26.992115 9
36.960710 -47.302670 27.356702 9
32.801210 -38.734092 32.548674 9
31.119678 -47.048117 27.893115 9
28.162471 -46.810679 28.239897 9
25.188308 -46.564243 28.601662 9
22.199722 -46.327197 28.967756 9
19.187516 -46.056070 29.363840 9
16.151791 -45.759995 29.784760 9
13.105128 -45.501889 30.193620 9
10.014754 -45.140736 30.673772 9
6.889215 -44.728259 31.195075 9
3.762457 -44.405391 31.674300 9
0.563602 -43.901577 32.272055 9
-2.661109 -43.405952 32.876573 9
-5.941880 -42.817556 33.548246 9
-9.241175 -42.273009 34.205984 9
-12.633246 -41.535910 34.991436 9
-16.073620 -40.765265 35.810164 9
-19.515048 -40.106458 36.575119 9
-23.120378 -39.088689 37.569996 9
-26.975985 -37.513164 38.916783 9
-30.842874 -36.072028 40.198942 9
47.240291 -34.164868 38.478670 9
44.743278 -39.184441 35.652095 9
42.032103 -41.448080 34.473656 9
39.174145 -42.209648 34.199269 9
36.180705 -41.915182 34.565129 9
33.157738 -41.521168 35.000731 9
30.114872 -41.113275 35.455048 9
27.035547 -40.600762 35.982735 9
23.942563 -40.132959 36.494402 9
20.814968 -39.596761 37.058202 9
17.653816 -39.012337 37.662317 9
14.320204 -37.742341 38.692079 9
11.033291 -36.865107 39.497236 9
7.591475 -35.476658 40.624767 9
-147.139989 -7.038925 -29.152610 7
-144.256452 -10.880827 -27.957224 7
-143.037639 -16.104254 -25.315011 7
-148.056996 5.706550 -29.437874 7
-143.353975 3.323041 -29.810004 7
-138.906608 0.787555 -30.002081 7
-134.783786 -1.967845 -29.945469 7
-131.044667 -5.008790 -29.576832 7
-127.799496 -8.448598 -28.783801 7
-125.421286 -12.633633 -27.208919 7
-128.567161 -21.671373 -20.520924 7
-108.724211 -10.495658 -35.188386 8
-104.083312 -12.507447 -35.862099 8
-102.150639 -16.993065 -33.978675 8
-101.283549 -22.559239 -31.033026 8
-98.722705 -26.586703 -29.702051 8
-148.000378 13.133349 -26.978953 7
-142.725671 11.154488 -27.850995 7
-137.649210 9.093000 -28.604091 7
-132.802225 6.915442 -29.204579 7
-128.191973 4.604690 -29.638688 7
-123.787202 2.173782 -29.927030 7
-119.656029 -0.444671 -30.000060 7
-108.309050 3.080309 -36.822503 8
-103.190902 1.518190 -37.973683 8
-99.313993 -1.073039 -37.994567 8
-95.710534 -3.889887 -37.776174 8
-92.358417 -6.929164 -37.329593 8
-89.331539 -10.277859 -36.571196 8
-86.867247 -14.189334 -35.248307 8
-85.566805 -19.301914 -32.723092 8
-83.633585 -23.868706 -30.805250 8
-143.997990 17.562194 -24.296627 7
-138.431951 15.810932 -25.476767 7
-133.062292 13.990480 -26.543288 7
-127.933221 12.057945 -27.450322 7
-122.970379 10.060103 -28.258298 7
-117.267069 8.718895 -29.802461 8
-106.918664 11.295572 -35.776253 8
-102.006583 9.559056 -36.761624 8
-97.639508 7.416735 -37.273506 8
-93.443684 5.167079 -37.656748 8
-89.428890 2.791274 -37.895356 8
-85.569643 0.301868 -38.007920 8
-81.920355 -2.362599 -37.932968 8
-78.536545 -5.269987 -37.604639 8
-75.371154 -8.392076 -37.060643 8
-72.644655 -11.969041 -36.057846 8
-70.578749 -16.264351 -34.338408 8
-58.574635 -10.041794 -43.399251 9
-50.203455 -7.346171 -48.727394 9
-45.648176 -8.648420 -49.955536 9
-42.441787 -11.424709 -49.704152 9
-39.848513 -14.923016 -48.754534 9
-37.625656 -18.905445 -47.358412 9
-36.136988 -23.853568 -45.063559 9
-35.751470 -30.301134 -41.384328 9
-32.297563 -32.980990 -41.354714 9
-146.897612 22.859872 -19.343338 7
-141.001209 21.256400 -20.798331 7
-135.285532 19.609905 -22.159785 7
-129.404645 18.170754 -23.737619 7
-123.885180 16.547362 -25.052601 7
-117.960581 15.321522 -26.809306 8
-107.682723 17.680095 -32.760377 8
-102.224506 16.352664 -34.272170 8
-97.521545 14.477074 -35.116032 8
-92.969078 12.529988 -35.859295 8
-88.565973 10.504336 -36.497799 8
-84.306522 8.396911 -37.031871 8
-80.178470 6.210654 -37.468639 8
-76.185066 3.934551 -37.799608 8
-72.355707 1.531638 -37.988386 8
-68.746210 -1.064329 -37.968478 8
-59.617659 1.948042 -43.934544 9
-52.281521 3.381674 -48.121584 9
-46.840601 3.003834 -50.337791 9
-42.865372 1.144052 -50.981418 9
-39.488257 -1.342362 -50.975458 9
-36.225367 -3.950659 -50.851964 9
-33.130370 -6.753587 -50.541560 9
-30.193344 -9.754429 -50.046781 9
-27.466193 -13.032059 -49.295377 9
-25.030712 -16.710119 -48.173941 9
-23.062578 -21.044680 -46.444726 9
-22.127607 -26.831443 -43.359706 9
-20.272237 -31.533849 -41.373982 9
-16.912373 -34.255553 -41.305477 9
-144.421393 26.191323 -15.366491 7
-138.111778 24.864564 -17.242940 7
-132.223786 23.336164 -18.811687 7
-126.494391 21.781077 -20.303772 7
-120.972092 20.155872 -21.668913 7
-107.688326 24.650227 -30.502450 8
-103.516801 22.259745 -30.787379 8
-98.503582 20.592448 -31.930145 8
-93.629893 18.878387 -32.990181 8
-88.929332 17.081933 -33.929067 8
-84.323532 15.262524 -34.820427 8
-79.911046 13.327000 -35.559369 8
-75.586742 11.360702 -36.248404 8
-71.409562 9.303301 -36.821802 8
-67.360351 7.164182 -37.294202 8
-57.835399 10.466494 -43.764877 9
-50.851416 11.497804 -47.628635 9
-45.758315 10.755744 -49.501208 9
-41.768298 8.939946 -50.190898 9
-38.106777 6.809547 -50.538030 9
-34.556698 4.580858 -50.780349 9
-31.096540 2.269535 -50.937726 9
-27.754168 -0.164528 -50.971804 9
-24.498546 -2.694601 -50.913939 9
-21.386057 -5.398082 -50.688987 9
-18.401540 -8.269846 -50.307332 9
-15.553378 -11.334043 -49.749933 9
-13.027509 -14.851257 -48.765840 9
-10.758779 -18.767945 -47.419583 9
-9.133209 -23.650436 -45.174560 9
-8.579662 -30.183396 -41.400362 9
-5.246077 -32.862865 -41.361366 9
-149.941815 29.836859 -8.034711 7
-142.886457 28.873318 -10.549065 7
-136.108927 27.841672 -12.902636 7
-129.857770 26.551645 -14.854380 7
-123.801413 25.222316 -16.701644 7
-113.393534 27.278313 -22.808883 8
-104.147981 28.698557 -27.970877 8
-98.956677 27.132475 -29.295382 8
-94.234123 25.262381 -30.212112 8
-90.135099 22.933424 -30.546803 8
-85.420756 21.164486 -31.545912 8
-80.671173 19.487969 -32.631882 8
-76.074022 17.739686 -33.609195 8
-71.597416 15.940390 -34.506185 8
-67.252728 14.072697 -35.305984 8
-59.066545 15.946370 -40.364095 9
-50.929582 18.002873 -45.527808 9
-45.677752 17.387716 -47.599469 9
-41.506794 15.759694 -48.510269 9
-37.649719 13.851656 -49.099262 9
-33.902752 11.861327 -49.591302 9
-30.224828 9.826186 -50.030119 9
-26.626210 7.729355 -50.399849 9
-23.136789 5.529611 -50.659548 9
-19.690211 3.296946 -50.886077 9
-16.347315 0.952884 -50.999702 9
-13.133814 -1.544666 -50.961000 9
-10.003797 -4.149422 -50.821834 9
-7.003310 -6.931353 -50.515154 9
-4.141361 -9.917087 -50.019631 9
-1.481705 -13.211566 -49.237374 9
0.945233 -16.882547 -48.110523 9
2.976173 -21.198480 -46.388672 9
4.035689 -27.074421 -43.208854 9
6.093490 -31.595804 -41.388346 9
9.373074 -34.295075 -41.333130 9
-142.559196 30.738821 -4.589239 7
-135.236964 30.030382 -7.495897 7
-128.401500 29.113401 -10.042675 7
-121.922575 28.060558 -12.339771 7
-107.476614 33.103055 -22.540460 8
-101.533344 32.020319 -24.585442 8
-96.218047 30.546471 -26.078195 8
-90.973469 29.097574 -27.563641 8
-85.875933 27.608165 -28.961158 8
-81.026557 25.985448 -30.159902 8
-77.096018 23.632924 -30.438679 8
-72.747217 21.683847 -31.197059 8
-68.137993 20.021959 -32.281494 8
-64.674029 17.351915 -32.150427 8
-52.058622 23.456779 -42.292116 9
-46.351343 23.225330 -44.886393 9
-41.945333 21.809932 -46.071974 9
-37.914429 20.071925 -46.869692 9
-33.962259 18.297236 -47.613035 9
-30.123632 16.443075 -48.256624 9
-26.343798 14.561936 -48.861800 9
-22.655039 12.613007 -49.385757 9
-19.034478 10.615829 -49.852529 9
-15.468263 8.581432 -50.276128 9
-12.009421 6.440308 -50.584717 9
-8.604041 4.250338 -50.842861 9
-5.318899 1.920299 -50.957732 9
-2.091130 -0.478965 -51.006859 9
1.005639 -3.053782 -50.884192 9
4.036619 -5.728262 -50.671768 9
6.931595 -8.611279 -50.263648 9
9.678162 -11.738262 -49.630665 9
12.209821 -15.229223 -48.661619 9
14.444592 -19.240404 -47.214123 9
16.127082 -24.219462 -44.869726 9
17.147167 -30.425125 -41.405910 9
20.385912 -33.125741 -41.339480 9
-144.801784 30.886972 3.878120 7
-136.027551 31.079520 -0.444630 7
-128.210711 30.782198 -3.975623 7
-121.011973 30.195233 -7.017024 7
-105.240849 36.145411 -18.745871 8
-99.435564 34.940567 -20.704295 8
-93.841700 33.669246 -22.523059 8
-88.468946 32.313703 -24.184951 8
-83.234071 30.931529 -25.769961 8
-78.162252 29.495147 -27.246623 8
-73.291363 27.963613 -28.568095 8
-68.536592 26.401142 -29.819785 8
-64.434451 24.314295 -30.400277 8
-54.881139 27.345088 -37.169074 9
-47.325346 28.763281 -41.860701 9
-42.924123 27.305278 -43.041927 9
-38.717259 25.715675 -44.045144 9
-34.631543 24.056796 -44.948888 9
-30.615103 22.375331 -45.810510 9
-26.687452 20.645951 -46.603042 9
-22.828942 18.884326 -47.346805 9
-19.036755 17.088890 -48.042073 9
-15.329818 15.232829 -48.661211 9
-11.691873 13.328793 -49.220846 9
-8.122989 11.371037 -49.717032 9
-4.635649 9.337884 -50.128880 9
-1.217434 7.237722 -50.468264 9
2.129051 5.060267 -50.726965 9
5.408553 2.804400 -50.906639 9
8.610745 0.448188 -50.987395 9
11.738235 -2.013870 -50.966914 9
14.738938 -4.667777 -50.761345 9
17.670721 -7.442822 -50.447430 9
20.460440 -10.462812 -49.905465 9
23.106362 -13.751272 -49.119085 9
25.488712 -17.526744 -47.881916 9
27.488073 -22.031158 -45.972457 9
28.531779 -28.317029 -42.399019 9
31.154630 -32.024511 -41.355822 9
34.210748 -35.021930 -41.014265 9
-147.027646 25.140919 16.745792 7
-130.408741 30.784893 4.540688 7
-121.792562 31.117686 0.054564 7
-103.952524 38.482732 -13.995089 8
-97.887509 37.441472 -16.260723 8
-91.978611 36.388020 -18.448301 8
-86.393935 35.181586 -20.374534 8
-81.009063 33.907293 -22.161224 8
-75.772028 32.598914 -23.857897 8
-70.715394 31.221367 -25.423424 8
-65.814721 29.786773 -26.878393 8
-58.060968 31.010543 -31.635924 9
-49.688434 33.016038 -37.258871 9
-42.995287 33.667544 -41.096768 9
-39.376651 31.492729 -41.418071 9
-35.803309 29.299355 -41.710676 9
-31.612700 27.763274 -42.780328 9
-27.515670 26.185643 -43.780624 9
-23.517224 24.555098 -44.701049 9
-19.572584 22.914404 -45.593965 9
-15.730088 21.205495 -46.394457 9
-11.969475 19.444231 -47.123787 9
-8.255915 17.665808 -47.824027 9
-4.598885 15.855163 -48.479888 9
-1.025783 13.973331 -49.050424 9
2.482487 12.037327 -49.557149 9
5.932680 10.049957 -50.005453 9
9.287495 7.954813 -50.337374 9
12.631769 5.859794 -50.670748 9
15.861558 3.614804 -50.848983 9
19.054639 1.320469 -50.981296 9
22.163128 -1.100730 -50.989890 9
25.178047 -3.674360 -50.852727 9
28.124330 -6.374364 -50.600672 9
30.954223 -9.290465 -50.147814 9
33.632118 -12.501799 -49.421892 9
36.159083 -16.032389 -48.407398 9
38.383256 -20.181517 -46.821847 9
40.057149 -25.459198 -44.189974 9
41.731771 -30.921625 -41.441918 9
38.904787 -45.379635 -30.243773 9
-103.392725 40.289845 -8.456717 8
-96.804161 39.595097 -11.308803 8
-90.760546 38.607711 -13.679400 8
-84.894236 37.591063 -15.945763 8
-79.213921 36.530250 -18.092510 8
-73.751924 35.389556 -20.077223 8
-68.494538 34.169599 -21.907198 8
-63.922681 32.436801 -23.024497 8
-53.623003 35.929610 -30.835652 9
-50.303464 33.295165 -30.676847 9
-39.887072 37.397301 -38.996204 9
-35.562152 35.929183 -40.201750 9
-31.270308 34.490634 -41.417688 9
-28.016802 32.053234 -41.391380 9
-24.691476 29.701130 -41.469498 9
-20.632402 28.151346 -42.504893 9
-16.639229 26.582527 -43.498818 9
-12.701155 25.002725 -44.462537 9
-8.869877 23.348488 -45.324120 9
-5.101268 21.664031 -46.137838 9
-1.382630 19.960151 -46.917914 9
2.272351 18.215908 -47.642370 9
5.840418 16.395990 -48.274103 9
9.363101 14.547164 -48.867842 9
12.822395 12.640763 -49.393946 9
16.228493 10.684489 -49.863201 9
19.584114 8.676437 -50.275712 9
22.852424 6.556529 -50.569937 9
26.075416 4.377425 -50.805018 9
29.235374 2.105274 -50.947937 9
32.334079 -0.266221 -50.995306 9
35.355639 -2.772818 -50.913811 9
38.317138 -5.398303 -50.723964 9
41.145673 -8.280861 -50.290799 9
43.865224 -11.400994 -49.640914 9
46.170885 -15.343791 -48.204942 9
47.998636 -20.306579 -45.812347 9
49.034510 -26.999627 -41.803132 9
48.721459 -36.712423 -34.986364 9
-103.901230 41.328805 -1.722436 8
-96.801756 40.945381 -5.154051 8
-90.198457 40.328925 -8.161363 8
-83.807836 39.678076 -11.038710 8
-77.966847 38.710252 -13.401588 8
-72.204659 37.786381 -15.761866 8
-66.782239 36.681742 -17.817470 8
-58.797525 37.917487 -22.941378 9
-49.377670 40.657216 -29.927253 9
-42.306083 41.523294 -34.310967 9
-37.447878 40.486790 -36.142784 9
-33.027343 39.113460 -37.503440 9
-28.760404 37.655519 -38.726992 9
-24.528619 36.223823 -39.956799 9
-20.361130 34.786830 -41.154381 9
-16.954506 32.593722 -41.404505 9
-13.759738 30.186903 -41.392839 9
-9.906273 28.531364 -42.282212 9
-5.986897 26.997881 -43.300766 9
-2.163514 25.401065 -44.227911 9
1.600403 23.777910 -45.109870 9
5.291315 22.106924 -45.923854 9
8.944980 20.427960 -46.717735 9
12.537451 18.706518 -47.453785 9
16.044915 16.904654 -48.091908 9
19.517415 15.083523 -48.702991 9
22.937138 13.214112 -49.256600 9
26.286851 11.265170 -49.721039 9
29.609278 9.292975 -50.159743 9
32.851780 7.211967 -50.483013 9
36.041536 5.054794 -50.728984 9
39.202398 2.852802 -50.933041 9
42.266684 0.485933 -50.972795 9
45.157804 -2.195546 -50.699992 9
47.767405 -5.416090 -49.896034 9
50.070178 -9.272539 -48.478689 9
52.023113 -13.906023 -46.324735 9
53.571217 -19.497249 -43.276517 9
53.837804 -27.921325 -37.524527 9
-98.252764 41.229971 2.684032 8
-90.636568 41.297395 -1.466280 8
-83.755385 40.960560 -4.924282 8
-77.379520 40.364618 -7.922161 8
-71.232404 39.711006 -10.759531 8
-65.525896 38.808854 -13.179221 8
-55.588738 41.703635 -20.725185 9
-45.880200 44.698862 -28.227520 9
-39.923465 44.557389 -31.366160 9
-35.316649 43.282635 -32.934748 9
-30.780781 42.015151 -34.475600 9
-26.359201 40.708843 -35.930828 9
-22.072053 39.336565 -37.269250 9
-17.911920 37.897432 -38.494184 9
-13.742791 36.528561 -39.781278 9
-9.718466 35.063486 -40.923320 9
-6.205310 33.078372 -41.406786 9
-3.072403 30.680604 -41.382764 9
0.528245 28.843100 -42.033666 9
4.364291 27.326225 -43.055196 9
8.115759 25.752892 -43.993812 9
11.810792 24.152190 -44.886366 9
15.462223 22.536455 -45.748957 9
19.044049 20.866819 -46.538687 9
22.558153 19.139196 -47.253592 9
26.025235 17.376314 -47.921767 9
29.449761 15.579791 -48.546862 9
32.830602 13.743140 -49.123506 9
36.135147 11.810166 -49.592550 9
39.407667 9.841842 -50.023146 9
42.622661 7.791306 -50.366942 9
45.653320 5.433803 -50.389563 9
48.429463 2.617112 -49.941234 9
50.935292 -0.730301 -48.961409 9
53.197272 -4.608649 -47.465130 9
55.298813 -8.907113 -45.580012 9
57.199813 -13.744140 -43.198014 9
58.000111 -21.013802 -38.441053 9
58.520462 -29.218106 -32.857565 9
-93.615984 40.354088 8.223214 8
-85.054955 41.204367 2.835315 8
-77.708229 41.296824 -1.307995 8
-71.037397 41.004565 -4.789130 8
-64.904705 40.405395 -7.743534 8
-52.886538 45.040673 -17.952212 9
-43.434757 47.792063 -25.307690 9
-38.105872 47.071818 -27.738431 9
-33.393021 45.882240 -29.475004 9
-28.759292 44.697949 -31.176369 9
-24.249581 43.471026 -32.781090 9
-19.873234 42.184739 -34.271205 9
-15.583500 40.879343 -35.703209 9
-11.378206 39.552166 -37.076229 9
-7.330986 38.117382 -38.284176 9
-3.271375 36.755075 -39.558397 9
0.679301 35.327879 -40.727209 9
4.245837 33.500851 -41.383791 9
7.355433 31.149954 -41.393997 9
10.745734 29.154198 -41.833989 9
14.490894 27.637065 -42.838147 9
18.170714 26.080858 -43.780693 9
21.824434 24.533163 -44.719448 9
25.403129 22.923978 -45.574264 9
28.933190 21.283658 -46.382800 9
32.364610 19.533453 -47.057803 9
35.794253 17.808979 -47.755610 9
39.179024 16.043159 -48.401623 9
42.506144 14.209831 -48.969060 9
45.623786 12.049365 -49.177940 9
48.538747 9.542077 -49.017650 9
51.206074 6.575868 -48.379296 9
53.667606 3.183405 -47.311372 9
56.048348 -0.441435 -46.029778 9
58.334394 -4.347042 -44.490817 9
57.827653 -13.939830 -37.135615 9
59.277192 -19.998646 -33.532013 9
59.205930 -29.559906 -26.465649 9
58.923734 -40.094260 -18.565618 9
-93.249475 36.121213 18.835753 8
-80.431353 40.340028 8.265202 8
-72.228811 41.178539 2.941362 8
-65.146786 41.287856 -1.183344 8
-50.718235 47.911140 -14.551276 9
-41.738492 50.217403 -21.470072 9
-36.486293 49.406955 -23.851834 9
-31.684253 48.281167 -25.736800 9
-26.962948 47.164148 -27.586748 9
-22.394914 45.980947 -29.302162 9
-17.896195 44.807011 -30.989303 9
-13.501018 43.603691 -32.598651 9
-9.215295 42.358540 -34.117147 9
-5.046494 41.056393 -35.528760 9
-0.963836 39.723781 -36.871553 9
3.009947 38.328737 -38.107808 9
6.967625 36.973051 -39.369146 9
10.842839 35.576181 -40.555394 9
14.471564 33.926458 -41.409439 9
17.533994 31.588622 -41.412847 9
20.742002 29.444169 -41.652862 9
24.409129 27.934627 -42.648943 9
28.028569 26.404010 -43.605321 9
31.596514 24.842586 -44.512323 9
35.130913 23.271881 -45.396799 9
38.589223 21.624021 -46.182186 9
42.012742 19.954691 -46.934997 9
45.274538 18.054990 -47.422049 9
48.306112 15.788150 -47.499302 9
51.080819 13.073257 -47.089773 9
53.687015 10.023806 -46.331651 9
56.233595 6.806431 -45.415502 9
58.730320 3.423662 -44.349093 9
61.166397 -0.161039 -43.098494 9
63.487716 -4.075364 -41.535238 9
59.250628 -21.701916 -25.727339 9
66.529006 -15.717803 -34.591905 5
68.307805 -21.360448 -31.415959 5
-79.676272 36.283673 18.521750 8
-67.510950 40.414315 8.137286 8
-49.096690 50.310636 -10.465520 9
-40.546027 52.200392 -16.971432 9
-35.209989 51.433617 -19.500281 9
-30.196080 50.476577 -21.694025 9
-25.366572 49.440256 -23.720908 9
-20.659193 48.374650 -25.656811 9
-16.098648 47.248077 -27.462185 9
-11.649991 46.087550 -29.178775 9
-7.261512 44.941313 -30.874889 9
-3.013160 43.719415 -32.432665 9
1.144390 42.467279 -33.916811 9
5.237805 41.209678 -35.362451 9
9.208268 39.873149 -36.677177 9
13.095987 38.496833 -37.915401 9
16.984106 37.178408 -39.202786 9
20.788143 35.811178 -40.405729 9
24.430601 34.285575 -41.392561 9
27.464456 31.977215 -41.409998 9
30.507770 29.681126 -41.446340 9
34.122277 28.206082 -42.466878 9
37.691163 26.708942 -43.446570 9
41.199652 25.162743 -44.355572 9
44.593005 23.474709 -45.088951 9
47.739452 21.416456 -45.390261 9
50.637488 18.949545 -45.228797 9
53.383034 16.199613 -44.759773 9
56.043828 13.259467 -44.095986 9
58.672082 10.206257 -43.328749 9
61.006158 6.534883 -41.909085 9
63.818112 3.690913 -41.422407 9
65.257331 -1.972368 -37.928402 5
68.255779 -4.630951 -37.705806 5
71.149631 -7.556696 -37.217225 5
73.926252 -10.806633 -36.411025 5
76.520647 -14.566216 -35.104659 5
78.648026 -19.574141 -32.555086 5
-49.422650 51.048188 -3.845261 9
-39.793748 53.803242 -11.854059 9
-34.262026 53.169495 -14.674470 9
-29.111802 52.301194 -17.080011 9
-24.042335 51.459820 -19.461930 9
-19.190512 50.508603 -21.627750 9
-14.475883 49.514435 -23.679626 9
