ply
format ascii 1.0
element vertex 1372
property float x
property float y
property float z
property int scalar_Label
end_header
-23.168590 71.900499 5.332510 1
-17.476262 72.414055 4.212536 1
-21.910556 80.363024 6.690183 1
-34.800610 94.102172 12.091342 3
-38.469227 100.993045 14.199676 3
-42.002435 107.623455 16.228065 3
-45.390269 113.996927 18.175100 3
-48.710034 120.173976 20.069023 3
-51.867175 126.101084 21.879325 3
-54.944525 131.840163 23.635695 3
-55.435196 135.872374 24.508853 3
-0.861367 107.086437 7.267985 2
-151.818156 -21.870746 18.264911 7
-148.625068 -20.136184 17.957995 7
-143.988790 -20.944655 16.880268 7
-139.393724 -21.561088 15.846579 7
-134.659055 -22.299844 14.761219 7
-129.962223 -22.856913 13.717229 7
-149.852519 16.336568 25.116957 7
-146.447722 17.172263 24.593902 7
-143.181312 18.264286 24.146503 7
-139.642206 18.977462 23.572263 7
-135.982447 19.562397 22.949035 7
-132.304396 20.177392 22.327258 7
-128.586318 20.792030 21.696817 7
-124.848637 21.436925 21.067584 7
-121.003336 21.992985 20.399390 7
-117.503283 23.070325 19.898373 8
-115.056872 25.562282 19.875482 8
-112.754296 28.223313 19.912838 8
-108.413741 28.315681 19.055266 8
-107.266812 32.405031 19.593305 8
-103.451454 33.215721 18.975669 8
-99.226855 33.601840 18.195018 8
-94.909360 33.955996 17.389014 8
-90.579147 34.373620 16.591773 8
-86.180286 34.792007 15.780201 8
-81.592215 35.083258 14.905896 8
-76.973321 35.426585 14.034511 8
-72.262705 35.758706 13.141838 8
-67.480044 36.103777 12.236374 8
-64.320923 38.163932 11.980576 9
-63.695498 42.735268 12.708053 9
-60.541738 44.795542 12.452143 9
-57.444467 46.932421 12.221408 9
-54.333068 49.077679 11.988753 9
-51.293528 51.310415 11.786420 9
-47.671518 53.045413 11.372128 9
-43.362318 54.222764 10.713383 9
-38.000318 54.566018 9.684208 9
-32.385733 54.798009 8.582207 9
-26.649351 55.037121 7.456048 9
-20.767352 55.268554 6.298098 9
-17.229422 57.457242 5.981522 4
-22.615308 66.561951 8.770526 1
-20.745972 69.941031 9.014419 1
-15.432209 70.758144 8.078644 1
-10.706343 72.093720 7.358495 1
-33.497077 93.020638 15.894718 3
-37.206151 99.951000 17.935048 3
-40.820986 106.647874 19.912361 3
-44.234905 113.048645 21.793266 3
-44.750611 117.409990 22.703069 3
-3.260845 94.950049 10.050396 3
-5.920816 101.099127 11.728421 2
-2.773770 103.580658 11.538389 2
3.739203 104.088364 10.293263 2
-151.665035 -13.970074 23.996962 7
-146.962261 -15.047692 22.894135 7
-141.967221 -16.497446 21.667793 7
-149.995242 4.116519 26.920063 7
-149.931726 10.586355 28.068574 7
-146.656591 11.683429 27.631428 7
-143.318001 12.712087 27.169538 7
-139.926288 13.694414 26.688867 7
-136.464262 14.609289 26.182295 7
-132.976890 15.529237 25.671534 7
-129.401738 16.365722 25.128614 7
-125.787704 17.195120 24.576699 7
-122.379807 18.359307 24.124547 7
-118.629114 19.095144 23.528990 7
-115.940037 21.296681 23.401692 8
-113.769471 24.169699 23.495051 8
-111.579866 26.988889 23.574886 8
-108.934831 29.212679 23.459546 8
-105.563364 30.545642 23.043543 8
-101.525091 31.113823 22.361009 8
-97.315126 31.546988 21.620782 8
-93.121794 32.072870 20.900177 8
-88.756058 32.475327 20.123805 8
-84.387312 32.952059 19.359933 8
-79.965078 33.446937 18.588710 8
-75.350655 33.814404 17.757149 8
-70.703096 34.230950 16.927714 8
-65.979654 34.653319 16.084358 8
-62.961399 36.869188 15.892894 9
-62.406260 41.520504 16.615442 9
-59.364374 43.698447 16.412200 9
-56.323792 45.896399 16.212581 9
-53.317157 48.144898 16.028388 9
-50.150026 50.266125 15.790028 9
-46.438767 51.928110 15.363560 9
-41.903464 52.916037 14.656140 9
-36.594357 53.315479 13.692812 9
-30.996437 53.571010 12.647336 9
-25.443103 53.969075 11.635743 9
-19.686321 54.306450 10.573460 9
-14.781718 55.422705 9.815872 4
-14.116319 59.888164 10.481268 4
-17.110529 67.063729 12.342805 1
-16.183935 71.170507 12.892966 1
-9.682483 71.193761 11.628433 1
-31.958534 91.771758 19.636759 3
-32.884486 96.782716 20.708706 3
-20.840324 92.881588 17.663656 3
-14.690433 93.194947 16.518511 3
-7.864643 93.184270 15.183578 3
-3.380023 94.800326 14.594745 3
1.577031 96.188922 13.873010 3
14.815471 92.605324 10.650090 3
-149.948806 -2.165307 29.913756 7
-147.667143 0.761071 29.982066 7
-144.975318 2.964830 29.851332 7
-142.065008 4.801670 29.617709 7
-139.005882 6.405846 29.316992 7
-135.827300 7.838701 28.965070 7
-132.546182 9.138045 28.571522 7
-129.165198 10.317824 28.139210 7
-125.740679 11.468501 27.694013 7
-122.253973 12.567352 27.228591 7
-118.699937 13.612336 26.741637 7
-116.365768 16.352601 26.770489 8
-114.373963 19.521635 26.936263 8
-112.288093 22.526362 27.056769 8
-110.015947 25.259379 27.096550 8
-107.040701 27.092259 26.852403 8
-103.274194 27.971807 26.298836 8
-99.216336 28.555752 25.640875 8
-95.114626 29.154834 24.977496 8
-90.872569 29.659705 24.272123 8
-86.673881 30.286033 23.595679 8
-82.279244 30.764716 22.857794 8
-77.815792 31.245196 22.107587 8
-73.297812 31.745609 21.350807 8
-68.770736 32.315262 20.604313 8
-64.311524 33.031908 19.895679 9
-63.780653 37.757323 20.601206 9
-60.877005 40.070219 20.454388 9
-57.893357 42.318735 20.281916 9
-54.941040 44.613072 20.123283 9
-51.973098 46.908511 19.962134 9
-48.700230 48.944010 19.700161 9
-44.715603 50.374726 19.202911 9
-39.896557 51.131538 18.435790 9
-34.645348 51.600887 17.539498 9
-29.240812 52.037097 16.609257 9
-23.700129 52.460498 15.651736 9
-18.035475 52.886101 14.671766 9
-12.218278 53.295895 13.660971 9
-9.398801 56.127035 13.620692 4
-8.218655 60.209652 14.098843 4
-12.841423 68.552004 16.382492 1
-9.799221 71.121006 16.256720 1
-3.112776 71.123781 15.016054 1
3.808362 71.094182 13.726510 1
33.946919 55.390319 5.448317 9
41.518618 55.531382 4.067701 9
71.934658 40.916369 -4.075222 5
80.911521 40.771499 -5.764918 5
90.370499 40.502894 -7.564940 5
100.450906 40.042934 -9.512687 5
138.726983 22.944866 -19.537191 6
-127.825420 -3.994230 29.727438 7
-125.996895 -0.273668 29.992034 7
-123.381113 2.217195 29.918588 7
-120.404328 4.169274 29.694460 7
-118.137104 7.127100 29.759720 8
-116.110560 10.381858 29.916444 8
-114.433934 14.063444 30.205091 8
-112.055618 16.751737 30.208924 8
-110.195611 20.091330 30.410925 8
-107.676533 22.545031 30.352988 8
-104.482473 24.146299 30.037628 8
-100.604610 24.936257 29.469876 8
-96.575039 25.602305 28.855602 8
-92.475659 26.250392 28.226525 8
-88.257753 26.828122 27.565506 8
-84.036287 27.472025 26.915105 8
-79.647853 28.000308 26.216831 8
-75.286785 28.633276 25.540933 8
-70.815368 29.221415 24.838717 8
-66.213537 29.749433 24.104146 8
-63.156202 31.934904 23.913327 9
-61.882229 35.922902 24.332262 9
-59.033008 38.311193 24.212528 9
-56.111707 40.640190 24.070982 9
-53.267023 43.054960 23.957567 9
-50.226321 45.299550 23.782342 9
-46.765996 47.182461 23.474532 9
-42.519256 48.400466 22.919818 9
-37.443611 48.957968 22.111395 9
-32.265643 49.517939 21.285877 9
-26.929501 50.037455 20.426402 9
-21.433077 50.521335 19.533401 9
-15.824621 51.014855 18.622810 9
-10.090877 51.511529 17.691248 9
-4.184358 51.979196 16.725093 9
-1.881059 55.281126 16.859006 4
0.578409 58.462937 16.946375 4
-8.246742 69.837499 20.365641 1
-3.162709 70.988027 19.658922 1
28.060336 54.025510 11.378364 9
35.140050 54.361956 10.188066 9
42.352343 54.743542 8.982577 9
71.132483 41.176905 1.691942 5
79.746745 41.234084 0.188167 5
88.836972 41.160916 -1.419889 5
98.223457 41.084663 -3.079660 5
135.314152 24.623509 -12.303313 6
140.220535 27.901322 -12.621799 6
-112.437256 -20.180683 28.863741 8
-114.163119 -10.907864 30.557365 8
-114.170776 -4.402905 31.537476 8
-113.673030 1.209882 32.296653 8
-112.609029 5.898935 32.819565 8
-111.266416 10.107772 33.222834 8
-109.551403 13.740301 33.475726 8
-107.274205 16.584444 33.513426 8
-104.188156 18.373872 33.253119 8
-100.380703 19.281313 32.736023 8
-96.522465 20.179829 32.209819 8
-92.549034 20.995158 31.652189 8
-88.596466 21.894207 31.111845 8
-81.894136 19.688325 29.629105 8
-80.856235 24.049050 30.116669 8
-76.706071 24.895119 29.537442 8
-72.247227 25.470029 28.865138 8
-67.888655 26.226837 28.238749 8
-62.541050 26.023366 27.298012 9
-62.366816 31.211852 28.064378 9
-59.679739 33.784628 28.003577 9
-56.937876 36.306061 27.926610 9
-54.146640 38.785390 27.835817 9
-51.298895 41.219454 27.729506 9
-48.168081 43.402479 27.537636 9
-44.201402 44.849083 27.091896 9
-39.538131 45.728139 26.441906 9
-34.544319 46.394889 25.704380 9
-29.328265 46.957903 24.914408 9
-24.025594 47.540801 24.114014 9
-18.610436 48.125295 23.296042 9
-13.079418 48.712831 22.460179 9
-7.428814 49.304697 21.606034 9
-1.589045 49.851443 20.714269 9
4.385047 50.402054 19.801748 9
10.599397 50.882727 18.839251 9
16.955380 51.374574 17.855995 9
23.470760 51.869775 16.847829 9
30.122216 52.390083 15.822097 9
37.033724 52.855309 14.745578 9
44.523004 53.062916 13.533546 9
71.771814 40.497462 7.022920 5
80.030973 40.772653 5.696207 5
88.662982 40.971577 4.296885 5
97.652187 41.117123 2.831232 5
124.334721 30.840223 -3.217584 6
135.040339 30.559672 -5.032229 6
146.513206 30.051168 -7.008546 6
-110.121348 -9.815860 34.415690 8
-110.406096 -3.009419 35.424110 8
-109.693583 2.233078 36.047083 8
-108.273587 6.395560 36.401147 8
-106.137333 9.530438 36.492243 8
-103.047779 11.391877 36.246242 8
-99.446224 12.617220 35.826629 8
-95.776430 13.798339 35.390847 8
-92.037739 14.939064 34.939351 8
-88.175722 15.978780 34.454556 8
-84.265156 17.013289 33.962451 8
-80.279431 18.014622 33.454692 8
-76.183255 18.947333 32.920443 8
-72.007240 19.851716 32.370515 8
-67.783240 20.766514 31.815702 8
-63.140365 21.299954 31.139190 9
-62.273931 25.845103 31.657028 9
-59.736063 28.609041 31.647497 9
-57.100001 31.269486 31.608496 9
-54.479185 33.944633 31.575524 9
-48.918116 33.790298 30.657924 9
-48.844905 38.925692 31.396803 9
-45.313330 40.768569 31.100123 9
-40.844133 41.796593 30.535134 9
-35.946099 42.512190 29.857076 9
-31.016939 43.283679 29.183727 9
-25.923614 43.997751 28.477194 9
-20.598848 44.605183 27.719525 9
-15.193568 45.240206 26.954633 9
-9.702707 45.901335 26.181534 9
-4.123242 46.588978 25.399852 9
1.713391 47.175724 24.563973 9
7.586402 47.839502 23.735394 9
13.629619 48.481268 22.878228 9
19.809832 49.131522 22.002330 9
26.298004 49.673280 21.063280 9
32.958989 50.212950 20.098378 9
39.707173 50.814989 19.130837 9
48.613370 50.097402 17.627383 9
73.322135 39.222253 12.114596 5
81.518838 39.541263 10.882681 5
89.869707 39.918593 9.637384 5
98.469413 40.300605 8.355849 5
123.732352 30.853271 2.981217 6
133.673621 30.991891 1.457586 6
144.134674 31.023536 -0.161170 6
-98.970692 -5.819743 37.541597 8
-97.823449 -1.146432 37.979746 8
-95.322565 1.678060 37.959844 8
-92.382469 3.923941 37.795369 8
-89.171044 5.835143 37.545308 8
-85.780284 7.544842 37.241933 8
-82.220880 9.079209 36.890438 8
-78.564134 10.533806 36.514826 8
-74.760562 11.858383 36.100627 8
-70.846478 13.103465 35.660334 8
-66.850874 14.307902 35.203729 8
-63.718708 16.499301 35.016610 9
-61.388533 19.557215 35.073120 9
-59.452503 23.008023 35.245815 9
-56.723726 25.618018 35.183509 9
-54.295544 28.530413 35.210615 9
-51.720919 31.289915 35.196144 9
-49.019867 33.925375 35.147126 9
-45.543189 35.832369 34.881156 9
-41.284837 37.048894 34.402582 9
-36.520691 37.867550 33.793899 9
-31.713999 38.726541 33.186260 9
-26.687924 39.472779 32.531632 9
-21.652277 40.295804 31.888205 9
-16.412580 41.031915 31.203809 9
-11.123291 41.816983 30.520788 9
-5.653372 42.546683 29.804851 9
-0.109320 43.312534 29.084911 9
5.519817 44.108305 28.358507 9
11.496581 44.737763 27.558705 9
17.553479 45.414243 26.755725 9
28.608228 42.563026 24.709318 9
30.125751 46.761775 25.087204 9
36.640789 47.443837 24.223424 9
43.544964 47.976785 23.282888 9
68.218978 36.747187 18.029091 5
75.954207 37.237583 16.964593 5
83.927525 37.718679 15.866130 5
92.056518 38.250257 14.754566 5
100.572819 38.694726 13.576041 5
125.307695 29.561194 8.630395 6
134.690272 30.028384 7.333865 6
144.690764 30.316721 5.923707 6
-61.120148 -22.254314 34.194281 9
-69.834163 -5.491083 37.595809 8
-68.586952 -0.943368 37.982185 8
-65.903518 1.877890 37.940169 8
-63.544091 5.053749 37.993230 9
-62.795382 9.984092 38.508676 9
-61.748264 14.501361 38.929987 9
-59.353421 17.514886 38.964077 9
-57.306665 20.875467 39.095756 9
-54.574962 23.509530 39.036558 9
-52.142218 26.443868 39.061764 9
-49.542344 29.204741 39.042592 9
-46.410096 31.451505 38.882086 9
-42.021644 32.532069 38.391112 9
-36.999987 33.092232 37.743506 9
-31.913002 33.680474 37.092513 9
-26.742677 34.282856 36.433784 9
-21.685329 35.073564 35.818317 9
-16.638917 35.958207 35.219185 9
-11.474310 36.826810 34.603548 9
-6.123130 37.627936 33.954951 9
-0.790395 38.534679 33.325483 9
4.691365 39.412731 32.673654 9
10.368798 40.231913 31.988927 9
16.369018 40.903787 31.241651 9
22.323171 41.715938 30.522315 9
28.395274 42.545526 29.791472 9
34.705709 43.310697 29.021323 9
41.092288 44.133909 28.251166 9
53.397177 41.021536 26.125549 9
72.132997 33.881887 22.561356 5
79.695153 34.523504 21.612343 5
87.494291 35.150699 20.631671 5
95.544727 35.762614 19.617369 5
103.803840 36.394000 18.580224 5
128.617557 27.225306 13.916448 6
137.739609 27.869540 12.769816 6
147.208200 28.482888 11.574994 6
-57.992528 -19.389812 38.876955 9
-61.595494 -8.912442 40.612140 9
-63.376829 -0.829435 41.812514 9
-62.349542 3.882296 42.224257 9
-60.593086 7.708079 42.431983 9
-59.053116 11.721027 42.694812 9
-57.053615 15.193073 42.832079 9
-54.866517 18.437950 42.918907 9
-52.559727 21.538179 42.974549 9
-49.976784 24.345974 42.959678 9
-46.889319 26.654762 42.818017 9
-42.961783 28.171519 42.468187 9
-38.255335 29.001324 41.931350 9
-33.426100 29.793464 41.375990 9
-28.296589 30.392434 40.759075 9
-23.047790 30.973950 40.126727 9
-17.667602 31.532293 39.476685 9
-12.218234 32.125989 38.824627 9
-6.672616 32.734395 38.164441 9
-1.025525 33.356578 37.495397 9
4.735714 33.985865 36.815056 9
10.631957 34.609853 36.119181 9
16.302597 35.512644 35.491380 9
22.053451 36.450353 34.860526 9
27.959920 37.369414 34.209986 9
34.021543 38.276008 33.540700 9
40.174216 39.221570 32.867729 9
48.813977 38.534238 31.664060 9
70.014639 29.424707 27.745090 5
77.243393 30.210730 26.922316 5
84.660515 31.001982 26.079466 5
92.237709 31.822980 25.223514 5
100.208212 32.532141 24.306073 5
125.458954 22.754272 19.798941 6
134.043237 23.612046 18.830809 6
142.917926 24.453755 17.827591 6
-55.199945 -16.174541 43.622519 9
-57.101545 -7.830986 44.784302 9
-57.036784 -1.917489 45.422732 9
-56.153597 2.967882 45.843309 9
-54.809241 7.268672 46.141883 9
-53.191078 11.216078 46.368566 9
-51.221344 14.748976 46.506357 9
-48.824475 17.813913 46.539422 9
-45.795244 20.232761 46.421168 9
-41.902849 21.817078 46.100578 9
-37.296428 22.759870 45.618719 9
-32.648184 23.734644 45.138332 9
-27.851878 24.644406 44.634850 9
-22.984881 25.566311 44.127028 9
-17.974410 26.438277 43.598568 9
-12.851585 27.293825 43.057352 9
-7.661790 28.176376 42.514214 9
-2.293521 28.994621 41.944609 9
3.202097 29.798255 41.360835 9
9.056639 30.405583 40.712794 9
15.013396 31.035336 40.058276 9
21.109208 31.662359 39.389849 9
27.398302 32.250507 38.696640 9
33.754392 32.901094 38.006392 9
40.227171 33.579425 37.308970 9
67.048772 19.842786 32.395195 5
73.693038 20.925836 31.734412 5
80.625229 21.924506 31.032617 5
85.923507 24.139175 30.680862 5
91.169275 26.461060 30.352696 5
98.606155 27.444739 29.600955 5
107.343328 27.740301 28.612980 5
133.290510 17.598846 24.281372 6
141.770897 18.604320 23.422511 6
-50.100535 -9.534971 48.396797 9
-50.429401 -3.183252 49.082490 9
-49.600745 1.777768 49.486675 9
-48.081904 5.920919 49.725569 9
-45.841461 9.259397 49.796610 9
-42.622624 11.577316 49.646044 9
-38.514515 13.022922 49.300148 9
-34.235372 14.352216 48.925013 9
-29.831760 15.619170 48.531984 9
-25.307961 16.834110 48.122728 9
-20.690757 18.027657 47.703765 9
-15.932214 19.160548 47.265272 9
-11.032740 20.239770 46.808124 9
-6.027211 21.302147 46.340489 9
-0.852718 22.298295 45.849712 9
4.396283 23.314909 45.356377 9
9.814355 24.276816 44.841336 9
15.343929 25.237558 44.317258 9
21.028022 26.167324 43.775986 9
26.893613 27.051317 43.212885 9
32.879171 27.943473 42.641147 9
39.057139 28.794101 42.047053 9
45.956248 29.224990 41.328011 9
77.158188 12.416450 35.909438 5
83.472272 13.860841 35.381829 5
90.082456 15.203535 34.814099 5
96.937290 16.490660 34.217466 5
104.027141 17.737698 33.594952 5
130.936510 6.345305 29.310060 6
137.705974 8.302365 28.817042 6
144.952970 10.070406 28.254575 6
-25.796803 -5.481899 50.689877 9
-24.518147 -0.895912 50.988430 9
-21.622147 2.041431 50.949110 9
-18.141379 4.416982 50.793658 9
-14.326732 6.500705 50.576567 9
-10.199400 8.330722 50.303991 9
-5.815357 9.974545 49.988872 9
-1.338776 11.591475 49.665221 9
3.419003 13.021225 49.296385 9
8.306809 14.406914 48.913355 9
13.350863 15.732341 48.511734 9
18.626720 16.942265 48.077835 9
23.960309 18.187469 47.645930 9
29.547948 19.314515 47.179312 9
35.252362 20.440782 46.704889 9
41.099376 21.550988 46.218454 9
96.977064 -1.962547 37.937734 5
100.646354 1.605278 37.961314 5
21.791515 -3.051705 50.896039 9
24.380954 0.594875 50.987048 9
28.110170 3.274523 50.878323 9
32.371963 5.543966 50.682967 9
37.066915 7.509410 50.421018 9
42.028157 9.323344 50.123603 9
31.110529 2.968681 -50.899649 9
27.558754 0.333538 -50.984269 9
24.201685 -1.236205 -50.983517 9
20.952429 -2.209208 -50.936953 9
17.732591 -3.143968 -50.892871 9
14.550268 -3.940946 -50.842356 9
11.403516 -4.570607 -50.782563 9
8.274179 -5.193487 -50.727537 9
5.172271 -5.655260 -50.663426 9
2.073795 -6.267851 -50.617986 9
-0.998122 -6.649810 -50.556994 9
-4.060750 -7.046586 -50.502349 9
-7.111797 -7.382099 -50.447140 9
-10.154476 -7.698109 -50.395072 9
-13.190225 -8.022094 -50.348600 9
-16.219294 -8.337411 -50.306182 9
-19.242654 -8.613855 -50.265024 9
-22.261524 -8.877483 -50.227464 9
-25.279134 -9.036864 -50.185081 9
-28.294829 -9.210502 -50.148704 9
-31.308780 -9.397194 -50.118217 9
-34.322917 -9.564124 -50.090586 9
-37.341779 -9.657236 -50.060802 9
-40.362507 -9.751591 -50.035777 9
-43.394115 -9.744521 -50.006006 9
-46.580725 -8.116432 -49.830675 9
-50.289666 -1.736372 -49.219203 9
48.299152 -8.764422 -49.244987 9
44.511340 -12.044073 -49.393400 9
41.248001 -12.922842 -49.320343 9
38.093051 -13.345466 -49.209178 9
34.958723 -13.752557 -49.101762 9
31.846921 -14.125188 -48.996166 9
28.757394 -14.454116 -48.891380 9
25.678868 -14.807521 -48.793967 9
22.623793 -15.089290 -48.694445 9
19.573872 -15.431402 -48.605710 9
16.547061 -15.679735 -48.512500 9
13.528110 -15.955007 -48.426677 9
10.517531 -16.254055 -48.347910 9
7.523235 -16.479638 -48.266435 9
4.540756 -16.657423 -48.184720 9
1.563458 -16.865246 -48.110535 9
-1.407026 -17.077702 -48.041306 9
-4.371029 -17.293337 -47.976856 9
-7.327379 -17.462010 -47.912062 9
-10.278473 -17.607270 -47.849260 9
-13.226433 -17.801582 -47.795814 9
-16.169857 -17.890510 -47.735923 9
-19.111250 -18.039207 -47.686445 9
-22.050208 -18.197238 -47.642216 9
-24.988354 -18.310321 -47.597636 9
-27.926825 -18.397523 -47.554635 9
-30.865635 -18.486759 -47.516075 9
-33.804386 -18.593823 -47.483585 9
-36.745425 -18.681925 -47.453354 9
-39.690341 -18.743889 -47.424628 9
-42.638532 -18.802338 -47.399746 9
-45.656367 -18.147152 -47.304937 9
-48.810038 -16.338207 -47.094291 9
-52.260112 -12.244962 -46.650038 9
-56.344854 -3.637296 -45.739867 9
55.011689 -8.302497 -45.909264 9
50.104932 -16.238557 -46.579871 9
46.404095 -19.186185 -46.734137 9
43.116095 -20.398929 -46.711034 9
40.035431 -20.692219 -46.595183 9
36.967644 -21.002755 -46.485932 9
33.927561 -21.241660 -46.373645 9
30.909112 -21.430205 -46.260477 9
27.901078 -21.630125 -46.153030 9
24.900210 -21.863159 -46.053646 9
21.913632 -22.077119 -45.956593 9
18.940618 -22.268716 -45.861441 9
15.977020 -22.464871 -45.771094 9
13.024140 -22.648390 -45.683613 9
10.080773 -22.822573 -45.599312 9
7.145238 -22.998315 -45.519361 9
4.218314 -23.157754 -45.441731 9
1.298225 -23.313645 -45.367803 9
-1.614601 -23.445591 -45.295255 9
-4.519975 -23.520241 -45.220283 9
-7.423526 -23.644743 -45.154913 9
-10.323748 -23.793522 -45.096268 9
-13.219327 -23.880863 -45.034626 9
-16.112920 -24.013473 -44.982049 9
-19.004246 -24.106051 -44.928841 9
-21.893944 -24.223882 -44.882404 9
-24.784230 -24.270400 -44.831714 9
-27.673543 -24.363944 -44.790256 9
-30.563689 -24.444822 -44.751207 9
-33.456502 -24.495238 -44.712515 9
-36.348761 -24.587640 -44.682481 9
-39.244923 -24.651621 -44.653023 9
-42.150549 -24.636257 -44.618272 9
-45.087682 -24.333898 -44.554294 9
-48.123130 -23.177967 -44.395735 9
-51.323646 -20.799006 -44.099828 9
-54.762868 -16.889954 -43.630988 9
-58.412832 -12.009126 -43.053540 9
-62.656260 -3.653743 -42.078626 9
57.093503 -14.213295 -43.114853 9
52.599611 -20.123113 -43.641824 9
48.763122 -23.625455 -43.897406 9
45.381084 -25.340938 -43.950699 9
42.261240 -25.964132 -43.880920 9
39.245346 -26.157888 -43.764968 9
36.241978 -26.359248 -43.654172 9
33.254926 -26.543568 -43.545547 9
30.287695 -26.681935 -43.435559 9
27.321149 -26.889878 -43.337990 9
24.379931 -27.000974 -43.232808 9
21.442320 -27.156814 -43.136989 9
18.514906 -27.308677 -43.044630 9
15.595081 -27.474282 -42.957847 9
12.685770 -27.623076 -42.872886 9
9.788465 -27.727271 -42.786296 9
6.892173 -27.900270 -42.711917 9
4.009182 -27.990191 -42.631099 9
1.131158 -28.084862 -42.554567 9
-1.741751 -28.174160 -42.481051 9
-4.611748 -28.294434 -42.415024 9
-7.475741 -28.362753 -42.346193 9
-10.338817 -28.512794 -42.291127 9
-13.196975 -28.584530 -42.229923 9
-16.053222 -28.641610 -42.170454 9
-18.908159 -28.740076 -42.119705 9
-21.762028 -28.819366 -42.070103 9
-24.615329 -28.901714 -42.024412 9
-27.469643 -28.953463 -41.978397 9
-30.325829 -28.986577 -41.933538 9
-33.182603 -29.044184 -41.895251 9
-36.041696 -29.095894 -41.859711 9
-38.903258 -29.148928 -41.827824 9
-41.768958 -29.188860 -41.797766 9
-44.662857 -28.965530 -41.737903 9
-47.660875 -27.816923 -41.564395 9
-50.716475 -26.404154 -41.360732 9
-54.025891 -23.184353 -40.931440 9
-57.719534 -17.573698 -40.202256 9
-61.388291 -12.968795 -39.603636 9
-66.359024 -0.403607 -37.998723 8
-69.552431 -0.467100 -37.998944 8
-72.762717 -0.481397 -37.996811 8
-75.992988 -0.440765 -37.991613 8
-79.226976 -0.442320 -37.995691 8
-82.488533 -0.364106 -37.993596 8
-85.761140 -0.298900 -37.997124 8
-89.072390 -0.122946 -37.990616 8
-92.400275 0.051050 -37.988400 8
-95.748502 0.235846 -37.988896 8
-99.133006 0.490758 -37.984639 8
-102.541176 0.756583 -37.983177 8
71.391679 2.297974 -37.928265 5
67.525088 0.371804 -37.995965 5
60.655386 -13.806409 -39.626939 9
55.505755 -22.067812 -40.521960 9
51.678484 -25.351814 -40.791901 9
48.043000 -28.120923 -41.002825 9
44.696222 -29.832831 -41.083858 9
41.674585 -30.140668 -40.988485 9
38.707190 -30.250136 -40.871369 9
35.751324 -30.363117 -40.758514 9
32.800372 -30.515871 -40.654621 9
29.878266 -30.562140 -40.540510 9
26.956993 -30.664325 -40.437378 9
24.048257 -30.746545 -40.335240 9
21.143966 -30.862291 -40.241115 9
18.252987 -30.941492 -40.145704 9
15.368406 -31.032178 -40.055326 9
12.491598 -31.118726 -39.967877 9
9.623440 -31.184406 -39.881085 9
6.761012 -31.251214 -39.797850 9
3.903407 -31.325025 -39.718935 9
1.049683 -31.416021 -39.645693 9
-1.800100 -31.522762 -39.577920 9
-4.641229 -31.533499 -39.500504 9
-7.481599 -31.587873 -39.432256 9
-10.320823 -31.701753 -39.375346 9
-13.156064 -31.757108 -39.313759 9
-15.989688 -31.795637 -39.253114 9
-18.822250 -31.895084 -39.203985 9
-21.654853 -31.900021 -39.145177 9
-24.487653 -31.934407 -39.093570 9
-27.319770 -32.013530 -39.051266 9
-30.153373 -32.070334 -39.009087 9
-32.989554 -32.105899 -38.967165 9
-35.830174 -32.108585 -38.923884 9
-38.671343 -32.151509 -38.889283 9
-41.516100 -32.190045 -38.857234 9
-44.384948 -32.009757 -38.798193 9
-47.392095 -30.562351 -38.567567 9
-50.418573 -29.244448 -38.357684 9
-53.669664 -26.345795 -37.932536 9
-56.939802 -23.784971 -37.556814 9
-60.944913 -16.437835 -36.522620 9
-64.672381 -11.933764 -35.883939 8
-67.710652 -12.310011 -35.923071 8
-70.807895 -12.353291 -35.919596 8
-73.920723 -12.361106 -35.914648 8
-77.041639 -12.381386 -35.914872 8
-80.177414 -12.381630 -35.915788 8
-83.331645 -12.350570 -35.915859 8
-86.494209 -12.341102 -35.922422 8
-89.666070 -12.348985 -35.934914 8
-92.865844 -12.297630 -35.942770 8
-96.075959 -12.266670 -35.957030 8
-99.307235 -12.214989 -35.972042 8
-102.547572 -12.191894 -35.994647 8
-105.959576 -11.621493 -35.945454 8
107.987885 -3.246709 -36.963190 5
102.918683 -7.296941 -37.283643 5
99.212960 -7.932674 -37.161867 5
95.582092 -8.461452 -37.031364 5
91.968244 -9.038201 -36.912543 5
88.433079 -9.480171 -36.780841 5
84.914730 -9.962546 -36.659554 5
81.441062 -10.397588 -36.536772 5
77.987580 -10.858576 -36.422296 5
74.598526 -11.193902 -36.295373 5
71.218068 -11.585132 -36.180618 5
67.866026 -11.962721 -36.068469 5
64.701031 -11.713964 -35.874173 5
59.956661 -17.808269 -36.563140 9
54.942458 -25.602790 -37.498496 9
51.030620 -29.355948 -37.880721 9
47.687597 -30.927201 -37.964378 9
44.358424 -32.639721 -38.072829 9
41.363484 -32.908973 -37.982789 9
38.414062 -33.022543 -37.874372 9
35.484068 -33.096154 -37.763746 9
32.566239 -33.162095 -37.655412 9
29.641571 -33.334038 -37.565531 9
26.746278 -33.388245 -37.462197 9
23.851203 -33.503518 -37.370871 9
20.967110 -33.607072 -37.281125 9
18.097594 -33.661809 -37.187570 9
15.230372 -33.760583 -37.103530 9
12.373233 -33.834024 -37.018982 9
9.523900 -33.893129 -36.935467 9
6.678595 -33.972613 -36.857990 9
3.839995 -34.036403 -36.781292 9
1.005147 -34.116263 -36.709970 9
-1.826628 -34.224234 -36.645777 9
-4.649325 -34.227905 -36.569319 9
-7.473460 -34.336621 -36.511211 9
-10.293646 -34.430390 -36.453880 9
-13.109648 -34.425419 -36.384964 9
-15.925714 -34.525440 -36.334413 9
-18.739984 -34.601918 -36.283308 9
-21.554470 -34.599713 -36.223468 9
-24.367723 -34.690242 -36.180211 9
-27.181892 -34.747233 -36.134865 9
-29.998283 -34.774484 -36.087965 9
-33.100867 -29.513227 -35.258291 9
-35.971044 -29.572380 -35.220993 9
-38.462617 -34.839986 -35.961886 9
-41.287167 -34.903436 -35.931723 9
-44.139211 -34.705914 -35.865484 9
-47.041698 -34.102957 -35.741518 9
-50.071655 -32.518749 -35.473709 9
-53.254173 -29.988780 -35.067095 9
-56.544967 -27.065388 -34.604067 9
-59.921726 -23.993250 -34.121217 9
-63.441117 -20.432664 -33.567765 9
-66.787223 -18.435381 -33.250931 8
-69.848105 -18.387849 -33.228939 8
-72.899964 -18.449833 -33.226389 8
-75.972132 -18.454021 -33.218232 8
-79.061532 -18.427287 -33.208508 8
-82.158377 -18.423227 -33.205262 8
-85.264519 -18.433184 -33.207216 8
-88.379988 -18.457912 -33.214503 8
-91.523593 -18.420435 -33.215606 8
-94.662319 -18.461810 -33.231686 8
-97.847695 -18.378999 -33.232350 8
-101.022378 -18.398733 -33.251585 8
-104.246073 -18.301397 -33.256538 8
-107.860496 -16.938409 -33.075467 8
-113.973778 -7.513863 -31.692831 8
108.108675 -13.025630 -34.669033 5
103.773249 -15.245970 -34.788459 5
100.215253 -15.607222 -34.647570 5
96.706007 -15.921328 -34.504570 5
93.239248 -16.198944 -34.360829 5
89.790687 -16.504273 -34.225546 5
86.375619 -16.791794 -34.092032 5
83.002030 -17.032547 -33.955925 5
79.641787 -17.308761 -33.829185 5
76.314509 -17.556867 -33.702398 5
73.006177 -17.819020 -33.581703 5
69.749382 -17.978735 -33.449713 5
66.489761 -18.221279 -33.333880 5
62.444631 -21.542854 -33.683208 9
58.246679 -25.803045 -34.180265 9
54.269350 -29.569120 -34.610173 9
50.509788 -32.782822 -34.963265 9
47.071649 -34.894009 -35.155214 9
43.941858 -35.801436 -35.169065 9
40.954876 -36.144193 -35.100665 9
38.017136 -36.320058 -35.010080 9
35.099476 -36.459278 -34.917032 9
32.197356 -36.578606 -34.824012 9
29.302966 -36.719345 -34.737323 9
26.423442 -36.834734 -34.649730 9
23.553446 -36.953337 -34.565592 9
20.696067 -37.048160 -34.480693 9
17.845855 -37.153868 -34.400365 9
15.008709 -37.215676 -34.316055 9
12.168471 -37.374413 -34.249676 9
9.342049 -37.471595 -34.176503 9
6.522697 -37.560929 -34.104870 9
3.707909 -37.666685 -34.038556 9
0.902454 -37.712433 -33.965533 9
-1.902208 -37.816462 -33.904364 9
-4.700947 -37.888004 -33.840752 9
-7.497146 -37.984434 -33.783723 9
-10.288933 -38.037048 -33.722402 9
-13.079462 -38.142359 -33.672040 9
-15.867279 -38.208764 -33.618116 9
-18.653760 -38.285922 -33.568486 9
-21.440253 -38.295188 -33.510624 9
-24.225663 -38.382161 -33.467683 9
-27.011758 -38.443603 -33.423226 9
-29.798681 -38.504518 -33.381224 9
-32.585973 -38.583068 -33.344572 9
-35.376712 -38.630449 -33.305461 9
-38.170393 -38.672877 -33.268070 9
-40.968635 -38.698684 -33.230522 9
-43.785681 -38.564855 -33.169851 9
-46.657297 -37.973042 -33.038071 9
-49.623758 -36.689190 -32.797394 9
-52.734709 -34.478420 -32.409823 9
-55.926800 -32.033242 -31.986586 9
-59.221071 -29.259205 -31.512466 9
-62.550115 -26.669863 -31.070206 9
-66.011124 -23.634842 -30.558297 8
-69.016264 -23.661573 -30.542436 8
-72.034896 -23.664961 -30.525474 8
-75.054445 -23.717344 -30.519092 8
-78.103808 -23.671094 -30.499475 8
-81.149169 -23.702794 -30.495137 8
-84.212866 -23.703920 -30.488574 8
-87.286172 -23.718751 -30.486951 8
-90.376080 -23.719317 -30.485767 8
-93.475446 -23.738168 -30.490297 8
-96.587603 -23.762971 -30.498568 8
-99.733716 -23.718057 -30.498383 8
-102.888467 -23.702692 -30.505795 8
-106.113488 -23.506680 -30.486903 8
-109.819114 -21.805113 -30.228002 8
-115.486931 -14.055765 -28.996845 8
-120.195887 -9.811982 -28.334855 7
-123.595431 -9.785956 -28.356195 7
-127.034661 -9.708940 -28.372460 7
-130.477588 -9.688244 -28.400970 7
-133.973601 -9.587511 -28.419819 7
-137.486240 -9.511773 -28.445953 7
-141.037990 -9.403797 -28.470219 7
-144.612962 -9.307990 -28.499798 7
-148.189074 -9.278981 -28.543491 7
141.896950 3.920036 -29.734071 6
136.529296 0.764476 -29.983419 6
132.057241 -0.673781 -29.981464 6
127.779339 -1.823881 -29.942181 6
123.654061 -2.754887 -29.875416 6
119.643627 -3.534933 -29.791074 6
111.065176 -15.474456 -31.432399 5
105.690033 -20.184586 -31.973532 5
102.094120 -20.678852 -31.869261 5
98.633995 -20.908208 -31.728111 5
95.199772 -21.144121 -31.592026 5
91.812945 -21.324696 -31.451217 5
88.452149 -21.503775 -31.314006 5
85.109453 -21.702297 -31.183628 5
81.797824 -21.879886 -31.053641 5
78.511594 -22.049863 -30.926065 5
75.242485 -22.236059 -30.804631 5
72.002372 -22.397247 -30.682698 5
68.775017 -22.585277 -30.568499 5
65.574625 -22.748567 -30.453705 5
61.026485 -28.111352 -31.182206 9
57.133952 -31.375105 -31.578559 9
53.335560 -34.584606 -31.971951 9
49.746303 -37.232493 -32.279546 9
46.450200 -38.858162 -32.425305 9
43.393529 -39.564124 -32.424647 9
40.469707 -39.736911 -32.339816 9
37.575446 -39.828200 -32.244420 9
34.691445 -39.927551 -32.153090 9
31.809881 -40.078648 -32.073016 9
28.958328 -40.116929 -31.976975 9
26.106343 -40.217241 -31.893822 9
23.261505 -40.335287 -31.816228 9
20.431181 -40.415063 -31.734850 9
17.606796 -40.513145 -31.659065 9
14.794052 -40.578790 -31.580377 9
11.986182 -40.663616 -31.507379 9
9.186312 -40.734323 -31.434473 9
6.387171 -40.867500 -31.374500 9
3.598660 -40.945574 -31.307693 9
0.813546 -41.049298 -31.247602 9
-1.962716 -41.081292 -31.177780 9
-4.739577 -41.198074 -31.124631 9
-7.510801 -41.274454 -31.066990 9
-10.279490 -41.368978 -31.014744 9
-13.044374 -41.396617 -30.953444 9
-15.808304 -41.440871 -30.897235 9
-18.571124 -41.536162 -30.851979 9
-21.333355 -41.578781 -30.800008 9
-24.095437 -41.634137 -30.752448 9
-26.857958 -41.688597 -30.706965 9
-29.621312 -41.745086 -30.664050 9
-32.390664 -41.715323 -30.608574 9
-35.156510 -41.797217 -30.574422 9
-37.928256 -41.824137 -30.533043 9
-40.699587 -41.897830 -30.501887 9
-43.493419 -41.761623 -30.436837 9
-46.326055 -41.321692 -30.321656 9
-49.259781 -40.107987 -30.075278 9
-52.990908 -32.613284 -28.748320 9
-55.446997 -35.944973 -29.288866 9
-58.617962 -33.827854 -28.892120 9
-61.904049 -31.281017 -28.422975 9
-65.571443 -26.743888 -27.611765 8
-68.555890 -26.760747 -27.589169 8
-71.549695 -26.777894 -27.568935 8
-74.543667 -26.846217 -27.559876 8
-77.554424 -26.878732 -27.546955 8
-80.579886 -26.893183 -27.533246 8
-83.615395 -26.915742 -27.523289 8
-86.669729 -26.910253 -27.510834 8
-89.736750 -26.908138 -27.501335 8
-92.811020 -26.933009 -27.498897 8
-95.907039 -26.929135 -27.493881 8
-99.006247 -26.969955 -27.499028 8
-102.137628 -26.951008 -27.496255 8
-105.330029 -26.783189 -27.470145 8
-108.760712 -25.904030 -27.323289 8
-113.328491 -21.544624 -26.576173 8
-118.501348 -15.677396 -25.570778 7
-121.844079 -15.664450 -25.582038 7
-125.202399 -15.668263 -25.598870 7
-128.603667 -15.613439 -25.608256 7
-132.005326 -15.622346 -25.631401 7
-135.455141 -15.566456 -25.646107 7
-138.930992 -15.509848 -25.663495 7
-142.428812 -15.464892 -25.685738 7
-145.956602 -15.413593 -25.709767 7
-149.508049 -15.373488 -25.738648 7
147.341658 -9.607071 -28.425219 6
143.286834 -10.030311 -28.279905 6
139.283207 -10.442625 -28.137774 6
135.347541 -10.805903 -27.992486 6
131.469133 -11.136429 -27.846497 6
127.612914 -11.505161 -27.711283 6
123.830863 -11.796774 -27.567822 6
120.076986 -12.107623 -27.431803 6
112.709009 -20.979950 -28.719908 5
106.803463 -26.880438 -29.527341 5
103.190106 -27.497154 -29.462652 5
101.422473 -23.510045 -28.630769 5
96.440061 -27.781071 -29.185921 5
93.101283 -27.931920 -29.054248 5
89.777200 -28.112565 -28.930996 5
86.488211 -28.264870 -28.806284 5
83.221094 -28.422823 -28.685788 5
79.966802 -28.612195 -28.573853 5
76.740454 -28.785912 -28.462413 5
73.557239 -28.890150 -28.342154 5
70.381489 -29.035729 -28.231987 5
67.258665 -29.065011 -28.104734 5
64.016344 -29.590768 -28.066128 9
60.109871 -32.733145 -28.484205 9
56.315370 -35.748215 -28.885491 9
52.674924 -38.442285 -29.235975 9
49.189113 -40.766000 -29.526538 9
45.976535 -42.131739 -29.653844 9
42.983739 -42.649293 -29.635943 9
40.072215 -42.871750 -29.568985 9
37.206072 -42.935929 -29.476687 9
34.352326 -42.993295 -29.385563 9
31.503625 -43.082032 -29.302323 9
28.665125 -43.172731 -29.221761 9
25.841038 -43.234478 -29.138364 9
23.022113 -43.322330 -29.061861 9
20.214776 -43.389581 -28.983933 9
17.417024 -43.443203 -28.905779 9
14.621726 -43.538180 -28.837187 9
11.837414 -43.598393 -28.764546 9
9.058987 -43.662036 -28.694649 9
6.287874 -43.706978 -28.623504 9
3.519253 -43.784426 -28.560284 9
0.757631 -43.830616 -28.493513 9
-2.001497 -43.902752 -28.433463 9
-4.755451 -43.945975 -28.370230 9
-7.507793 -44.024722 -28.315429 9
-10.256477 -44.077925 -28.258011 9
-13.002727 -44.104270 -28.197706 9
-15.748118 -44.161196 -28.144908 9
-18.492559 -44.181916 -28.087487 9
-21.236390 -44.250773 -28.040757 9
-23.980394 -44.297426 -27.991921 9
-26.725172 -44.337957 -27.943888 9
-29.472551 -44.345934 -27.891821 9
-32.219376 -44.407541 -27.851444 9
-35.228988 -40.341461 -27.057886 9
-37.714789 -44.585819 -27.786467 9
-40.472927 -44.586247 -27.740570 9
-43.232127 -44.623425 -27.703277 9
-46.047302 -44.156108 -27.575243 9
-48.949763 -43.043129 -27.330315 9
-51.945782 -41.394298 -26.988422 9
-55.038163 -39.313453 -26.568481 9
-58.194980 -37.120445 -26.129251 9
-61.401562 -34.938421 -25.693422 9
-65.189387 -29.490803 -24.657053 8
-68.159748 -29.479670 -24.624178 8
-71.132641 -29.509235 -24.600776 8
-74.121046 -29.508623 -24.573777 8
-77.111988 -29.549409 -24.556401 8
-80.122973 -29.546114 -24.532868 8
-83.146136 -29.542835 -24.511327 8
-86.161583 -29.627621 -24.508069 8
-89.226472 -29.556945 -24.478071 8
-92.280464 -29.590206 -24.469315 8
-95.364019 -29.564401 -24.451661 8
-98.454058 -29.572751 -24.442369 8
-101.562495 -29.572064 -24.433461 8
-104.662002 -29.658107 -24.442684 8
-108.001138 -29.012230 -24.318459 8
-112.037575 -26.266008 -23.807369 8
-117.127275 -20.541864 -22.746918 8
-120.637648 -19.909482 -22.631610 7
-123.957608 -19.921753 -22.637916 7
-127.312179 -19.897750 -22.639761 7
-130.666029 -19.938108 -22.655800 7
-134.056370 -19.942098 -22.667410 7
-137.474434 -19.937275 -22.679720 7
-140.921015 -19.924601 -22.692936 7
-144.386066 -19.931049 -22.712078 7
-147.911424 -19.859404 -22.719202 7
-151.428921 -19.873265 -22.744590 7
148.626322 -15.617328 -25.622242 6
144.688941 -15.846382 -25.466742 6
140.785824 -16.090577 -25.318048 6
136.933872 -16.314535 -25.169904 6
133.108943 -16.563863 -25.030181 6
129.359595 -16.735582 -24.880707 6
125.615198 -16.973924 -24.746728 6
121.923147 -17.176489 -24.610135 6
117.231895 -19.731217 -24.895067 5
110.236633 -27.874205 -26.181954 5
107.830426 -25.510377 -25.602634 5
102.350210 -30.664328 -26.371545 5
99.005343 -30.755557 -26.238607 5
95.660306 -30.914528 -26.120880 5
92.363889 -31.013733 -25.995357 5
89.094067 -31.106376 -25.871534 5
85.818847 -31.280917 -25.765419 5
82.614549 -31.317751 -25.637069 5
79.388588 -31.482899 -25.534819 5
76.204198 -31.587842 -25.424283 5
73.046534 -31.672186 -25.312599 5
69.910797 -31.747431 -25.201809 5
66.767974 -31.911562 -25.109916 5
63.154627 -33.855426 -25.349317 9
59.379106 -36.622484 -25.745029 9
55.746177 -39.112253 -26.093780 9
52.163921 -41.661688 -26.457788 9
48.751014 -43.767132 -26.743211 9
45.629809 -44.816347 -26.835200 9
42.652539 -45.346122 -26.832911 9
39.772721 -45.503719 -26.763329 9
36.929233 -45.543731 -26.673813 9
34.087009 -45.635047 -26.595969 9
31.264144 -45.678784 -26.511194 9
28.442488 -45.774050 -26.438115 9
25.636940 -45.829991 -26.359580 9
22.837840 -45.902082 -26.286032 9
20.046691 -45.978615 -26.215238 9
17.270325 -46.000876 -26.136029 9
14.495407 -46.067662 -26.067127 9
11.724032 -46.166447 -26.006163 9
8.971483 -46.138496 -25.922858 9
6.216123 -46.191358 -25.856742 9
3.464668 -46.259531 -25.795331 9
0.720641 -46.287211 -25.727926 9
-2.022301 -46.359991 -25.670899 9
-4.760002 -46.403007 -25.609889 9
-7.494110 -46.424226 -25.546388 9
-10.228110 -46.517793 -25.498497 9
-12.958237 -46.542646 -25.439056 9
-15.687363 -46.566264 -25.381029 9
-18.415851 -46.626799 -25.331775 9
-21.144051 -46.657885 -25.278470 9
-23.872888 -46.677623 -25.224588 9
-26.603003 -46.691482 -25.171173 9
-29.330782 -46.797815 -25.137298 9
-32.061371 -46.858486 -25.096176 9
-34.797035 -46.866761 -25.046463 9
-37.536245 -46.871559 -24.997644 9
-40.274949 -46.929118 -24.960665 9
-43.027575 -46.872408 -24.902984 9
-45.815316 -46.532721 -24.791626 9
-48.672307 -45.685809 -24.582668 9
-51.636718 -44.147469 -24.239886 9
-54.694992 -42.180367 -23.814358 9
-57.815206 -40.103489 -23.368355 9
-60.991040 -37.984510 -22.915116 9
-64.899574 -31.663754 -21.639524 8
-67.855401 -31.660073 -21.602646 8
-70.814375 -31.692786 -21.574534 8
-73.783483 -31.722912 -21.547549 8
-76.774468 -31.695830 -21.510964 8
-79.765735 -31.724000 -21.486865 8
-82.769884 -31.746111 -21.463219 8
-85.785422 -31.772005 -21.441964 8
-88.826119 -31.747277 -21.412400 8
-91.876305 -31.742306 -21.388378 8
-94.936208 -31.756374 -21.369768 8
-98.014485 -31.758240 -21.350428 8
-101.119755 -31.721436 -21.325148 8
-104.223551 -31.748556 -21.314157 8
-107.439513 -31.464836 -21.243580 8
-111.243522 -29.405069 -20.824423 8
-116.144971 -24.194692 -19.785359 8
-119.933371 -22.657953 -19.472483 7
-123.236338 -22.663536 -19.465651 7
-126.552584 -22.692318 -19.465223 7
-129.898495 -22.700393 -19.462554 7
-133.267607 -22.708625 -19.461778 7
-136.655581 -22.730184 -19.465513 7
-140.083922 -22.713122 -19.463528 7
-143.521765 -22.736774 -19.471502 7
-146.981124 -22.772015 -19.483709 7
-150.490346 -22.755677 -19.487709 7
146.986619 -19.815420 -22.399147 6
143.111288 -19.995511 -22.258811 6
139.292972 -20.143612 -22.116001 6
135.515285 -20.287658 -21.975822 6
131.741384 -20.500379 -21.851865 6
128.033099 -20.654612 -21.720179 6
124.365279 -20.797579 -21.589526 6
120.694611 -21.021664 -21.477340 6
115.628681 -24.488292 -21.984805 5
109.073263 -31.675262 -23.207692 5
105.071191 -33.212368 -23.360417 5
101.696288 -33.356095 -23.250232 5
98.359358 -33.474154 -23.137775 5
95.070021 -33.536929 -23.017256 5
91.795778 -33.624239 -22.903948 5
88.563830 -33.660908 -22.783294 5
85.330861 -33.763191 -22.677713 5
82.141176 -33.804867 -22.562724 5
78.972148 -33.846250 -22.449947 5
75.795357 -33.974079 -22.356255 5
72.663892 -34.022624 -22.249319 5
69.539616 -34.109097 -22.151958 5
66.434566 -34.193254 -22.056281 5
62.570632 -37.087598 -22.515211 9
58.876108 -39.630307 -22.909020 9
55.254024 -42.153601 -23.302794 9
51.753007 -44.452532 -23.655908 9
48.421501 -46.287082 -23.920510 9
45.324227 -47.301241 -24.025413 9
42.389770 -47.706874 -24.011826 9
39.561295 -47.687789 -23.915687 9
36.732948 -47.719748 -23.831411 9
33.898874 -47.839952 -23.766451 9
31.089905 -47.883113 -23.687802 9
28.286737 -47.949490 -23.615454 9
25.500398 -47.968302 -23.535201 9
22.712377 -48.054635 -23.470104 9
19.946208 -48.043631 -23.387026 9
17.175158 -48.123445 -23.323777 9
14.413647 -48.186611 -23.258728 9
11.661203 -48.227870 -23.190783 9
8.917220 -48.241254 -23.118696 9
6.172271 -48.322819 -23.061890 9
3.436480 -48.356683 -22.996891 9
0.704025 -48.403394 -22.935945 9
-2.024947 -48.458021 -22.878043 9
-4.748713 -48.476164 -22.814135 9
-7.471589 -48.536127 -22.760141 9
-10.191534 -48.586133 -22.705511 9
-12.909357 -48.627560 -22.650505 9
-15.625697 -48.641186 -22.591175 9
-18.341632 -48.682942 -22.538940 9
-21.056811 -48.753927 -22.494035 9
-23.772748 -48.775073 -22.440242 9
-26.489501 -48.803031 -22.389156 9
-29.206461 -48.858576 -22.345043 9
-31.924660 -48.916359 -22.302694 9
-34.648377 -48.915393 -22.249539 9
-37.372950 -48.950218 -22.205028 9
-40.100660 -48.986555 -22.162100 9
-42.840498 -48.932391 -22.101746 9
-45.610253 -48.645489 -21.994515 9
-48.460207 -47.745169 -21.761536 9
-51.385185 -46.427474 -21.443092 9
-54.427122 -44.474425 -20.993829 9
-57.524937 -42.452987 -20.531019 9
-60.664207 -40.475826 -20.078032 9
-63.858052 -38.458438 -19.617366 9
-67.622144 -33.424258 -18.530556 8
-70.576774 -33.430250 -18.491570 8
-73.543329 -33.427205 -18.451995 8
-76.510534 -33.474945 -18.424279 8
-79.492723 -33.501780 -18.393510 8
-82.494485 -33.492775 -18.356566 8
-85.495738 -33.541200 -18.332889 8
-88.504684 -33.608746 -18.314505 8
-91.552205 -33.574278 -18.276136 8
-94.599928 -33.597062 -18.251018 8
-97.675993 -33.570861 -18.216972 8
-100.747213 -33.619445 -18.199864 8
-103.841761 -33.642186 -18.178674 8
-107.040490 -33.381038 -18.099411 8
-110.750207 -31.588404 -17.700887 8
-115.348464 -27.269906 -16.774564 8
-119.395519 -24.907696 -16.258729 7
-122.688381 -24.902148 -16.237723 7
-126.003908 -24.894462 -16.217671 7
-129.344043 -24.881836 -16.197997 7
-132.698744 -24.893047 -16.184744 7
-136.086601 -24.881234 -16.168101 7
-139.478836 -24.921262 -16.163783 7
-142.919603 -24.905447 -16.149217 7
-146.393735 -24.875732 -16.133214 7
-149.877940 -24.888186 -16.127555 7
145.698415 -23.336092 -19.129249 6
141.889302 -23.444281 -18.997616 6
138.099309 -23.590697 -18.876475 6
134.367939 -23.696978 -18.750112 6
130.667725 -23.813772 -18.628572 6
126.995922 -23.945203 -18.512638 6
125.025504 -20.500084 -17.677651 6
119.839623 -24.022013 -18.250909 6
116.887177 -22.750665 -17.858224 5
108.364648 -34.398880 -20.090943 5
106.135879 -31.749767 -19.425776 5
101.226027 -35.583501 -20.082843 5
97.910257 -35.682026 -19.981773 5
94.651317 -35.700445 -19.866418 5
91.394949 -35.774150 -19.764420 5
88.163758 -35.843727 -19.663584 5
84.980422 -35.842124 -19.550053 5
81.793030 -35.912142 -19.453175 5
78.634936 -35.957663 -19.353120 5
75.489015 -36.027333 -19.259898 5
72.368954 -36.077007 -19.164339 5
69.269318 -36.120287 -19.069214 5
66.202918 -36.109504 -18.964557 5
62.139039 -39.750941 -19.623248 9
58.512583 -42.097676 -20.015600 9
54.916886 -44.572181 -20.437847 9
51.481753 -46.659226 -20.782073 9
48.190512 -48.374383 -21.051100 9
45.141666 -49.225845 -21.141127 9
42.221617 -49.614124 -21.135604 9
39.393639 -49.645736 -21.056518 9
36.576155 -49.680325 -20.979452 9
33.763168 -49.747763 -20.910701 9
30.963735 -49.798645 -20.839810 9
28.179373 -49.817298 -20.763420 9
25.397699 -49.874056 -20.696414 9
22.628317 -49.906589 -20.625554 9
19.864634 -49.954545 -20.559240 9
17.111493 -49.978440 -20.489048 9
14.360804 -50.038072 -20.427703 9
11.619504 -50.072279 -20.362146 9
8.881844 -50.128370 -20.302462 9
6.150773 -50.173155 -20.241542 9
3.426493 -50.192614 -20.176353 9
0.706063 -50.212721 -20.112439 9
-2.012570 -50.261925 -20.055899 9
-4.728056 -50.318384 -20.002041 9
-7.439722 -50.355017 -19.945022 9
-10.146901 -50.303385 -19.870056 9
-12.855902 -50.367654 -19.821144 9
-15.562931 -50.400289 -19.766471 9
-18.269336 -50.421426 -19.710359 9
-20.975650 -50.452808 -19.657497 9
-23.682701 -50.467482 -19.602041 9
-26.389269 -50.531409 -19.558278 9
-29.099845 -50.518709 -19.498894 9
-31.809348 -50.576915 -19.455901 9
-34.522060 -50.612699 -19.409028 9
-37.238491 -50.635033 -19.360205 9
-39.956617 -50.679218 -19.317113 9
-42.679666 -50.708890 -19.271821 9
-45.438096 -50.436485 -19.161532 9
-48.262081 -49.678649 -18.946008 9
-51.186936 -48.270127 -18.588847 9
-54.215444 -46.341447 -18.118278 9
-57.290993 -44.403768 -17.646004 9
-60.400550 -42.548818 -17.192144 9
-63.556588 -40.688968 -16.737530 9
-67.442786 -34.873520 -15.414872 8
-70.383358 -34.923079 -15.379788 8
-73.339897 -34.938175 -15.338093 8
-76.309894 -34.939243 -15.294265 8
-79.287822 -34.957008 -15.255058 8
-82.268276 -35.016037 -15.225889 8
-85.286059 -34.964963 -15.173408 8
-88.297375 -34.999376 -15.140707 8
-91.328748 -35.007359 -15.103121 8
-94.369275 -35.035541 -15.070936 8
-97.438984 -35.011491 -15.028154 8
-100.505093 -35.057686 -15.001835 8
-103.609560 -35.027820 -14.959641 8
-106.779061 -34.845506 -14.884638 8
-110.388706 -33.352024 -14.520179 8
-114.872455 -29.362783 -13.603363 8
-119.081470 -26.493653 -12.934923 7
-122.348877 -26.541115 -12.913676 7
-125.671892 -26.492486 -12.872100 7
-128.982766 -26.539802 -12.852799 7
-132.342613 -26.518156 -12.819184 7
-135.721378 -26.511449 -12.789880 7
-139.111869 -26.538276 -12.769031 7
-142.537950 -26.541116 -12.743862 7
-145.990341 -26.545609 -12.720077 7
-149.452441 -26.591324 -12.706490 7
-227.091587 136.686932 23.659249 0
-232.150656 135.796202 23.494442 0
148.638612 -25.991679 -15.881328 6
144.824424 -26.070966 -15.762796 6
141.057302 -26.135570 -15.643464 6
137.326330 -26.203159 -15.527012 6
133.617163 -26.300019 -15.418994 6
129.968379 -26.347456 -15.302579 6
126.335571 -26.431940 -15.196161 6
122.763870 -26.457450 -15.079142 6
119.200011 -26.533862 -14.975011 6
113.327420 -31.877404 -16.006717 5
110.760216 -29.933338 -15.472731 5
104.256163 -37.295043 -16.949545 5
100.970251 -37.276598 -16.836373 5
97.635048 -37.442694 -16.764847 5
94.383738 -37.463165 -16.663429 5
91.133144 -37.543905 -16.576712 5
87.921685 -37.582842 -16.482482 5
84.745599 -37.584368 -16.381620 5
81.560182 -37.672951 -16.301259 5
78.419935 -37.690676 -16.206885 5
75.294923 -37.721182 -16.116731 5
72.176690 -37.790651 -16.036531 5
69.086455 -37.830033 -15.951106 5
66.012212 -37.875051 -15.868267 5
61.841515 -41.917968 -16.668535 9
