ply
format ascii 1.0
element vertex 1412
property float x
property float y
property float z
property int scalar_Label
end_header
-95.672836 33.896039 -13.944370 8
-91.786535 33.394957 -15.247275 8
-87.814730 32.832764 -16.602963 8
-81.140131 27.323933 -20.503102 8
-79.494664 31.336181 -19.575077 8
-75.091275 30.327881 -21.234092 8
-70.579622 29.261032 -22.952340 8
-65.784141 27.845554 -24.883948 8
-63.634288 30.964559 -24.445424 9
-63.881982 37.907174 -21.959064 9
-61.055209 39.754132 -22.180646 9
-58.220183 41.589228 -22.415369 9
-55.445086 43.517569 -22.606062 9
-52.538280 45.250913 -22.910959 9
-49.333052 46.562327 -23.459555 9
-45.517433 47.039759 -24.489924 9
-40.791442 46.324428 -26.218330 9
-27.644420 34.331414 -34.433206 9
-29.470826 42.772972 -31.003741 9
-22.941646 40.119999 -33.978670 9
-14.472022 35.211965 -38.338292 9
-146.854766 -20.436306 -15.270049 7
-143.323999 -20.013404 -15.999945 7
-139.783920 -19.573756 -16.732591 7
-136.246535 -19.075710 -17.450201 7
-146.750055 27.249530 1.647580 7
-143.559345 27.319833 0.854631 7
-140.308884 27.274882 -0.000012 7
-137.034454 27.233883 -0.865047 7
-133.734883 27.195774 -1.741220 7
-129.388418 24.351141 -3.885583 7
-127.038053 27.078081 -3.550755 7
-123.664008 27.066200 -4.454344 7
-120.174992 26.839767 -5.469507 7
-116.289547 25.734260 -6.904301 8
-114.993889 30.896556 -5.457452 8
-112.558196 33.222255 -5.314331 8
-109.846293 34.876503 -5.485871 8
-106.799353 35.786184 -6.013600 8
-103.313426 35.791328 -6.981701 8
-99.674114 35.554209 -8.081951 8
-95.983495 35.301401 -9.207773 8
-92.216422 34.987550 -10.381955 8
-88.408215 34.687566 -11.568908 8
-84.506011 34.304724 -12.816916 8
-80.504481 33.838271 -14.127888 8
-76.379189 33.253831 -15.520709 8
-72.179415 32.648367 -16.948309 8
-67.825243 31.891293 -18.478358 8
-65.532633 34.661784 -18.218949 9
-64.981779 40.203662 -16.519004 9
-62.121872 41.930701 -16.790273 9
-59.288638 43.704356 -17.044024 9
-56.399428 45.398072 -17.347258 9
-53.592769 47.222882 -17.588061 9
-50.553493 48.716564 -18.015142 9
-47.143131 49.706506 -18.727710 9
-43.006099 49.735796 -19.985099 9
-38.041208 48.731775 -21.842355 9
-33.033279 47.802005 -23.694762 9
-27.689648 46.567055 -25.757114 9
-21.899491 44.910088 -28.102160 9
-15.853677 43.099204 -30.583523 9
-9.036765 40.523280 -33.560917 9
-0.474681 36.077481 -37.697837 9
-145.789665 -22.243107 -11.647837 7
-142.214192 -21.935127 -12.419238 7
-138.627788 -21.607007 -13.192376 7
-148.519851 24.114244 4.936776 7
-146.120271 26.775202 5.247086 7
-142.960278 26.941779 4.508260 7
-139.763963 27.057965 3.737874 7
-136.542366 27.163533 2.952247 7
-133.252640 27.140811 2.100301 7
-129.993352 27.274497 1.304118 7
-125.631023 24.542665 -0.755348 7
-123.263137 27.184638 -0.480116 7
-119.887163 27.224357 -1.354380 7
-117.304377 29.260566 -1.350937 8
-114.820312 31.488064 -1.262178 8
-112.332188 33.656183 -1.199768 8
-109.657568 35.363618 -1.347286 8
-106.578953 36.176069 -1.908853 8
-103.128629 36.233760 -2.828851 8
-99.519352 36.035368 -3.882958 8
-95.924480 35.950817 -4.900582 8
-92.327602 35.942124 -5.898957 8
-88.610332 35.780500 -6.986816 8
-84.777805 35.489347 -8.155087 8
-80.940895 35.282108 -9.302410 8
-76.963398 34.914306 -10.547705 8
-72.977398 34.628711 -11.774007 8
-68.899913 34.282380 -13.051855 8
-65.590726 35.301890 -13.669561 9
-64.540203 40.000759 -12.445195 9
-62.765400 43.428185 -11.848683 9
-59.943631 45.171060 -12.107423 9
-57.093617 46.876650 -12.392029 9
-54.223182 48.560226 -12.695299 9
-51.352225 50.253235 -13.001285 9
-48.012384 51.295985 -13.659879 9
-44.208509 51.738628 -14.653674 9
-39.658826 51.241378 -16.175083 9
-34.922799 50.606199 -17.801904 9
-30.026641 49.879406 -19.511761 9
-24.897186 48.978034 -21.353147 9
-19.626214 48.030882 -23.257880 9
-13.997389 46.782636 -25.372206 9
-7.891669 45.115160 -27.769744 9
-1.586038 43.381773 -30.255537 9
-22.194023 72.485711 -14.864453 1
-22.732845 78.094673 -12.968637 1
-21.210303 81.312366 -12.457068 1
-18.780291 83.518565 -12.545277 1
-15.650563 84.993222 -13.082420 1
-11.819400 85.780618 -14.055606 1
-7.281122 85.919272 -15.455050 1
-8.511129 91.831233 -13.282512 3
-4.391374 92.436527 -14.419160 3
-2.221151 94.957134 -14.363077 3
-3.877136 101.015288 -12.026895 2
-1.626067 103.382166 -12.053680 2
-148.438927 -23.797042 -7.037720 7
-144.856802 -23.546847 -7.813895 7
-141.233045 -23.385017 -8.634915 7
-137.630785 -23.079262 -9.408610 7
-148.484509 25.635095 9.345101 7
-145.412679 26.042799 8.724397 7
-142.269799 26.271302 8.022274 7
-139.114518 26.517514 7.318108 7
-135.909546 26.673633 6.567092 7
-132.652358 26.743612 5.769845 7
-128.453777 24.312199 3.909833 7
-126.120799 27.035061 4.206075 7
-122.789020 27.105108 3.375291 7
-119.426510 27.166879 2.529000 7
-116.977114 29.506538 2.655570 8
-114.493631 31.707557 2.723300 8
-112.032030 33.910099 2.792341 8
-109.256980 35.369205 2.533378 8
-106.195216 36.203049 1.991695 8
-102.812019 36.389052 1.150774 8
-99.250459 36.272998 0.160078 8
-95.720871 36.301152 -0.780659 8
-92.144986 36.312618 -1.744210 8
-88.508450 36.283853 -2.742078 8
-84.763279 36.131312 -3.814089 8
-80.950776 35.941376 -4.921514 8
-77.179338 35.911140 -5.972005 8
-73.259642 35.705268 -7.124301 8
-69.248744 35.434958 -8.327491 8
-65.623606 35.893442 -9.198309 9
-63.737939 39.213570 -8.686025 9
-63.111361 44.448045 -7.223292 9
-60.272544 46.127284 -7.504902 9
-57.417622 47.789906 -7.801423 9
-54.554667 49.450190 -8.106117 9
-51.725720 51.170137 -8.387679 9
-48.506425 52.349653 -8.954257 9
-44.863262 52.978738 -9.818680 9
-40.557586 52.772746 -11.138043 9
-36.087114 52.444210 -12.548413 9
-31.421405 51.964883 -14.067506 9
-26.648508 51.459137 -15.631601 9
-21.681073 50.824214 -17.297946 9
-16.535573 50.092021 -19.052149 9
-11.181619 49.236631 -20.911290 9
-23.831157 69.444212 -11.042810 1
-24.629181 75.420391 -9.013169 1
-24.227403 79.904211 -7.797071 1
-22.157493 82.472807 -7.662273 1
-19.408745 84.300790 -7.958970 1
-16.025292 85.480447 -8.646390 1
-11.860477 85.902457 -9.801767 1
-13.114966 91.850415 -7.672113 3
-8.486338 91.856193 -9.102689 3
-7.080778 95.066403 -8.605600 3
-10.608615 102.904316 -5.235745 2
-7.053407 103.962138 -6.042151 2
-2.251058 103.942072 -7.554606 2
-2.481823 108.489916 -6.180113 2
-147.706541 -24.351412 -2.926888 7
-144.066963 -24.316524 -3.774757 7
-140.426174 -24.207707 -4.604400 7
-136.782145 -24.037119 -5.420223 7
-147.753035 24.811402 12.769521 7
-144.663787 25.174016 12.138562 7
-141.493428 25.330399 11.417994 7
-138.311194 25.510925 10.697762 7
-135.138390 25.777404 10.002632 7
-131.912427 25.948567 9.259780 7
-128.679489 26.161135 8.523805 7
-125.432938 26.396255 7.787061 7
-122.163132 26.629653 7.039442 7
-118.918207 26.983246 6.331358 8
-116.486376 29.348767 6.456149 8
-114.005426 31.539536 6.509151 8
-111.552600 33.746655 6.569950 8
-108.803092 35.249656 6.330108 8
-105.659123 35.894449 5.716357 8
-102.250163 36.021668 4.868267 8
-98.849410 36.232550 4.043762 8
-95.310299 36.230671 3.112488 8
-91.760211 36.282147 2.190239 8
-88.154286 36.300442 1.238357 8
-84.500218 36.304735 0.264721 8
-80.819137 36.336787 -0.712270 8
-77.051474 36.292129 -1.740722 8
-73.255040 36.278373 -2.772206 8
-69.327840 36.124410 -3.886676 8
-65.645201 36.459838 -4.790337 9
-63.962217 40.075009 -4.155716 9
-63.178058 45.021748 -2.875477 9
-60.336038 46.668962 -3.164989 9
-57.447020 48.254246 -3.490918 9
-54.646511 49.982082 -3.754079 9
-51.812886 51.669749 -4.043273 9
-48.682283 52.950053 -4.542397 9
-45.109577 53.650804 -5.343740 9
-40.961163 53.630838 -6.527164 9
-36.615355 53.437002 -7.823074 9
-32.161859 53.199141 -9.167598 9
-27.612872 52.938766 -10.551030 9
-22.905514 52.582951 -12.013027 9
-18.067124 52.174322 -13.533344 9
-12.932167 51.523530 -15.215432 9
-26.221052 72.399047 -5.272756 1
-26.079885 77.229556 -3.914998 1
-18.492875 73.653188 -7.177272 1
-22.848431 83.351140 -3.102136 1
-19.877370 84.910381 -3.534531 1
-16.193994 85.750605 -4.388665 1
-15.012080 89.215398 -3.754295 3
-13.042628 91.840561 -3.598477 3
-9.903652 93.300761 -4.127790 3
-11.466517 99.331460 -1.957980 2
-11.022992 103.315830 -0.973546 2
-7.034490 103.951257 -2.004985 2
-3.977929 105.501095 -2.502786 2
9.733866 97.622311 -8.872976 2
1.279954 109.445618 -3.016806 2
-147.077574 -24.515470 1.310268 7
-143.440058 -24.487958 0.474019 7
-139.017566 -27.180578 -1.385675 7
-136.082574 -24.486584 -1.248218 7
-146.821510 23.323391 15.936887 7
-143.737749 23.737872 15.331941 7
-140.586343 23.985388 14.655771 7
-137.440009 24.301590 13.997720 7
-134.275617 24.615505 13.330545 7
-131.064117 24.848589 12.623263 7
-127.844725 25.116739 11.920619 7
-124.636434 25.468959 11.242095 7
-121.337478 25.641044 10.482555 7
-118.537497 27.108385 10.234114 8
-115.902160 28.960018 10.138502 8
-113.486748 31.294256 10.239176 8
-83.084856 -29.975663 -15.832297 8
-108.142657 34.667825 9.909543 8
-103.755163 32.638744 8.189432 8
-101.576564 35.416147 8.466388 8
-98.154898 35.587282 7.642512 8
-94.664699 35.687146 6.775620 8
-91.164783 35.837560 5.917093 8
-87.635649 36.000331 5.050465 8
-84.068907 36.161482 4.169348 8
-80.392705 36.194003 3.217311 8
-76.674276 36.227829 2.250304 8
-72.919793 36.276077 1.273744 8
-69.112261 36.311824 0.275140 8
-65.684842 37.049576 -0.420830 9
-63.838230 40.370692 0.056928 9
-62.971475 45.161183 1.222032 9
-60.160646 46.839006 0.952822 9
-57.362559 48.543034 0.690357 9
-54.556026 50.241742 0.419743 9
-51.675007 51.841954 0.096039 9
-48.635171 53.232869 -0.335786 9
-45.045646 53.892082 -1.133338 9
-41.068353 54.085630 -2.175711 9
-36.782311 53.949409 -3.402237 9
-32.436967 53.828618 -4.645247 9
-28.005668 53.691893 -5.921207 9
-23.487775 53.542739 -7.229417 9
-18.842192 53.335584 -8.594426 9
-25.748112 66.921597 -2.818002 1
-23.526480 69.445184 -2.738519 1
-22.035628 72.786368 -2.226772 1
-16.360442 71.420685 -4.226756 1
-21.528885 82.033768 0.205617 1
-20.168936 85.329210 0.729071 1
-11.096762 80.505671 -3.218595 1
-15.659509 89.956573 0.704698 3
-13.037009 91.897209 0.477009 3
-11.199052 94.624243 0.688594 3
-11.013241 98.927768 1.808198 2
-10.845659 103.168018 2.911693 2
-7.048007 103.970338 2.013556 2
-6.120686 107.437350 2.676072 2
-3.689018 109.523153 2.518421 2
2.241825 108.576669 0.507078 2
-146.601552 -24.106296 5.725201 7
-142.957342 -24.140866 4.882461 7
-139.269855 -24.246405 4.004613 7
-148.435430 19.596469 19.047399 7
-145.775734 21.464560 18.980749 7
-142.687128 21.910457 18.392042 7
-139.572962 22.317523 17.782236 7
-136.442523 22.719429 17.163374 7
-133.262803 23.024222 16.500676 7
-130.091667 23.404173 15.858285 7
-126.866320 23.685491 15.170383 7
-123.652091 24.050016 14.505679 7
-120.392175 24.348650 13.807000 7
-117.703408 26.108444 13.667989 8
-115.220485 28.333513 13.710431 8
-112.805453 30.665335 13.796645 8
-110.236250 32.593391 13.724324 8
-107.375258 33.847655 13.381514 8
-104.136412 34.297711 12.709286 8
-100.784323 34.560356 11.951147 8
-97.384740 34.785907 11.166711 8
-93.982682 35.068778 10.394325 8
-90.482136 35.221168 9.555941 8
-86.937806 35.358225 8.698277 8
-83.389379 35.556603 7.853238 8
-79.752759 35.663069 6.955663 8
-76.096240 35.806500 6.059621 8
-72.412645 35.974521 5.159692 8
-68.719017 36.196524 4.268533 8
-65.621115 37.463803 3.823120 9
-65.374886 43.321019 5.409566 9
-62.612148 45.057466 5.175743 9
-59.845434 46.791072 4.936169 9
-57.015515 48.434527 4.650806 9
-54.253249 50.186628 4.409746 9
-51.426529 51.852294 4.123591 9
-48.326187 53.144937 3.657002 9
-44.804736 53.887249 2.921404 9
-40.876465 54.135065 1.936035 9
-36.683466 54.108750 0.799854 9
-32.424733 54.084563 -0.357482 9
-28.162305 54.143709 -1.496978 9
-23.715928 54.061596 -2.729203 9
-19.131700 53.905890 -4.023214 9
-17.449345 57.284896 -3.564990 4
-23.653148 69.767165 1.525600 1
-20.694263 71.419291 1.156475 1
-16.263337 71.455415 -0.059621 1
-14.535685 74.529277 0.287284 1
-18.243895 83.378546 3.691718 1
-16.261764 86.005640 3.840122 1
-17.875072 92.304662 5.970148 3
-12.919801 91.841182 4.454508 3
-11.121868 94.595712 4.676879 3
-11.340016 99.276134 5.973532 2
-10.745683 103.093143 6.808881 2
-7.172511 104.092083 6.054635 2
-4.637755 106.086354 5.852772 2
-2.907971 108.810324 6.067298 2
1.105250 109.533488 5.104020 2
-146.392529 -22.699699 10.443044 7
-142.660412 -23.131906 9.481824 7
-138.961700 -23.334777 8.589337 7
-147.705745 18.778541 22.491453 7
-144.594604 19.172142 21.893885 7
-141.511768 19.697609 21.336683 7
-138.409205 20.197334 20.764327 7
-135.288342 20.680287 20.179654 7
-132.139560 21.122807 19.573755 7
-128.956918 21.514448 18.942290 7
-125.780517 21.969679 18.326745 7
-122.566787 22.371628 17.684096 7
-119.321387 22.741445 17.021572 7
-116.822544 24.993734 17.058737 8
-114.415361 27.410047 17.160072 8
-111.989260 29.721185 17.224160 8
-109.393962 31.597319 17.123197 8
-106.464732 32.712170 16.726873 8
-103.171122 33.061464 16.026650 8
-99.832304 33.370945 15.301030 8
-96.449062 33.647417 14.552045 8
-93.019889 33.892597 13.779759 8
-89.581028 34.181044 13.013577 8
-86.100629 34.451904 12.228859 8
-82.580005 34.711146 11.427522 8
-79.035334 34.990956 10.622358 8
-75.393736 35.164482 9.760436 8
-71.731613 35.372309 8.899215 8
-68.005971 35.542615 8.008264 8
-65.612721 37.963217 8.061786 9
-64.839796 42.945408 9.217122 9
-62.055363 44.642096 8.968074 9
-59.293227 46.377815 8.731736 9
-56.558625 48.159068 8.511198 9
-53.790636 49.894981 8.266360 9
-48.946103 48.665274 6.686792 9
-47.818113 52.775772 7.494930 9
-44.318277 53.543329 6.790880 9
-40.390806 53.787799 5.832513 9
-36.293294 53.882762 4.786400 9
-32.135378 53.981387 3.721828 9
-27.866383 54.022575 2.609227 9
-23.566932 54.112386 1.497770 9
-19.158637 54.156258 0.341732 9
-17.498465 57.541508 0.788824 4
-23.011364 69.196424 5.307868 1
-20.640180 71.514678 5.278959 1
-16.177095 71.501050 4.078666 1
-13.942108 74.007174 4.127994 1
-15.830278 80.907059 6.423019 1
-15.092830 84.873378 7.247085 1
-15.924500 90.379757 8.889620 3
-14.193309 93.181505 9.137425 3
-11.951430 95.459115 9.108355 3
-9.621373 97.651962 9.030093 2
-8.413061 100.909018 9.526719 2
-6.665466 103.629255 9.735471 2
-2.410481 104.060409 8.670773 2
2.446556 104.034946 7.321132 2
7.458567 103.973312 5.915980 2
25.722773 92.718008 -1.977822 3
30.614325 93.191567 -3.222866 3
-146.464738 -20.260247 15.439766 7
-142.684173 -20.981525 14.408237 7
-149.452041 15.374018 25.781971 7
-146.434804 16.132573 25.315321 7
-143.383809 16.797321 24.812690 7
-140.149517 16.910139 24.116448 7
-137.063111 17.534596 23.588917 7
-133.955082 18.125022 23.044272 7
-130.829722 18.699003 22.488221 7
-127.646228 19.147759 21.882114 7
-124.470983 19.662206 21.292540 7
-121.319571 20.279068 20.732936 7
-118.400045 21.515172 20.390110 8
-115.864167 23.690592 20.385064 8
-88.418845 -33.383133 -1.287609 8
-111.105837 28.621585 20.594145 8
-108.389195 30.236136 20.387724 8
-105.360868 31.154542 19.919272 8
-102.065516 31.527702 19.239523 8
-98.751502 31.915312 18.556154 8
-95.418731 32.318240 17.869341 8
-91.968177 32.541966 17.103842 8
-88.569546 32.928724 16.390854 8
-85.098589 33.235457 15.636243 8
-81.578315 33.512323 14.858750 8
-78.065062 33.864635 14.099705 8
-74.455582 34.108825 13.285726 8
-70.833886 34.398251 12.477488 8
-67.145902 34.641922 11.637885 8
-65.447518 38.201245 12.150202 9
-62.275976 39.330243 11.662444 9
-61.375161 44.032313 12.663038 9
-58.675185 45.862343 12.468052 9
-55.916953 47.605670 12.232947 9
-53.211384 49.431045 12.029076 9
-50.390892 51.094848 11.751562 9
-47.176861 52.218787 11.232937 9
-41.154145 49.531374 9.023457 9
-39.653924 53.102346 9.559498 9
-35.641760 53.312132 8.595082 9
-31.568194 53.519378 7.611195 9
-27.389468 53.672012 6.583340 9
-23.126851 53.802534 5.525148 9
-18.815451 53.957718 4.457415 9
-16.437069 56.482900 4.483361 4
-21.902279 68.083788 8.820500 1
-20.447435 71.451364 9.290907 1
-15.964453 71.404991 8.115031 1
-12.424119 72.477554 7.461518 1
-11.359422 76.241050 8.123018 1
-12.680006 82.440340 10.012300 1
-11.497689 85.917940 10.565463 1
-11.270688 90.307188 11.592691 3
-9.582809 93.175153 11.855561 3
-8.075404 96.194479 12.200351 3
-2.133775 94.997200 10.330373 3
-2.974330 100.219555 11.832771 2
-1.608240 103.326558 12.227314 2
3.164908 103.377504 10.964345 2
20.789604 92.338892 3.564177 3
25.514147 92.848221 2.419058 3
30.287192 93.403424 1.268635 3
33.422337 95.385143 0.899770 3
35.242842 98.450281 1.142704 3
37.056291 101.507679 1.382302 3
38.873001 104.550240 1.614088 3
40.694833 107.577857 1.837544 3
42.478224 110.623945 2.072473 3
44.266935 113.656219 2.299310 3
-147.007166 -16.095635 20.898771 7
-149.997381 7.499961 27.684853 7
-147.621772 10.722179 28.003902 7
-144.635195 11.731292 27.611962 7
-141.622418 12.654973 27.189427 7
-138.599234 13.553344 26.755360 7
-135.559265 14.411646 26.304523 7
-132.512395 15.264655 25.848102 7
-129.434883 16.047616 25.364069 7
-126.334535 16.790398 24.861872 7
-123.001454 16.940060 24.151847 7
-119.835994 17.585107 23.604435 7
-115.920305 16.383318 22.409761 8
-114.849832 22.253784 23.674388 8
-111.259137 21.901019 22.766099 8
-110.033389 27.087706 23.814574 8
-107.234070 28.540668 23.544334 8
-104.049866 29.148669 22.966998 8
-100.812339 29.683770 22.356081 8
-97.438122 29.980820 21.650177 8
-94.105592 30.420076 20.987450 8
-90.759716 30.884797 20.325381 8
-87.359180 31.295868 19.634211 8
-83.924911 31.698536 18.930278 8
-80.434776 32.055067 18.198798 8
-76.958314 32.495218 17.488915 8
-73.367479 32.791877 16.713020 8
-69.736334 33.083489 15.923511 8
-66.083647 33.404040 15.133356 8
-64.243293 36.742037 15.530293 9
-63.271165 41.394102 16.461531 9
-60.577540 43.238558 16.274453 9
-57.882453 45.079391 16.083354 9
-55.200839 46.940190 15.897722 9
-52.400038 48.627271 15.637245 9
-49.543511 50.243448 15.342861 9
-35.695605 36.516299 8.566125 9
-42.707417 51.978604 14.101168 9
-38.810958 52.274297 13.217793 9
-34.791444 52.480107 12.279233 9
-30.735716 52.715804 11.336262 9
-26.628012 52.962555 10.380307 9
-22.411506 53.152558 9.380638 9
-18.118500 53.331182 8.356292 9
-14.651854 54.569105 7.792932 4
-13.961212 59.061982 8.711115 4
-18.307187 69.178042 12.251228 1
-15.544100 71.077168 12.015785 1
-11.267678 71.342249 11.002228 1
-9.290709 74.141385 11.176221 1
-5.655986 75.187666 10.506998 1
-9.033680 83.469274 13.346805 1
-6.853234 85.933372 13.380489 1
-5.686827 89.389370 13.906259 3
-4.497812 92.778914 14.407686 3
-2.955938 95.793562 14.727104 3
1.953961 95.665068 13.435996 3
7.531427 95.032440 11.851499 3
12.553628 95.016884 10.552530 3
20.519399 92.540364 7.912820 3
25.224339 93.048109 6.812819 3
29.638205 93.884774 5.862175 3
32.007698 96.468800 5.846758 3
33.834202 99.492781 6.071946 3
35.619953 102.536292 6.309332 3
37.442202 105.539108 6.524824 3
39.241591 108.548788 6.744935 3
40.988027 111.587491 6.982662 3
42.778875 114.583566 7.196009 3
44.570454 117.570937 7.404238 3
46.367983 120.547018 7.605390 3
48.169292 123.514494 7.800657 3
49.940162 126.497084 8.004473 3
51.704229 129.479067 8.207028 3
53.465436 132.458540 8.406851 3
55.279708 135.401652 8.581469 3
57.046054 138.372521 8.772144 3
59.122017 141.158691 8.836049 3
-150.005070 -2.814036 29.016932 7
-148.070431 2.402868 29.899538 7
-145.211200 4.103767 29.708831 7
-142.316932 5.636896 29.466614 7
-139.369597 6.963364 29.159375 7
-136.413023 8.242266 28.836004 7
-133.430518 9.429853 28.482059 7
-130.418562 10.526460 28.096860 7
-127.372506 11.529337 27.678715 7
-124.321071 12.527422 27.255855 7
-121.242011 13.464027 26.809416 7
-118.255855 14.656459 26.444084 8
-114.528991 14.001788 25.458330 8
-113.694443 20.478358 26.863660 8
-111.391977 23.203980 27.019599 8
-108.783694 25.151036 26.914133 8
-105.843980 26.325139 26.542929 8
-102.634182 26.921703 25.967551 8
-99.381248 27.468174 25.367904 8
-96.048114 27.893787 24.718335 8
-92.755069 28.451952 24.107796 8
-89.339115 28.814760 23.419468 8
-85.993592 29.369103 22.791358 8
-82.544154 29.777236 22.101675 8
-79.082709 30.219484 21.415130 8
-75.597897 30.675394 20.724138 8
-72.047075 31.071914 20.001198 8
-68.481612 31.502781 19.280755 8
-65.650758 33.214500 19.036516 9
-64.940827 38.377922 20.112428 9
-62.269568 40.272236 19.944359 9
-59.602273 42.168187 19.775217 9
-56.945164 44.076176 19.608949 9
-54.272141 45.957620 19.430213 9
-51.532518 47.741443 19.210133 9
-48.548856 49.182018 18.848364 9
-45.291273 50.260610 18.333380 9
-41.587954 50.766848 17.574514 9
-37.681047 51.062328 16.714930 9
-33.716406 51.353635 15.838173 9
-29.722510 51.680235 14.960310 9
-25.678965 52.017076 14.070510 9
-21.527381 52.294446 13.138322 9
-17.265852 52.516504 12.164210 9
-12.943884 52.748026 11.175225 9
-12.097232 57.082061 11.982301 4
-15.982296 66.697180 15.164624 1
-15.220733 70.856438 15.946642 1
-9.774628 69.840861 14.384541 1
-6.608040 71.388054 13.969804 1
-4.071805 73.624907 13.866145 1
-0.612158 74.920524 13.316653 1
-3.407581 82.536729 15.755296 1
-1.671207 85.487155 16.004927 1
-0.030439 88.506596 16.291522 3
1.141986 91.943060 16.786752 3
4.618091 93.206137 16.213532 3
10.935577 91.938926 14.357276 3
15.692637 92.207984 13.235193 3
20.278332 92.716796 12.207613 3
24.979225 93.210337 11.145345 3
28.696081 94.611819 10.531190 3
30.673735 97.487742 10.681586 3
32.462217 100.507425 10.909150 3
34.254341 103.511126 11.129687 3
36.013319 106.528462 11.359082 3
37.830703 109.489999 11.558796 3
39.584721 112.489374 11.780397 3
41.345704 115.473883 11.994420 3
43.117089 118.442437 12.199764 3
44.888726 121.403510 12.400880 3
46.658066 124.359783 12.599011 3
48.412325 127.320536 12.799453 3
50.178061 130.268808 12.991729 3
51.959394 133.203355 13.174520 3
53.706411 136.156588 13.367645 3
55.491549 139.084037 13.542906 3
57.772747 141.717112 13.524710 3
61.408217 143.580558 12.990029 3
-135.581717 -3.597968 29.776109 7
-133.117040 -0.461367 29.993305 7
-130.410480 1.817858 29.954640 7
-127.558965 3.603684 29.766661 7
-124.664903 5.231038 29.530213 7
-121.714272 6.677663 29.237059 7
-118.906815 8.488559 29.058358 8
-116.578735 11.494881 29.261944 8
-114.468214 14.943296 29.614358 8
-112.407392 18.390787 29.975335 8
-110.037387 20.993138 30.069091 8
-107.286739 22.655391 29.857860 8
-104.236271 23.633182 29.419096 8
-100.980748 24.187033 28.834413 8
-97.735157 24.805839 28.265092 8
-94.417801 25.318364 27.653215 8
-91.120932 25.919876 27.064589 8
-87.796282 26.511297 26.465473 8
-84.406309 27.023589 25.831486 8
-81.002101 27.559811 25.197876 8
-77.558944 28.075340 24.548771 8
-74.057441 28.539208 23.872649 8
-70.574056 29.090075 23.218658 8
-67.034135 29.597353 22.539869 8
-64.724530 32.203138 22.619611 9
-63.759856 36.955046 23.494694 9
-61.107696 38.896814 23.340264 9
-58.520538 40.933187 23.220258 9
-55.859885 42.848619 23.053817 9
-53.232922 44.811164 22.903808 9
-50.437927 46.525437 22.656702 9
-45.237961 44.823797 21.078138 9
-44.040465 48.852720 21.720462 9
-40.225753 49.224762 20.927743 9
-36.354614 49.588612 20.118129 9
-32.505320 50.049733 19.333551 9
-28.501652 50.378936 18.481349 9
-24.479016 50.756845 17.633675 9
-20.333828 51.055892 16.737657 9
-16.119308 51.347752 15.821777 9
-11.879744 51.688036 14.908816 9
-8.791949 53.437333 14.578987 4
-7.661060 57.425557 15.206643 4
-6.447079 61.254758 15.777115 4
-5.064558 64.840719 16.251566 4
-5.192913 69.987598 17.427408 1
-1.800824 71.345223 16.928039 1
2.875162 71.428301 15.840236 1
7.745178 71.408807 14.681648 1
16.689116 67.481606 11.690496 1
16.036726 73.057689 13.074813 1
16.613172 77.353049 13.882350 1
6.949846 91.054887 19.197375 3
9.537817 93.199848 19.048379 3
15.397103 92.450708 17.480904 3
19.995752 92.929681 16.481832 3
24.591496 93.494658 15.500100 3
27.528631 95.528055 15.234618 3
29.321502 98.522890 15.451385 3
31.132873 101.489340 15.655417 3
32.886215 104.489602 15.878663 3
34.645939 107.472402 16.094481 3
36.397699 110.449962 16.308988 3
38.197098 113.381949 16.500033 3
39.940948 116.346148 16.709377 3
41.702886 119.288917 16.907630 3
43.451594 122.233721 17.107438 3
45.210049 125.165344 17.299958 3
46.952338 128.102296 17.495462 3
48.723136 131.015798 17.676918 3
50.447532 133.955426 17.873174 3
52.189532 136.880365 18.059914 3
54.015954 139.751667 18.212520 3
56.586948 142.182444 18.087320 3
60.492533 143.861999 17.473841 3
66.901412 144.183091 15.956844 3
-118.273579 -1.391416 30.674666 8
-115.487810 0.695295 30.554936 8
-114.329523 6.890095 31.696446 8
-112.261480 10.549307 32.076819 8
-110.350759 14.456512 32.544303 8
-108.084095 17.387686 32.716628 8
-105.409626 19.303059 32.573917 8
-102.311147 20.247642 32.122762 8
-99.146154 21.071693 31.628925 8
-95.951995 21.864949 31.120363 8
-92.593944 22.354735 30.507537 8
-89.271769 22.965818 29.927728 8
-85.949243 23.620572 29.355889 8
-82.596562 24.260992 28.772714 8
-79.221765 24.905068 28.183909 8
-75.770656 25.456016 27.556301 8
-72.306726 26.035114 26.930461 8
-68.814866 26.616325 26.297335 8
-65.602918 27.723626 25.839569 9
-65.029298 33.232857 26.926106 9
-62.433695 35.298979 26.810872 9
-59.861223 37.389169 26.704345 9
-57.305639 39.493074 26.602887 9
-54.668219 41.460953 26.451939 9
-51.996443 43.372910 26.279517 9
-49.172347 45.062182 26.023083 9
-46.054806 46.343322 25.610881 9
-42.510916 47.058351 24.978959 9
-38.757318 47.539614 24.247836 9
-34.834661 47.858105 23.441977 9
-30.951980 48.299544 22.670048 9
-27.008081 48.729477 21.880236 9
-22.996737 49.143393 21.070139 9
-18.912470 49.538198 20.237824 9
-14.823310 49.999654 19.417066 9
-10.582787 50.353835 18.537354 9
-6.274251 50.706328 17.640179 9
-2.232799 51.439599 16.883420 4
-0.113966 54.370515 17.031628 4
5.027868 53.992862 15.783840 4
11.677724 52.119506 13.871850 9
16.520868 52.305512 12.808799 9
21.322252 52.627314 11.782374 9
26.267328 52.894475 10.709670 9
31.328321 53.141209 9.604258 9
20.407784 68.881850 15.442383 1
21.618576 72.647692 15.961300 1
48.118945 52.964385 5.713863 9
12.878993 90.163302 21.667540 3
14.538633 93.193895 21.922851 3
19.776654 93.087589 20.691446 3
23.930550 94.012576 19.925232 3
26.209861 96.571739 19.933328 3
27.992262 99.540430 20.140458 3
29.756932 102.510055 20.350177 3
31.503206 105.481406 20.562814 3
33.316956 108.388598 20.744699 3
35.045395 111.351136 20.956230 3
36.781599 114.297299 21.160848 3
38.558845 117.204422 21.346104 3
40.286562 120.139461 21.546995 3
42.026105 123.058624 21.740143 3
43.774400 125.965453 21.927003 3
45.530439 128.861899 22.108214 3
47.252673 131.776127 22.299308 3
49.024962 134.654304 22.469563 3
50.732424 137.570684 22.661175 3
52.586351 140.395114 22.797851 3
55.376830 142.665615 22.599322 3
59.736623 144.053891 21.849559 3
66.416734 144.197478 20.297616 3
73.577374 144.205603 18.602817 3
-112.448166 -15.839335 30.448924 8
-112.781730 -5.176317 32.786976 8
-111.866768 1.770363 34.075426 8
-110.384594 6.996176 34.879454 8
-108.421490 10.849769 35.291061 8
-105.947991 13.373512 35.313171 8
-103.009397 14.777146 34.999719 8
-99.882523 15.762873 34.557204 8
-96.741295 16.739795 34.108555 8
-93.546701 17.628316 33.628771 8
-90.360388 18.563173 33.159240 8
-87.128126 19.434352 32.665340 8
-83.835943 20.221044 32.139735 8
-80.532403 21.023595 31.613800 8
-77.221694 21.850562 31.090210 8
-73.715271 22.360061 30.457168 8
-70.251139 22.997848 29.858759 8
-66.811503 23.726454 29.283325 8
-64.002889 25.568297 29.074201 9
-63.478060 31.185053 30.140898 9
-60.930360 33.359313 30.054346 9
-58.395710 35.537353 29.970075 9
-55.833155 37.656358 29.866210 9
-53.283101 39.782159 29.765148 9
-50.659170 41.787180 29.621771 9
-47.695563 43.294464 29.300479 9
-44.396156 44.341991 28.810018 9
-40.748206 44.942377 28.150265 9
-36.981845 45.438651 27.442075 9
-33.161326 45.925224 26.718891 9
-29.324375 46.454390 25.999683 9
-25.382418 46.912764 25.241782 9
-21.408943 47.399241 24.481546 9
-17.288425 47.772960 23.664777 9
-13.155325 48.205104 22.855998 9
-8.958727 48.634984 22.031590 9
-4.745584 49.119787 21.213533 9
-0.371443 49.495683 20.336591 9
3.998247 49.955580 19.476501 9
8.521501 50.325852 18.563053 9
13.167196 50.648106 17.611556 9
17.779898 51.090749 16.690520 9
22.596149 51.408025 15.697755 9
30.870501 48.347180 13.253914 9
32.425984 52.115764 13.679451 9
41.151332 48.935001 11.108951 9
42.831148 52.640884 11.491358 9
49.241159 51.933599 9.931509 9
62.894059 44.798307 5.465249 9
18.958181 89.246411 24.190898 3
20.057397 92.810432 24.667356 3
23.041203 94.725969 24.391487 3
24.917686 97.594163 24.552340 3
26.668872 100.554362 24.758256 3
28.444651 103.481073 24.950643 3
30.240501 106.380206 25.131701 3
31.934479 109.347739 25.347878 3
33.703598 112.246320 25.532157 3
35.449530 115.153181 25.721960 3
37.155228 118.080563 25.923548 3
38.898542 120.972465 26.108329 3
40.640487 123.858563 26.290952 3
42.372875 126.745255 26.474529 3
44.100140 129.630063 26.657575 3
45.838748 132.502926 26.834397 3
47.563313 135.381297 27.014161 3
49.258423 138.274976 27.202276 3
51.247631 140.986899 27.286955 3
54.340935 143.048638 26.993234 3
59.093597 144.182976 26.141225 3
65.950734 144.203661 24.593735 3
73.098058 144.198522 22.974157 3
80.505434 144.193618 21.294335 3
-109.016188 -4.300241 36.295843 8
-107.695464 1.462373 37.190413 8
-105.577561 5.072139 37.488978 8
-102.802609 7.029481 37.320738 8
-99.847181 8.547188 37.026478 8
-96.843119 9.952030 36.698712 8
-93.745760 11.158078 36.311084 8
-90.638952 12.357702 35.919318 8
-87.506081 13.519036 35.513624 8
-84.319702 14.591808 35.078310 8
-81.112148 15.646994 34.634214 8
-77.864194 16.651069 34.170678 8
-74.560564 17.581065 33.679968 8
-71.262632 18.555048 33.198300 8
-67.870346 19.394867 32.669483 8
-64.712990 20.680583 32.277164 9
-64.239426 26.520559 33.346090 9
-61.738042 28.830174 33.291467 9
-59.287160 31.197884 33.257926 9
-56.836275 33.540820 33.218521 9
-54.340071 35.791242 33.150395 9
-49.695008 34.775147 31.986352 9
-48.985487 39.706034 32.819760 9
-45.939383 41.124840 32.469510 9
-42.473188 41.969114 31.916999 9
-38.782640 42.548126 31.264283 9
-35.066348 43.150455 30.609903 9
-31.253442 43.682626 29.920562 9
-27.362040 44.174937 29.206019 9
-23.428778 44.679092 28.484134 9
-19.449334 45.191508 27.753279 9
-15.409372 45.696698 27.007379 9
-11.366360 46.266786 26.272680 9
-7.181618 46.737290 25.487672 9
-2.941539 47.216575 24.691805 9
1.407392 47.646471 23.862373 9
5.770611 48.137659 23.040995 9
10.239919 48.589829 22.188629 9
14.806689 49.017561 21.309931 9
19.419872 49.478774 20.426996 9
24.166264 49.886014 19.504354 9
29.030944 50.260813 18.549345 9
33.959912 50.661690 17.584800 9
39.001341 51.044365 16.591850 9
44.126666 51.440636 15.582721 9
51.361723 49.979022 13.763177 9
65.216988 42.683734 9.402056 9
75.419943 39.040800 6.525777 5
81.523977 39.234933 5.265065 5
26.273203 91.921805 27.243524 3
27.357102 95.496083 27.704870 3
28.453250 99.022234 28.153340 3
29.516542 102.538846 28.606030 3
30.570354 106.027598 29.054422 3
31.665161 109.450771 29.480463 3
32.711016 112.879788 29.917166 3
34.091099 116.030587 30.227848 3
35.836987 118.897171 30.404602 3
37.555088 121.776297 30.588794 3
39.257767 124.659057 30.776064 3
40.994868 127.511822 30.949273 3
42.715036 130.371110 31.126442 3
44.419444 133.236269 31.307198 3
46.128847 136.094252 31.484584 3
47.868731 138.930219 31.650288 3
49.983964 141.536360 31.690435 3
53.356325 143.404147 31.318203 3
58.654405 144.196004 30.325223 3
65.458139 144.227231 28.861968 3
72.631537 144.186739 27.304316 3
79.982209 144.191669 25.715968 3
87.641060 144.177937 24.056450 3
-96.310906 -7.048173 37.338412 8
-94.620415 -2.314999 37.905399 8
-92.206038 0.654651 37.992687 8
-89.485469 2.891649 37.879277 8
-86.641091 4.833217 37.684534 8
-83.676673 6.510010 37.415042 8
-80.673709 8.104673 37.121714 8
-77.582577 9.528180 36.777767 8
-74.421342 10.828350 36.395878 8
-71.257546 12.140301 36.015151 8
-68.004648 13.308458 35.588813 8
-64.747861 14.494705 35.164564 9
-64.547809 20.978378 36.354229 9
-62.211669 23.648801 36.393998 9
-59.892202 26.306737 36.434173 9
-57.484461 28.784279 36.421973 9
-55.059451 31.205670 36.395133 9
-52.637449 33.606436 36.364435 9
-49.986487 35.638319 36.217544 9
-47.141172 37.376651 35.975641 9
-43.820386 38.434367 35.509193 9
-40.211040 39.120189 34.914025 9
-36.532822 39.763816 34.296500 9
-32.809295 40.402065 33.668293 9
-29.016420 41.005580 33.019025 9
-25.158620 41.584581 32.351503 9
-21.274509 42.192252 31.683514 9
-17.327309 42.783339 30.999117 9
-13.327642 43.374362 30.303551 9
-9.193600 43.869557 29.562268 9
-5.027261 44.397409 28.820019 9
-0.833439 44.964295 28.078965 9
3.448036 45.502706 27.314253 9
7.811263 46.023722 26.529145 9
12.220260 46.570387 25.738984 9
16.771018 47.042074 24.905455 9
21.377987 47.535562 24.064011 9
26.053391 48.040324 23.210188 9
30.825900 48.530286 22.333277 9
35.740104 48.965929 21.416822 9
40.710888 49.435976 20.494675 9
46.058237 49.640022 19.445690 9
55.319632 46.324414 16.943293 9
70.722331 37.682806 12.197401 5
76.570787 37.993808 11.064421 5
82.527040 38.321010 9.911811 5
88.663066 38.606743 8.714148 5
94.979234 38.858085 7.472653 5
101.542422 39.027408 6.164804 5
109.087205 38.534927 4.532944 5
127.588225 29.575915 -0.908730 6
135.310030 29.433279 -2.513329 6
143.213350 29.307953 -4.152599 6
42.016080 122.586411 33.818446 3
43.019151 125.968307 34.237231 3
44.042204 129.310518 34.644040 3
45.005394 132.667156 35.065233 3
46.001245 135.977982 35.470730 3
46.955421 139.291884 35.884798 3
48.847537 142.011447 35.996330 3
52.461385 143.709074 35.565674 3
58.264031 144.182661 34.459691 3
65.072476 144.192191 33.061136 3
72.125302 144.199329 31.611300 3
79.448210 144.198064 30.103761 3
87.037441 144.199196 28.541241 3
94.917322 144.198659 26.917953 3
-74.239582 -3.883379 37.791704 8
-72.043695 -0.453759 37.983484 8
-69.412350 2.069954 37.928243 8
-66.590007 4.202675 37.765689 8
-63.912786 6.578173 37.674582 9
-64.277575 14.282944 39.128136 9
-62.166902 17.458089 39.289741 9
-59.903972 20.314124 39.364436 9
-57.708485 23.233888 39.463429 9
-55.479029 26.050309 39.537120 9
-53.130611 28.636583 39.546313 9
-50.658058 30.999963 39.491309 9
-47.797380 32.757292 39.252273 9
-44.829527 34.362371 38.964992 9
-41.351432 35.243806 38.448938 9
-37.671854 35.884998 37.850590 9
-33.975659 36.558944 37.254702 9
-30.225581 37.215330 36.645031 9
-26.516706 37.983832 36.063246 9
-22.668096 38.624435 35.431257 9
-18.773423 39.266626 34.790423 9
-14.816859 39.892968 34.134548 9
-10.802067 40.511384 33.465757 9
-6.781278 41.187553 32.805942 9
-2.660420 41.810037 32.116892 9
1.512198 42.440319 31.418986 9
5.748410 43.067302 30.707935 9
10.137654 43.594963 29.949186 9
14.569429 44.151963 29.187213 9
19.057561 44.724900 28.416930 9
23.662036 45.253376 27.615874 9
28.315519 45.812004 26.810468 9
33.013312 46.407005 26.002733 9
37.899280 46.898270 25.139648 9
42.844432 47.419551 24.270195 9
48.956223 46.927368 22.992521 9
60.324060 41.701653 19.846512 9
72.456416 36.102070 16.484694 5
78.182340 36.537213 15.446962 5
84.089496 36.919651 14.364295 5
90.113481 37.312107 13.260419 5
96.304268 37.676964 12.118881 5
102.674691 38.010317 10.936479 5
115.310259 33.428632 7.656680 5
127.773979 29.303858 4.491535 6
135.189888 29.382652 3.059191 6
142.681577 29.548749 1.627354 6
54.342851 142.360501 38.931166 3
57.817414 144.204014 38.579284 3
64.605384 144.205537 37.252725 3
71.651135 144.196339 35.873684 3
78.942176 144.191670 34.447298 3
86.501864 144.186964 32.968179 3
94.328295 144.191815 31.438391 3
102.475844 144.187113 29.843900 3
-65.343445 -12.633580 38.845887 9
-64.582717 -6.313021 39.772999 9
-64.433469 0.920499 40.969515 9
-63.194366 5.941443 41.587320 9
-61.394126 9.827698 41.908014 9
-59.351331 13.202156 42.096776 9
-57.260602 16.425587 42.251168 9
-55.071117 19.424496 42.349218 9
-52.879972 22.369682 42.438043 9
-50.451561 24.894545 42.411413 9
-47.794524 27.039723 42.277829 9
-44.760390 28.606587 41.975840 9
-41.342392 29.622745 41.508861 9
-37.860449 30.585753 41.021099 9
-34.399918 31.621389 40.549846 9
-30.897522 32.639588 40.068000 9
-27.382686 33.683228 39.588335 9
-23.615650 34.434545 39.012132 9
-19.845965 35.237813 38.444443 9
-15.916502 35.892028 37.821804 9
-12.012370 36.639538 37.219930 9
-7.995100 37.307856 36.583682 9
-4.004830 38.072156 35.968973 9
0.111518 38.749452 35.316155 9
4.275804 39.437445 34.656411 9
8.580594 40.033712 33.955072 9
12.928229 40.654487 33.250111 9
17.313612 41.306756 32.543671 9
21.694348 42.036694 31.851511 9
26.213313 42.693799 31.121409 9
30.874787 43.280988 30.353068 9
35.625760 43.858647 29.566642 9
40.399271 44.496431 28.786466 9
51.686008 38.945195 25.740049 9
53.782152 42.395391 25.937653 9
69.234045 33.465505 21.540959 5
78.093329 30.981429 19.469466 5
80.424070 34.520234 19.639193 5
86.218122 35.024729 18.647735 5
92.087732 35.569848 17.649388 5
98.262823 35.965320 16.568959 5
104.430099 36.481894 15.510881 5
122.084069 27.876352 10.761668 6
128.988833 28.221687 9.537813 6
136.035746 28.587332 8.291272 6
143.424237 28.827264 6.960073 6
60.854786 142.192874 41.672530 3
64.168524 144.203668 41.403067 3
71.190661 144.187852 40.099190 3
78.410507 144.201529 38.763929 3
85.944020 144.189012 37.366261 3
93.701963 144.206975 35.932450 3
101.799120 144.204041 34.432431 3
110.255519 144.181283 32.862690 3
-59.112310 -15.865858 41.519970 9
-60.088926 -6.369875 43.207946 9
-59.416294 -0.187207 44.069702 9
-58.101411 4.669975 44.604451 9
-56.426841 8.773481 44.954498 9
-54.567950 12.466500 45.206301 9
-52.545291 15.809275 45.373175 9
-50.363884 18.832490 45.460914 9
-47.852826 21.288649 45.399103 9
-45.007843 23.207832 45.191769 9
-41.680419 24.401698 44.782001 9
-38.137754 25.310357 44.288370 9
-34.508457 26.138718 43.766844 9
-30.861224 26.990705 43.246440 9
-27.189186 27.857477 42.724512 9
-23.416598 28.637753 42.171213 9
-19.644272 29.472616 41.627292 9
-15.912585 30.413456 41.108254 9
-12.269427 31.517064 40.631821 9
-8.533850 32.550189 40.128075 9
-4.766740 33.593563 39.620914 9
-0.749488 34.386937 39.029332 9
3.351771 35.142478 38.417220 9
7.450489 35.964566 37.816878 9
11.693211 36.686592 37.175274 9
16.000020 37.405467 36.522321 9
20.352333 38.144322 35.865080 9
24.762996 38.891205 35.199341 9
29.269257 39.609758 34.512601 9
33.957633 40.216265 33.775925 9
38.697558 40.851184 33.035296 9
43.389228 41.614169 32.324622 9
49.574318 41.017010 31.128672 9
61.909433 34.748398 27.920997 9
72.208227 30.721711 25.439378 5
77.635128 31.388962 24.585234 5
83.229128 32.002161 23.693362 5
88.905824 32.642208 22.791896 5
94.729804 33.256673 21.860882 5
100.707309 33.846314 20.899357 5
106.981160 34.300053 19.863970 5
124.261525 26.017182 15.458092 6
130.951367 26.550093 14.363583 6
137.853266 27.041798 13.225654 6
144.925848 27.531812 12.058095 6
67.584352 142.001603 44.483417 3
70.671756 144.214038 44.308905 3
77.892109 144.206391 43.043573 3
85.373003 144.200463 41.733503 3
93.132275 144.195263 40.375440 3
101.161147 144.204083 38.973160 3
109.574621 144.178308 37.498514 3
118.250677 144.189402 35.984746 3
123.657134 145.910000 35.327273 0
-51.252898 -21.864666 43.610876 9
-54.513025 -8.308131 46.204347 9
-54.099589 -1.710821 47.115818 9
-52.988443 3.480036 47.695972 9
-51.439093 7.789820 48.068713 9
-49.519697 11.386701 48.271084 9
-47.161037 14.205595 48.281229 9
-44.436469 16.411485 48.136650 9
-41.184862 17.796982 47.778164 9
-37.748132 18.928240 47.350255 9
-34.265945 20.028087 46.910682 9
-30.708690 21.057718 46.448480 9
-27.096072 22.051143 45.972193 9
-23.456982 23.052437 45.493475 9
-19.733899 23.985399 44.990896 9
-15.972107 24.916230 44.482285 9
-12.161869 25.834584 43.964410 9
-8.263045 26.692386 43.423094 9
-4.351301 27.589802 42.886546 9
-0.356994 28.441783 42.329911 9
3.707803 29.267857 41.758243 9
7.716268 30.220806 41.216524 9
11.652474 31.313981 40.709528 9
15.610466 32.435555 40.204149 9
19.631630 33.540504 39.686462 9
23.984245 34.341536 39.066832 9
28.416454 35.126546 38.432219 9
32.892268 35.936848 37.795094 9
37.454386 36.730335 37.141763 9
42.116849 37.496968 36.468323 9
47.529217 37.603799 35.567348 9
58.798724 32.177070 32.823647 9
70.631567 26.541229 29.953499 5
75.923525 27.292352 29.175476 5
81.268413 28.085377 28.396132 5
86.781160 28.819559 27.580527 5
92.370159 29.582225 26.757649 5
98.108801 30.313182 25.905840 5
103.970882 31.040572 25.033908 5
120.918469 22.769979 20.902230 6
127.286060 23.475722 19.944514 6
133.940746 24.068174 18.922273 6
140.620461 24.761889 17.912920 6
147.720225 25.257330 16.803590 6
74.544890 141.785276 47.369617 3
77.395539 144.201462 47.285835 3
84.840860 144.193480 46.057622 3
92.542660 144.196342 44.789873 3
100.556760 144.189656 43.470183 3
108.868142 144.190837 42.103875 3
117.503037 144.196447 40.686145 3
123.215793 145.749636 39.998905 0
131.777743 146.086938 38.648793 0
-47.213714 -13.107094 48.594683 9
-47.947934 -4.531887 49.913891 9
-46.802048 0.608962 50.437502 9
-44.846685 4.286016 50.621400 9
-42.222846 6.818430 50.533943 9
-39.125396 8.584489 50.260867 9
-35.934935 10.216461 49.954735 9
-32.650504 11.722730 49.616566 9
-29.296597 13.148578 49.256833 9
-25.881886 14.513052 48.879674 9
-22.387472 15.795018 48.478967 9
-18.838654 17.036153 48.064820 9
-15.228909 18.231978 47.635527 9
-11.513985 19.328605 47.176130 9
-7.765620 20.426983 46.712842 9
-3.943685 21.478132 46.232088 9
-0.080076 22.526716 45.745503 9
3.854472 23.539398 45.243535 9
7.892058 24.482188 44.716075 9
11.961389 25.445150 44.187721 9
16.122241 26.360864 43.639046 9
20.357783 27.253577 43.076306 9
24.655629 28.140935 42.504081 9
29.033404 29.006860 41.917212 9
33.410269 29.941217 41.341835 9
37.664810 31.069283 40.815794 9
41.951631 32.224765 40.289979 9
47.076101 32.602620 39.517336 9
57.998397 27.382694 36.996273 9
73.150975 18.404565 33.247516 5
78.121587 19.497938 32.608605 5
83.223561 20.546657 31.943685 5
88.430780 21.580499 31.261341 5
93.081656 23.192322 30.754562 5
96.636224 25.822607 30.574473 5
102.245934 26.720861 29.812806 5
116.606236 20.382158 26.589884 5
125.288725 19.089536 25.018580 6
131.482440 19.989797 24.169459 6
137.938712 20.789261 23.265496 6
144.393974 21.702711 22.380450 6
81.678750 141.581803 50.354580 3
84.296142 144.195384 50.353582 3
91.985760 144.182688 49.163846 3
99.900357 144.204214 47.946065 3
108.167083 144.203421 46.671929 3
116.741699 144.213068 45.353432 3
122.419356 145.759744 44.721927 0
131.170775 145.983054 43.412563 0
140.207641 146.245076 42.066952 0
-26.649548 -3.511041 50.870914 9
-24.517985 -0.004877 50.987116 9
-21.878277 2.698384 50.918197 9
-18.939126 4.948101 50.743498 9
-15.832543 6.958449 50.512321 9
-12.583919 8.780114 50.235406 9
-9.163139 10.385256 49.904283 9
-5.705271 11.966928 49.565983 9
-2.128461 13.422222 49.193890 9
1.570723 14.756080 48.788134 9
5.286153 16.109609 48.384278 9
9.152585 17.319371 47.939305 9
13.054388 18.534091 47.491299 9
17.050968 19.686093 47.021899 9
21.099712 20.830262 46.545169 9
25.267465 21.894152 46.040949 9
29.489972 22.955835 45.529811 9
33.817030 23.964100 44.997120 9
38.185512 24.991705 44.462559 9
42.688244 25.943664 43.898898 9
48.683156 25.441338 42.908882 9
71.439592 8.291794 37.067675 5
75.758646 10.010596 36.643250 5
80.263476 11.602012 36.174990 5
84.939962 13.089418 35.668304 5
89.771968 14.496665 35.128979 5
94.784402 15.808911 34.551211 5
99.952334 17.057150 33.943125 5
105.439288 18.106038 33.261175 5
124.341226 7.776010 28.967208 6
129.485913 9.513945 28.437730 6
134.831837 11.158039 27.867122 6
140.498284 12.621449 27.225311 6
146.387249 13.996183 26.540004 6
89.084413 141.342563 53.423169 3
91.401781 144.185404 53.513155 3
99.312917 144.186016 52.373375 3
107.485389 144.208994 51.201123 3
116.051998 144.197696 49.968895 3
121.565229 145.800222 49.420198 0
130.328730 145.990588 48.193955 0
139.305812 146.251875 46.949835 0
148.985754 146.375256 45.586255 0
1.753826 -3.980414 50.842181 9
3.819391 -0.285497 50.985565 9
6.561094 2.481768 50.914218 9
9.594434 4.864255 50.753458 9
12.894158 6.917021 50.513928 9
16.347450 8.798164 50.232272 9
19.994133 10.471726 49.898049 9
23.746442 12.054319 49.538988 9
27.596162 13.562594 49.158428 9
31.597819 14.941550 48.741370 9
35.663281 16.298123 48.314401 9
39.866359 17.556063 47.856996 9
44.288122 18.637493 47.347362 9
90.057750 -3.959244 37.782581 5
92.261429 0.100890 37.991540 5
95.676074 2.985720 37.875754 5
99.652982 5.363919 37.615703 5
104.046449 7.398727 37.253655 5
146.451440 -4.784252 29.615589 6
148.321282 -0.020646 29.986951 6
96.689872 141.112738 56.601740 3
98.680167 144.193254 56.779736 3
106.841746 144.198068 55.689609 3
114.960193 144.380915 54.633302 0
120.744952 145.827620 54.074311 0
129.473645 146.007245 52.940866 0
138.514319 146.212126 51.772057 0
148.611455 146.124029 50.422520 0
158.048687 146.513603 49.233304 0
33.436135 -5.337816 50.704724 9
35.058933 -0.968825 50.986798 9
37.801046 2.049830 50.955565 9
41.033346 4.503995 50.791876 9
45.098102 6.049821 50.407195 9
104.575683 140.855798 59.882574 3
106.178698 144.199195 60.151175 3
112.981760 145.000457 59.425546 0
119.939462 145.850814 58.690447 0
128.667885 146.003986 57.642371 0
137.613411 146.224870 56.580070 0
147.433408 146.229530 55.382996 0
158.059810 146.075991 54.067918 0
167.532770 146.609875 52.994747 0
111.515495 136.971837 62.931781 0
111.233795 141.335302 63.549586 0
111.008775 145.622289 64.153729 0
119.181245 145.854149 63.264655 0
127.768312 146.047195 62.326762 0
136.727819 146.233733 61.349373 0
146.505230 146.228279 60.257367 0
156.782698 146.194508 59.109001 0
167.835374 146.032523 57.860026 0
177.447329 146.671053 56.886031 0
116.517622 138.347690 67.024916 0
117.422738 142.136332 67.423697 0
118.405448 145.868410 67.810632 0
127.099608 145.985552 66.938739 0
133.406499 147.353592 66.478551 0
145.610866 146.215138 65.090821 0
153.384608 147.232880 64.442720 0
166.474550 146.155055 62.981208 0
177.993146 145.978847 61.803231 0
187.826708 146.694276 60.919108 0
125.177504 137.979837 70.636639 0
126.099603 141.824277 71.034404 0
127.036332 145.643082 71.431548 0
135.585069 145.973588 70.692124 0
144.804402 146.165851 69.877878 0
154.778810 146.205015 68.979461 0
162.704691 147.297225 68.407053 0
176.533599 146.109262 67.009706 0
188.568942 145.909871 65.907597 0
134.163150 137.588039 74.387556 0
135.091627 141.496579 74.786939 0
136.057220 145.369743 75.183423 0
144.389772 145.944632 74.581746 0
153.815016 146.198437 73.856755 0
164.181790 146.231051 73.033312 0
173.254462 146.992565 72.409604 0
186.941088 146.073383 71.211511 0
199.530535 145.848190 70.193809 0
143.501074 137.167984 78.287339 0
144.436408 141.143741 78.689174 0
145.399404 145.089107 79.090402 0
153.506957 145.909463 78.621319 0
163.326665 146.150770 77.967999 0
173.920165 146.256783 77.249742 0
182.697649 147.291410 76.775752 0
197.555509 146.110636 75.616925 0
210.876239 145.803316 74.677256 0
153.183993 136.731787 82.350858 0
154.218681 140.736541 82.745729 0
155.149264 144.771141 83.155745 0
162.924472 145.880677 82.824733 0
