ply
format ascii 1.0
element vertex 1375
property float x
property float y
property float z
property int scalar_Label
end_header
13.048048 -41.395619 -21.012545 9
10.182394 -41.396852 -20.969245 9
7.320140 -41.406618 -20.926324 9
4.459659 -41.447043 -20.891732 9
1.603998 -41.464785 -20.846307 9
-1.250055 -41.509330 -20.807828 9
-4.100642 -41.526918 -20.756960 9
-6.949213 -41.521541 -20.695116 9
-9.797524 -41.548346 -20.642137 9
-12.645154 -41.592812 -20.592799 9
-15.492962 -41.578607 -20.519568 9
-18.340360 -41.642825 -20.471875 9
-21.189213 -41.667709 -20.407226 9
-24.040240 -41.678002 -20.334521 9
-26.884578 -41.863520 -20.322405 9
-29.737069 -41.907947 -20.256475 9
-32.594403 -41.924411 -20.177586 9
-35.451760 -41.988345 -20.113051 9
-38.318217 -41.992345 -20.023902 9
-41.213290 -41.770607 -19.849805 9
-44.170234 -41.096583 -19.508099 9
-47.220307 -39.835713 -18.949277 9
-50.359823 -38.156036 -18.233881 9
-53.559309 -36.356457 -17.470412 9
-56.796363 -34.610522 -16.722022 9
-64.698580 -4.932676 -5.756875 8
-65.375939 -19.927823 -11.115374 8
-65.879304 -34.226569 -16.227747 8
-68.901736 -34.260075 -16.115459 8
-71.908986 -34.419585 -16.046133 8
-74.955273 -34.441116 -15.922813 8
-78.015145 -34.458025 -15.794371 8
-81.080873 -34.506000 -15.673912 8
-84.166303 -34.528449 -15.540538 8
-87.263187 -34.562776 -15.407989 8
-90.376021 -34.593626 -15.270544 8
-93.497918 -34.648279 -15.138257 8
-96.650078 -34.654440 -14.984264 8
-99.794767 -34.743514 -14.857292 8
-102.969297 -34.791167 -14.711110 8
-106.345573 -34.278883 -14.352155 8
-110.557955 -31.391655 -13.101184 8
-115.180564 -27.579885 -11.496553 8
-119.109798 -25.989015 -10.715503 7
-122.468130 -26.089947 -10.563380 7
-125.869150 -26.137285 -10.386774 7
-130.309233 -23.622893 -9.240275 7
-132.710498 -26.316143 -10.051834 7
-136.192242 -26.348770 -9.856034 7
-139.689502 -26.409079 -9.665957 7
-143.216541 -26.464970 -9.469379 7
-146.767490 -26.531943 -9.272086 7
-150.323525 -26.651621 -9.089867 7
149.197453 -29.070136 -11.763941 6
145.436662 -29.025443 -11.852376 6
141.696976 -29.010278 -11.947271 6
138.019366 -28.944730 -12.018779 6
134.356494 -28.916904 -12.099972 6
130.736049 -28.870699 -12.169934 6
127.158197 -28.801917 -12.227187 6
123.579803 -28.799206 -12.304891 6
120.022750 -28.817144 -12.386128 6
116.519860 -28.780506 -12.442925 6
110.637077 -34.361156 -14.587200 5
107.757189 -33.120132 -14.186644 5
102.423975 -37.928783 -16.032729 5
99.125630 -37.913963 -16.080174 5
95.855736 -37.886556 -16.119256 5
92.588200 -37.913469 -16.174879 5
90.459015 -34.832250 -15.073007 5
86.131681 -37.936150 -16.263795 5
82.943294 -37.923070 -16.293901 5
79.777753 -37.899622 -16.316692 5
76.630809 -37.875743 -16.335893 5
73.486378 -37.901953 -16.370266 5
70.372134 -37.886533 -16.385838 5
67.276646 -37.862657 -16.394943 5
65.552020 -32.820037 -14.541288 5
65.602108 -20.568822 -10.014243 5
65.598408 -7.530456 -5.193001 5
55.456223 -36.026282 -15.753730 9
51.989072 -37.867604 -16.437461 9
48.562498 -39.760906 -17.137257 9
45.244897 -41.377529 -17.731456 9
42.092850 -42.378281 -18.094457 9
39.087289 -42.756731 -18.223876 9
36.169180 -42.735174 -18.202037 9
33.730623 -39.838653 -17.111650 9
30.798315 -39.824505 -17.086242 9
27.871090 -39.829352 -17.064804 9
24.953486 -39.818923 -17.034640 9
22.033020 -39.886664 -17.030415 9
18.792671 -42.881982 -18.109508 9
15.923934 -42.883681 -18.075070 9
13.059587 -42.893707 -18.040710 9
10.198361 -42.923891 -18.010828 9
7.342804 -42.939095 -17.972372 9
4.491050 -42.953289 -17.930529 9
1.642157 -42.973570 -17.887933 9
-1.203596 -42.983825 -17.838585 9
-4.048532 -43.033028 -17.800712 9
-6.890148 -43.026726 -17.739135 9
-9.731298 -43.028780 -17.677618 9
-12.572262 -43.056144 -17.622480 9
-15.413025 -43.089308 -17.566445 9
-18.254148 -43.119340 -17.506165 9
-21.096074 -43.152617 -17.444008 9
-23.939694 -43.178528 -17.375991 9
-26.786241 -43.188287 -17.298799 9
-29.631903 -43.260216 -17.241746 9
-32.482742 -43.291712 -17.166391 9
-35.338929 -43.302548 -17.080095 9
-38.197437 -43.338182 -16.999891 9
-41.094111 -43.049406 -16.794467 9
-44.047107 -42.369908 -16.438487 9
-47.087381 -41.152630 -15.876069 9
-50.222001 -39.474405 -15.135514 9
-53.393861 -37.834107 -14.404539 9
-56.621900 -36.106813 -13.635879 9
-64.702889 -5.351435 -1.878974 8
-65.398113 -20.254867 -7.387398 8
-65.789077 -35.166369 -12.908168 8
-68.749414 -35.511307 -12.907746 8
-71.777282 -35.552497 -12.788442 8
-74.820439 -35.576263 -12.658775 8
-77.878483 -35.589689 -12.521368 8
-80.945049 -35.623488 -12.387877 8
-84.030060 -35.638215 -12.243204 8
-87.126170 -35.666968 -12.099930 8
-90.229912 -35.723390 -11.963249 8
-93.357101 -35.751041 -11.811482 8
-96.494550 -35.800405 -11.663926 8
-99.655058 -35.829699 -11.504464 8
-102.830782 -35.868198 -11.344282 8
-106.178724 -35.438854 -10.999050 8
-110.349974 -32.672546 -9.744572 8
-115.014503 -28.740098 -8.029922 8
-118.957999 -27.108266 -7.198540 7
-122.309476 -27.223744 -7.039715 7
-125.717914 -27.248076 -6.840603 7
-129.110262 -27.375537 -6.676763 7
-132.572184 -27.390037 -6.463807 7
-136.037779 -27.460002 -6.267387 7
-139.536723 -27.514570 -6.059702 7
-143.090434 -27.509130 -5.823057 7
-146.652152 -27.553070 -5.600324 7
-150.256811 -27.570412 -5.361486 7
149.094049 -30.387574 -8.099606 6
145.318027 -30.373666 -8.220110 6
141.588396 -30.343184 -8.328955 6
137.898229 -30.305849 -8.430036 6
134.233349 -30.286853 -8.533226 6
130.623200 -30.225226 -8.614966 6
127.025779 -30.202962 -8.707135 6
123.472884 -30.152616 -8.783682 6
119.945704 -30.110925 -8.858913 6
116.432709 -30.102276 -8.942316 6
110.338894 -36.158116 -11.361994 5
105.715710 -39.109263 -12.576422 5
102.255160 -39.436602 -12.773652 5
98.976693 -39.385562 -12.820752 5
95.705609 -39.374945 -12.879292 5
92.462399 -39.351040 -12.928632 5
89.231449 -39.353521 -12.984091 5
86.026716 -39.342556 -13.030392 5
82.860518 -39.277861 -13.052111 5
79.679227 -39.315735 -13.109352 5
76.544566 -39.268793 -13.130164 5
73.421259 -39.241176 -13.154596 5
70.297118 -39.274099 -13.198493 5
67.206040 -39.251846 -13.217479 5
65.607265 -33.783626 -11.143921 5
65.610675 -21.762293 -6.554441 5
65.604104 -8.798206 -1.601179 5
55.460242 -37.194017 -12.501940 9
52.006753 -38.979374 -13.195742 9
48.539892 -41.060069 -13.999097 9
45.233756 -42.635021 -14.605015 9
42.093847 -43.589617 -14.969653 9
39.096606 -43.940565 -15.099462 9
36.163932 -44.021132 -15.122206 9
33.262033 -43.981086 -15.095302 9
30.366641 -43.949417 -15.068211 9
27.470226 -43.976245 -15.060166 9
24.585434 -43.975941 -15.038341 9
21.704968 -43.996237 -15.021054 9
18.834072 -43.991062 -14.990634 9
15.965072 -44.022174 -14.970788 9
13.107928 -43.987131 -14.922190 9
10.250078 -44.007975 -14.891703 9
7.396795 -44.027002 -14.857172 9
4.547726 -44.039931 -14.816949 9
1.702384 -44.041665 -14.769069 9
-1.140664 -44.045382 -14.718591 9
-3.981723 -44.044868 -14.663117 9
-6.822333 -44.083127 -14.619207 9
-9.661433 -44.116889 -14.570193 9
-12.499739 -44.082626 -14.491560 9
-15.338282 -44.130719 -14.441288 9
-18.177288 -44.155748 -14.378709 9
-21.017406 -44.177340 -14.311375 9
-23.859287 -44.195651 -14.239327 9
-26.703189 -44.218301 -14.165491 9
-29.548747 -44.257998 -14.094776 9
-32.398947 -44.273863 -14.011324 9
-35.252458 -44.297682 -13.927425 9
-38.110915 -44.315296 -13.837560 9
-40.991110 -44.171441 -13.681332 9
-43.932523 -43.567891 -13.342474 9
-46.967319 -42.365557 -12.766231 9
-50.109578 -40.603542 -11.967072 9
-53.289443 -38.889809 -11.181539 9
-56.519104 -37.140986 -10.377002 9
-64.697092 -5.833661 1.997157 8
-65.411581 -20.634074 -3.655957 8
-65.767907 -35.737654 -9.437450 8
-68.669596 -36.395413 -9.557267 8
-71.706661 -36.392312 -9.413816 8
-74.745763 -36.436876 -9.284968 8
-77.807494 -36.435691 -9.133924 8
-80.875517 -36.465653 -8.990906 8
-83.954033 -36.508771 -8.848796 8
-87.045864 -36.555312 -8.703703 8
-90.149330 -36.613612 -8.558875 8
-93.282649 -36.620747 -8.389285 8
-96.425175 -36.654883 -8.225854 8
-99.585546 -36.687352 -8.057143 8
-102.774757 -36.686140 -7.870302 8
-106.146836 -36.188740 -7.480348 8
-110.277081 -33.556176 -6.230042 8
-115.053270 -29.318268 -4.327227 8
-118.939277 -27.861752 -3.530601 7
-122.339714 -27.854102 -3.309689 7
-125.740979 -27.908537 -3.108381 7
-129.172245 -27.948648 -2.895845 7
-132.637212 -27.968954 -2.669725 7
-136.129203 -27.989282 -2.437905 7
-139.653705 -27.999306 -2.196074 7
-143.202139 -28.021416 -1.953208 7
-146.826648 -27.943195 -1.663321 7
-150.448111 -27.942978 -1.398978 7
149.262462 -31.217383 -4.237242 6
145.503375 -31.163149 -4.362395 6
141.775145 -31.120127 -4.486277 6
138.066710 -31.108042 -4.616923 6
134.427340 -31.029342 -4.715175 6
130.792178 -31.008020 -4.831021 6
127.189732 -30.986826 -4.941516 6
123.612347 -30.979691 -5.052337 6
120.075317 -30.951790 -5.149612 6
116.544368 -30.976195 -5.262686 6
110.395665 -37.129369 -7.820753 5
105.736016 -40.153188 -9.119877 5
102.246061 -40.551250 -9.364307 5
98.960004 -40.521936 -9.433364 5
95.691875 -40.507073 -9.503586 5
92.445181 -40.496239 -9.570871 5
89.224816 -40.473886 -9.629089 5
86.033964 -40.427383 -9.673277 5
82.843508 -40.437771 -9.735734 5
79.685354 -40.411103 -9.779133 5
76.545247 -40.385970 -9.818878 5
73.421999 -40.363898 -9.855618 5
70.312233 -40.354141 -9.893069 5
67.212035 -40.369332 -9.936282 5
65.518567 -35.278254 -7.949583 5
65.565068 -23.163952 -3.174278 5
65.558343 -10.272124 1.911293 5
55.518768 -38.134919 -9.158482 9
52.042186 -40.014553 -9.920724 9
48.609109 -41.937765 -10.696092 9
45.281573 -43.608033 -11.367169 9
42.144576 -44.548334 -11.745027 9
39.145750 -44.910795 -11.890055 9
36.224385 -44.932550 -11.896274 9
33.308764 -44.978506 -11.908319 9
30.416486 -44.935958 -11.881535 9
27.524875 -44.938597 -11.868923 9
24.640899 -44.940538 -11.852309 9
21.762260 -44.955455 -11.837125 9
18.893120 -44.944971 -11.808161 9
16.028052 -44.948604 -11.781096 9
13.166699 -44.968770 -11.756897 9
10.308001 -45.017696 -11.740428 9
7.460207 -44.984924 -11.687835 9
4.612633 -44.994064 -11.648193 9
1.922997 -41.976357 -10.401798 9
-0.952461 -42.044293 -10.377593 9
-3.913428 -45.012145 -11.503382 9
-6.752246 -45.031807 -11.453129 9
-9.589858 -45.040644 -11.394852 9
-12.427148 -45.044230 -11.330753 9
-15.264674 -45.057482 -11.266764 9
-18.103078 -45.061702 -11.195418 9
-20.942453 -45.080680 -11.126189 9
-23.783368 -45.103038 -11.054525 9
-26.627027 -45.114193 -10.974579 9
-29.473081 -45.134368 -10.894411 9
-32.323721 -45.137133 -10.803420 9
-35.178368 -45.142845 -10.709725 9
-38.034705 -45.181534 -10.625349 9
-40.913199 -45.050688 -10.468964 9
-43.861900 -44.379274 -10.091172 9
-46.894411 -43.198596 -9.503875 9
-50.028095 -41.502946 -8.704066 9
-53.205042 -39.807887 -7.898907 9
-56.441740 -38.012173 -7.047404 9
-64.698114 -6.277330 5.911585 8
-65.414124 -21.077908 0.073137 8
-65.769058 -36.191876 -5.902084 8
-68.637056 -37.041824 -6.101267 8
-71.680473 -37.020522 -5.942923 8
-74.720956 -37.071511 -5.809413 8
-77.784088 -37.076405 -5.652578 8
-80.856844 -37.098285 -5.498010 8
-83.935518 -37.152431 -5.351917 8
-87.042749 -37.151345 -5.178497 8
-90.157884 -37.179720 -5.012280 8
-93.281838 -37.233500 -4.851587 8
-96.443183 -37.215782 -4.656562 8
-99.608946 -37.244198 -4.475415 8
-102.806135 -37.231483 -4.272171 8
-106.207592 -36.659913 -3.832777 8
-110.464712 -33.677655 -2.389532 8
-115.219109 -29.539310 -0.457023 8
-119.122629 -28.062746 0.381850 7
-122.541797 -28.030261 0.627875 7
-125.985105 -28.001465 0.878342 7
-129.407263 -28.091903 1.085080 7
-132.904920 -28.058452 1.349689 7
-136.406075 -28.084161 1.595813 7
-139.963070 -28.046157 1.875081 7
-143.548376 -28.013537 2.158684 7
-147.168476 -27.974129 2.451884 7
-150.842156 -27.891039 2.770462 7
149.731892 -31.513362 -0.135155 6
145.952740 -31.473893 -0.287348 6
142.183563 -31.486039 -0.454654 6
138.472516 -31.458611 -0.599102 6
134.777932 -31.468222 -0.752774 6
131.142682 -31.428644 -0.879869 6
127.516136 -31.438515 -1.021542 6
123.926316 -31.439715 -1.153716 6
120.352478 -31.474399 -1.293976 6
116.832944 -31.456880 -1.406899 6
110.701621 -37.528679 -4.033227 5
105.861039 -40.950777 -5.554360 5
102.436076 -41.181412 -5.749853 5
99.122827 -41.208498 -5.856037 5
95.845405 -41.207446 -5.945513 5
92.581478 -41.232826 -6.040862 5
89.360929 -41.202457 -6.108297 5
86.150059 -41.204258 -6.184101 5
82.956952 -41.215272 -6.258869 5
79.792026 -41.202287 -6.319009 5
76.647655 -41.184238 -6.372367 5
73.523810 -41.158123 -6.417767 5
70.409368 -41.158098 -6.469278 5
67.317657 -41.137712 -6.507880 5
65.565917 -36.273575 -4.555948 5
65.570995 -24.368762 0.284991 5
65.572579 -11.506907 5.519748 5
55.691373 -38.604653 -5.613343 9
52.177465 -40.617379 -6.462721 9
48.735219 -42.559058 -7.278347 9
45.403373 -44.228478 -7.977970 9
42.249425 -45.235882 -8.402175 9
39.248179 -45.598698 -8.558253 9
36.326126 -45.613063 -8.567522 9
33.413819 -45.626819 -8.572409 9
30.512790 -45.626060 -8.567240 9
27.620727 -45.619415 -8.555564 9
24.732393 -45.639995 -8.550952 9
21.854428 -45.636429 -8.532383 9
18.982939 -45.631142 -8.509049 9
16.114974 -45.646598 -8.490159 9
13.256894 -45.615090 -8.447982 9
10.400355 -45.613072 -8.413844 9
7.547170 -45.620270 -8.379445 9
4.697252 -45.633563 -8.343510 9
1.850190 -45.653722 -8.306356 9
-0.993714 -45.664968 -8.261507 9
-3.835939 -45.688166 -8.217522 9
-6.675633 -45.672929 -8.153696 9
-9.515391 -45.701638 -8.103867 9
-12.354408 -45.722653 -8.046810 9
-15.193194 -45.763499 -7.993838 9
-18.033870 -45.718146 -7.901274 9
-20.873966 -45.771024 -7.845056 9
-23.718425 -45.741794 -7.750858 9
-26.562773 -45.777539 -7.679302 9
-29.408562 -45.829658 -7.610350 9
-32.258109 -45.866800 -7.531030 9
-35.112004 -45.894291 -7.443505 9
-37.972586 -45.896298 -7.341179 9
-40.861893 -45.672845 -7.141076 9
-43.813976 -44.991750 -6.746526 9
-46.861957 -43.706732 -6.096132 9
-49.993118 -42.057858 -5.288869 9
-53.177597 -40.334584 -4.444652 9
-56.436459 -38.421609 -3.515192 9
-64.698410 -6.728109 9.848080 8
-65.486255 -21.131191 3.988796 8
-65.699351 -37.026499 -2.504404 8
-68.667029 -37.375050 -2.497697 8
-71.703072 -37.417563 -2.358125 8
-74.752713 -37.451092 -2.209879 8
-77.831239 -37.413509 -2.026754 8
-80.902691 -37.466196 -1.876526 8
-84.003700 -37.455078 -1.694305 8
-87.124437 -37.428132 -1.500165 8
-90.243994 -37.466142 -1.328182 8
-93.393882 -37.453740 -1.129514 8
-96.556484 -37.458542 -0.932681 8
-99.733499 -37.475654 -0.735551 8
-103.910039 -34.418563 0.776646 8
-106.357194 -36.865999 -0.049647 8
-110.791854 -33.396577 1.655536 8
-116.071780 -27.821667 4.273976 7
-119.532018 -27.649790 4.589156 7
-122.972598 -27.604737 4.856431 7
-126.438481 -27.561719 5.129362 7
-129.897976 -27.602186 5.372906 7
-133.431414 -27.526331 5.673405 7
-136.986416 -27.469915 5.972453 7
-140.582809 -27.388280 6.289540 7
-144.205639 -27.319247 6.608415 7
-147.859214 -27.254879 6.932660 7
-151.562333 -27.157501 7.278902 7
150.554680 -31.188943 4.269005 6
146.732884 -31.190131 4.077421 6
142.918796 -31.249679 3.867763 6
139.182984 -31.234307 3.697487 6
135.458068 -31.268043 3.512895 6
131.801351 -31.236858 3.362996 6
128.170268 -31.221074 3.213047 6
124.541386 -31.269109 3.042178 6
120.964952 -31.274327 2.896080 6
117.427513 -31.260794 2.764275 6
111.545494 -36.699813 0.306474 5
106.215118 -41.211491 -1.744332 5
102.657611 -41.740463 -2.085470 5
99.349503 -41.740295 -2.194858 5
96.060499 -41.753994 -2.304580 5
92.798831 -41.758553 -2.404907 5
89.562391 -41.756457 -2.496981 5
86.335405 -41.789285 -2.598557 5
83.159645 -41.735814 -2.658177 5
79.982223 -41.744754 -2.739112 5
76.845556 -41.687272 -2.786712 5
73.712021 -41.675779 -2.848751 5
70.593004 -41.674513 -2.910096 5
67.496297 -41.654739 -2.958620 5
65.643640 -37.160953 -1.107776 5
65.626458 -25.387038 3.827858 5
65.573088 -12.797706 9.109866 5
55.917503 -38.860001 -1.955265 9
52.407227 -40.816910 -2.815787 9
48.927171 -42.886952 -3.718977 9
46.388987 -40.729199 -2.830119 9
42.411939 -45.638348 -4.923474 9
39.378993 -46.140838 -5.149604 9
36.437863 -46.242565 -5.201831 9
33.527265 -46.230553 -5.201494 9
30.620793 -46.246734 -5.208587 9
27.727365 -46.231883 -5.198107 9
24.837002 -46.248102 -5.196309 9
21.958002 -46.231957 -5.176405 9
19.081984 -46.242749 -5.163466 9
16.213828 -46.235984 -5.138697 9
13.349206 -46.245927 -5.116592 9
10.490310 -46.245526 -5.085719 9
7.636043 -46.237617 -5.047279 9
4.784090 -46.246452 -5.011533 9
1.933995 -46.279944 -4.981840 9
-0.908828 -46.212949 -4.905202 9
-3.755861 -46.294767 -4.887202 9
-6.597313 -46.251864 -4.811954 9
-9.439596 -46.270933 -4.758561 9
-12.281326 -46.287014 -4.699484 9
-15.123943 -46.221337 -4.601255 9
-17.967409 -46.227719 -4.529159 9
-20.812874 -46.214097 -4.444088 9
-23.660936 -46.194729 -4.352071 9
-26.509356 -46.227546 -4.277750 9
-29.361579 -46.239644 -4.190082 9
-32.221588 -46.192607 -4.072632 9
-35.078856 -46.243186 -3.992228 9
-37.946030 -46.228737 -3.879450 9
-40.832548 -46.083224 -3.705942 9
-43.788054 -45.411910 -3.302500 9
-46.833304 -44.185662 -2.655899 9
-49.990242 -42.376288 -1.753210 9
-53.206455 -40.475890 -0.804858 9
-56.462414 -38.633147 0.125501 9
-64.700116 -7.173299 13.813190 8
-65.541798 -21.282172 7.897369 8
-65.825969 -36.817755 1.356144 8
-68.753435 -37.427459 1.253088 8
-71.809970 -37.415213 1.423766 8
-74.869219 -37.449182 1.579793 8
-77.954310 -37.425705 1.766137 8
-81.043585 -37.444931 1.939450 8
-84.160371 -37.411871 2.141070 8
-87.276671 -37.441884 2.320888 8
-90.430479 -37.391845 2.541350 8
-93.589314 -37.387235 2.747829 8
-96.761325 -37.398104 2.953439 8
-99.949117 -37.416834 3.161576 8
-103.196893 -37.306833 3.432370 8
-106.697278 -36.502158 4.015492 8
-111.415729 -32.257170 6.124338 8
-116.736764 -26.648819 8.849588 7
-120.192099 -26.560212 9.146068 7
-125.062078 -22.794000 11.082026 7
-127.178923 -26.393658 9.755538 7
-130.713311 -26.312734 10.070105 7
-134.318140 -26.132066 10.436667 7
-137.940924 -25.986047 10.795501 7
-141.575185 -25.889121 11.140180 7
-145.308384 -25.645227 11.558900 7
-149.071010 -25.419113 11.978026 7
147.933400 -30.156586 8.829287 6
144.076605 -30.240400 8.585278 6
140.272715 -30.300086 8.359814 6
136.488810 -30.395583 8.125998 6
132.782679 -30.411236 7.935181 6
129.103575 -30.442624 7.744628 6
125.437592 -30.517827 7.541779 6
121.816265 -30.569531 7.356397 6
118.229443 -30.615869 7.180295 6
112.930022 -34.651384 5.248173 5
106.773987 -40.999101 2.305999 5
103.108635 -41.750265 1.843925 5
99.773590 -41.786562 1.703601 5
96.473733 -41.798107 1.580280 5
93.219155 -41.753439 1.487672 5
89.975590 -41.738374 1.387931 5
86.728363 -41.794782 1.262633 5
83.533623 -41.763668 1.181508 5
80.342241 -41.781615 1.084537 5
77.177622 -41.778245 1.002519 5
74.039718 -41.748796 0.937454 5
70.906950 -41.760166 0.859996 5
67.790572 -41.775215 0.786355 5
65.581379 -38.560074 2.129601 5
65.550061 -26.906887 7.162382 5
65.576406 -14.078974 12.709099 5
56.257124 -38.657070 1.932090 9
52.691785 -40.789835 0.960411 9
50.156662 -38.530428 1.910129 9
45.806081 -44.730250 -0.824143 9
42.625637 -45.792372 -1.312369 9
39.584184 -46.296065 -1.552059 9
36.635115 -46.398429 -1.611862 9
33.710182 -46.426314 -1.634312 9
30.802511 -46.404425 -1.630211 9
27.900742 -46.395373 -1.626865 9
24.999422 -46.437822 -1.641143 9
22.110544 -46.444334 -1.634958 9
19.230507 -46.431227 -1.615434 9
16.350746 -46.468962 -1.613296 9
13.483302 -46.440234 -1.577420 9
10.620308 -46.407322 -1.534954 9
7.758062 -46.411203 -1.503777 9
4.900254 -46.402287 -1.462264 9
2.045100 -46.396175 -1.417222 9
-0.807957 -46.394670 -1.369435 9
-3.659346 -46.398089 -1.319041 9
-6.509336 -46.399717 -1.263100 9
-9.358343 -46.381068 -1.193519 9
-12.207591 -46.400963 -1.136010 9
-15.057122 -46.390333 -1.060347 9
-17.907296 -46.406259 -0.991498 9
-20.758747 -46.419324 -0.916571 9
-23.612356 -46.423987 -0.833112 9
-26.470100 -46.397802 -0.731238 9
-29.330594 -46.388032 -0.631656 9
-32.192866 -46.408975 -0.540642 9
-35.059963 -46.419023 -0.439888 9
-37.935097 -46.393496 -0.318479 9
-40.828834 -46.246679 -0.138537 9
-43.793533 -45.557737 0.285882 9
-46.869646 -44.143893 1.036326 9
-50.033536 -42.354868 1.959224 9
-53.262036 -40.436516 2.946394 9
-56.569113 -38.330726 4.023948 9
-64.696703 -7.652205 17.791089 8
-65.574033 -21.568430 11.779716 8
-66.455350 -33.942650 6.444763 8
-68.927658 -37.042926 5.233254 8
-71.999383 -37.024301 5.415306 8
-75.062013 -37.106460 5.558140 8
-78.170818 -37.039381 5.773506 8
-81.284737 -37.015513 5.975533 8
-84.414648 -36.989155 6.184727 8
-87.553968 -36.988282 6.388600 8
-90.726497 -36.926129 6.626254 8
-93.905442 -36.905946 6.851349 8
-97.103146 -36.884178 7.083563 8
-100.325983 -36.842932 7.331099 8
-103.616937 -36.652685 7.652840 8
-107.269972 -35.445737 8.443475 8
-112.434820 -29.979102 11.181923 8
-117.673193 -24.723947 13.840695 7
-121.223686 -24.469814 14.230916 7
-124.827528 -24.155798 14.656502 7
-128.417365 -23.962567 15.034871 7
-132.077522 -23.672355 15.465983 7
-135.756993 -23.419326 15.888456 7
-139.482007 -23.141413 16.331026 7
-143.245534 -22.859334 16.784361 7
-147.108565 -22.440758 17.310092 7
-151.064169 -21.914263 17.895586 7
149.850316 -27.847112 14.246963 6
145.903132 -28.011716 13.940246 6
142.003544 -28.167623 13.646187 6
138.145264 -28.323735 13.360491 6
134.299939 -28.534004 13.058205 6
130.537812 -28.656122 12.804545 6
126.849105 -28.700999 12.594181 6
123.124019 -28.896805 12.322456 6
119.474220 -29.005759 12.098122 6
115.730486 -29.403625 11.749454 5
107.759367 -39.799986 6.852383 5
103.765563 -41.274602 6.034034 5
100.375501 -41.402083 5.836377 5
97.073547 -41.375725 5.715314 5
93.786188 -41.372587 5.590194 5
90.519234 -41.376639 5.468223 5
87.296780 -41.318416 5.380781 5
84.072886 -41.322566 5.271307 5
80.843051 -41.406552 5.131898 5
77.651396 -41.439092 5.021872 5
74.467083 -41.511301 4.899965 5
71.320707 -41.522702 4.811474 5
68.191587 -41.535326 4.728310 5
65.554758 -39.830424 5.424973 5
65.575364 -28.043487 10.667719 5
65.571416 -15.394811 16.299081 5
56.695807 -38.061316 6.039304 9
53.101303 -40.238260 5.010466 9
49.558088 -42.456397 3.969400 9
46.120678 -44.459360 3.031200 9
42.881490 -45.746741 2.420518 9
39.815007 -46.326947 2.133216 9
36.866032 -46.377187 2.089412 9
33.929928 -46.414105 2.056876 9
31.018487 -46.356298 2.072138 9
28.106034 -46.353547 2.067896 9
25.199040 -46.366840 2.061651 9
22.299536 -46.379296 2.060966 9
19.403856 -46.417247 2.053997 9
16.521432 -46.392919 2.080155 9
13.643881 -46.368010 2.111719 9
10.766153 -46.395402 2.124917 9
7.896996 -46.370775 2.166619 9
5.030232 -46.356932 2.208602 9
2.164142 -46.381959 2.238228 9
-0.696386 -46.345793 2.300504 9
-3.557472 -46.362114 2.344293 9
-6.417130 -46.388609 2.388628 9
-9.275184 -46.387344 2.450600 9
-12.133049 -46.337658 2.539557 9
-14.991806 -46.343653 2.608589 9
-17.850860 -46.376526 2.670670 9
-20.712439 -46.353901 2.763001 9
-23.576829 -46.325210 2.863312 9
-26.443846 -46.308943 2.963271 9
-29.311205 -46.345142 3.044766 9
-32.186431 -46.314575 3.161788 9
-35.062122 -46.339306 3.259095 9
-37.943554 -46.350179 3.368043 9
-40.857723 -46.096245 3.602688 9
-43.835434 -45.385841 4.050591 9
-46.917959 -44.008559 4.808237 9
-50.129852 -41.944123 5.885945 9
-53.399766 -39.836995 6.990885 9
-56.741612 -37.612119 8.157588 9
-64.701592 -8.084511 21.818586 8
-65.643900 -21.646688 15.789031 8
-66.077831 -36.423100 9.193180 8
-69.162882 -36.358485 9.399095 8
-72.258186 -36.309621 9.604008 8
-75.361052 -36.289500 9.801984 8
-78.488714 -36.222798 10.027774 8
-81.637100 -36.135514 10.269554 8
-84.788658 -36.102351 10.492905 8
-87.967782 -36.027285 10.742287 8
-91.142536 -36.033780 10.960596 8
-95.398716 -32.335659 12.907776 8
-97.571938 -35.953601 11.460946 8
-100.846393 -35.814881 11.767631 8
-104.161568 -35.620365 12.107714 8
-108.092722 -33.649504 13.287204 8
-114.348269 -25.121077 17.554619 8
-119.606057 -20.015773 20.236263 7
-123.395147 -19.296055 20.869457 7
-127.201876 -18.641257 21.481572 7
-131.072627 -17.929908 22.130092 7
-134.760045 -17.783485 22.520675 7
-138.401005 -17.826153 22.830348 7
-142.087824 -17.828387 23.168014 7
-145.801527 -17.839197 23.510576 7
-149.557947 -17.825345 23.874098 7
148.974909 -23.514621 20.489789 6
144.884964 -23.888125 20.063902 6
140.871826 -24.205740 19.674191 6
136.907981 -24.515019 19.297771 6
133.028453 -24.741042 18.969894 6
129.163889 -25.019630 18.625995 6
125.369586 -25.233402 18.321411 6
121.613148 -25.445835 18.025926 6
117.908680 -25.622088 17.755777 6
109.660982 -36.483222 12.470851 5
104.743189 -40.043995 10.633899 5
101.278232 -40.288289 10.363548 5
97.924584 -40.328184 10.196359 5
94.600097 -40.357848 10.041043 5
91.314105 -40.348509 9.910929 5
88.041671 -40.363629 9.776228 5
84.775083 -40.425450 9.626504 5
81.542057 -40.453329 9.499316 5
78.320392 -40.509802 9.365409 5
75.119564 -40.564951 9.238656 5
71.946332 -40.593438 9.130763 5
68.794632 -40.610396 9.034594 5
65.655676 -40.643291 8.937312 5
65.535401 -29.427618 14.067870 5
65.557145 -16.748931 19.877790 5
57.354539 -36.584162 10.610714 9
53.615433 -39.256455 9.313732 9
50.033856 -41.543297 8.202406 9
46.514556 -43.829532 7.098081 9
43.223443 -45.286386 6.384320 9
40.140405 -45.873965 6.079108 9
37.151322 -46.066655 5.962505 9
34.207062 -46.075843 5.936530 9
31.273888 -46.073244 5.921661 9
28.349502 -46.067630 5.913810 9
25.431728 -46.069692 5.908006 9
22.526688 -46.028231 5.927916 9
19.615737 -46.086688 5.907159 9
16.722178 -46.048762 5.936535 9
13.826042 -46.086105 5.936615 9
10.940343 -46.066061 5.968768 9
8.058570 -46.044168 6.007293 9
5.176764 -46.072555 6.028047 9
2.301575 -46.045117 6.080157 9
-0.572806 -46.043222 6.125943 9
-3.445407 -46.043750 6.176115 9
-6.316616 -46.041880 6.232913 9
-9.186530 -45.989937 6.318468 9
-12.057384 -45.973241 6.393220 9
-14.929007 -45.952763 6.475286 9
-17.801048 -45.981404 6.540100 9
-20.675535 -45.959865 6.633820 9
-23.553213 -45.922684 6.740441 9
-26.432327 -45.925073 6.834292 9
-29.313565 -45.945081 6.925590 9
-32.200839 -45.928752 7.039515 9
-35.091695 -45.926759 7.152485 9
-37.993268 -45.863828 7.299697 9
-40.937002 -45.460656 7.611924 9
-43.922151 -44.823432 8.039969 9
-47.034978 -43.325022 8.878211 9
-50.304494 -40.958425 10.131350 9
-53.609642 -38.748101 11.319650 9
-57.031294 -36.151119 12.698425 9
-64.697404 -8.574450 25.849966 8
-65.673913 -21.953308 19.729542 8
-66.410872 -35.137031 13.691631 8
-69.516087 -35.090520 13.898691 8
-72.638587 -35.025151 14.121359 8
-75.776927 -34.953407 14.353837 8
-78.942186 -34.831594 14.616974 8
-82.119058 -34.732388 14.876408 8
-85.273660 -34.788971 15.068739 8
-88.509896 -34.593350 15.388384 8
-91.746984 -34.470712 15.680619 8
-95.020678 -34.291154 16.007578 8
-98.294482 -34.185802 16.306628 8
-101.610470 -34.013759 16.645409 8
-105.060567 -33.499288 17.156999 8
-109.753847 -29.355172 19.428407 8
106.345321 -37.341254 16.025418 5
104.635532 -33.149562 17.878587 5
99.135962 -38.386658 15.182069 5
95.754530 -38.472410 14.983531 5
92.404755 -38.542334 14.800221 5
89.077347 -38.618190 14.621527 5
85.779968 -38.675920 14.458920 5
82.481931 -38.802439 14.270524 5
79.206017 -38.932140 14.087817 5
75.978975 -38.977152 13.952839 5
72.759840 -39.061017 13.806211 5
70.932133 -34.420042 15.928577 5
67.699498 -34.501219 15.795424 5
65.493875 -30.818789 17.468630 5
65.464048 -18.411867 23.315498 5
58.224988 -34.271446 15.662910 9
54.363457 -37.300317 14.149585 9
51.936953 -34.279206 15.530827 9
47.052979 -42.539880 11.536483 9
43.651362 -44.418097 10.594441 9
40.534431 -45.079776 10.239038 9
37.517945 -45.322228 10.089727 9
34.551467 -45.358569 10.044768 9
31.599713 -45.364636 10.020304 9
28.657330 -45.365671 10.004276 9
25.726269 -45.341877 10.006083 9
22.798355 -45.346380 10.000400 9
19.882708 -45.303617 10.023194 9
16.964328 -45.334953 10.016645 9
14.053720 -45.348911 10.024305 9
11.153546 -45.300810 10.067450 9
8.249827 -45.343671 10.073171 9
5.355299 -45.314614 10.119066 9
2.462467 -45.300165 10.163906 9
-0.429448 -45.315489 10.200455 9
-3.317256 -45.274088 10.269966 9
-6.205028 -45.252692 10.335856 9
-9.092376 -45.222822 10.411722 9
-11.980187 -45.216115 10.482467 9
-14.868491 -45.212910 10.557487 9
-17.757855 -45.208063 10.639259 9
-20.649573 -45.179450 10.738392 9
-23.545484 -45.114379 10.861012 9
-26.443038 -45.096859 10.966920 9
-29.343760 -45.087250 11.075110 9
-32.248403 -45.079743 11.188394 9
-35.159997 -45.043986 11.321391 9
-38.076616 -45.016651 11.456539 9
-41.016903 -44.821005 11.678951 9
-44.068731 -43.739666 12.334617 9
-47.239351 -41.945499 13.341564 9
-50.574142 -39.276665 14.779212 9
-53.954136 -36.744292 16.160333 9
-57.465483 -33.776740 17.761646 9
-64.701951 -9.015639 29.935946 8
-65.724113 -22.150700 23.757257 8
-67.800076 -28.276433 20.975170 8
-70.045435 -32.951564 18.898003 8
-73.209690 -32.846643 19.150946 8
-76.395895 -32.712601 19.425448 8
-79.598616 -32.580058 19.706703 8
-82.833245 -32.388761 20.024308 8
-86.078679 -32.232151 20.332692 8
-89.369752 -31.977929 20.696868 8
-92.667092 -31.782784 21.040107 8
-95.993295 -31.564390 21.402965 8
-99.336791 -31.366754 21.763904 8
-102.726758 -31.096647 22.169133 8
-106.538501 -29.601828 23.190226 8
111.410402 -17.697369 29.787770 5
100.899210 -35.078585 20.948758 5
97.436257 -35.240860 20.693920 5
93.969399 -35.489162 20.404719 5
90.582811 -35.595563 20.194139 5
87.203564 -35.752281 19.966654 5
83.850799 -35.905022 19.749080 5
80.523321 -36.054287 19.541050 5
77.245499 -36.119352 19.382308 5
73.984603 -36.196010 19.225391 5
70.751170 -36.246655 19.088758 5
67.532025 -36.312298 18.952093 5
65.577641 -31.745920 21.102638 5
65.252239 -20.534562 26.526095 5
64.722170 -9.209711 32.006043 5
55.423400 -34.052626 19.716802 9
51.498667 -37.498537 17.955182 9
47.739017 -40.585532 16.378213 9
44.237912 -42.790430 15.242105 9
41.012946 -43.867243 14.666801 9
37.985152 -44.044573 14.539506 9
34.997493 -44.067223 14.494637 9
32.020949 -44.081234 14.460516 9
29.049275 -44.122274 14.419626 9
26.089922 -44.138337 14.397423 9
23.146655 -44.088902 14.413732 9
20.201599 -44.103123 14.405243 9
17.264282 -44.105083 14.409135 9
14.327881 -44.155300 14.395735 9
11.405525 -44.111473 14.434763 9
8.481570 -44.134059 14.447575 9
5.565051 -44.106635 14.491226 9
2.648503 -44.126997 14.517768 9
-0.264167 -44.126605 14.560804 9
-3.175359 -44.140490 14.603154 9
-6.082862 -44.065016 14.695696 9
-8.992111 -44.067531 14.756298 9
-11.901015 -44.017681 14.848979 9
-14.810815 -44.028003 14.918461 9
-17.722787 -43.964581 15.030598 9
-20.636879 -43.926768 15.136568 9
-23.551769 -43.941870 15.222919 9
-26.474053 -43.858886 15.364071 9
-29.398730 -43.819464 15.490276 9
-32.331462 -43.733967 15.645784 9
-35.264212 -43.724826 15.770186 9
-38.612312 -39.309161 18.081083 9
-41.201768 -43.170753 16.304166 9
-44.267454 -42.203336 16.923793 9
-47.541175 -39.791256 18.268048 9
-50.947797 -36.834947 19.892150 9
-54.498037 -33.386395 21.771425 9
-58.268096 -29.067225 24.095451 9
-64.701919 -9.487793 34.040372 8
-65.786754 -22.282943 27.856297 8
-67.629406 -29.677319 24.362693 8
-70.842265 -29.490687 24.661483 8
-74.071735 -29.304961 24.967740 8
-77.402266 -28.743404 25.470720 8
-80.680771 -28.518775 25.812990 8
-83.986131 -28.265851 26.177832 8
-87.337734 -27.915568 26.600282 8
-90.732402 -27.495156 27.066963 8
-94.161033 -27.048937 27.555767 8
-97.608036 -26.636895 28.036496 8
-101.068845 -26.273361 28.501934 8
-104.775023 -25.213896 29.331128 8
104.965373 -26.014087 29.807745 5
100.758271 -27.792396 28.702494 5
97.072522 -28.355322 28.229311 5
93.410470 -28.956085 27.746274 5
89.877190 -29.295291 27.405865 5
86.383603 -29.606106 27.088781 5
82.925288 -29.896104 26.790985 5
79.409854 -30.452883 26.366181 5
76.021409 -30.698055 26.108236 5
72.679885 -30.865711 25.897868 5
69.349359 -31.071104 25.676461 5
66.046007 -31.256023 25.473441 5
65.055387 -22.595590 29.754920 5
64.711434 -10.615657 35.717404 5
57.601555 -26.129393 27.783261 9
52.820122 -32.917191 24.274004 9
48.752537 -37.139842 22.070999 9
45.017048 -40.248138 20.439704 9
41.678498 -41.712270 19.646407 9
38.547929 -42.269380 19.318192 9
35.533919 -42.276124 19.274675 9
32.518712 -42.349557 19.204514 9
29.524768 -42.350092 19.178045 9
26.544328 -42.311968 19.177957 9
23.559185 -42.362029 19.140300 9
20.587969 -42.361164 19.135151 9
17.623925 -42.351302 19.141359 9
14.664645 -42.347990 19.151068 9
11.713300 -42.309814 19.185136 9
8.762718 -42.308881 19.207213 9
5.816008 -42.306369 19.236854 9
2.872680 -42.299325 19.275542 9
-0.065697 -42.235331 19.349720 9
-3.004871 -42.214410 19.408947 9
-5.942320 -42.160179 19.491764 9
-8.880865 -42.166994 19.550553 9
-11.818930 -42.112098 19.647307 9
-14.758534 -42.056621 19.751189 9
-17.700033 -42.013982 19.855432 9
-20.644553 -41.952523 19.976074 9
-23.592567 -41.890150 20.104092 9
-26.545248 -41.816114 20.244970 9
-29.803982 -36.828388 22.885401 9
-32.461428 -41.731488 20.515536 9
-35.428537 -41.675542 20.668301 9
-38.413061 -41.500905 20.888539 9
-41.446796 -40.943432 21.310955 9
-44.593948 -39.554256 22.164960 9
-47.965300 -36.665908 23.792535 9
-51.604122 -32.319962 26.175187 9
-55.702668 -25.530752 29.819831 9
-61.973331 -5.918617 40.045453 9
57.649928 -12.938257 38.767779 9
50.683192 -29.494620 30.087271 9
46.179027 -35.876996 26.703135 9
42.587595 -38.337819 25.363928 9
39.329774 -39.330820 24.794456 9
36.275732 -39.326664 24.749764 9
33.229262 -39.334314 24.706432 9
30.188924 -39.361472 24.660432 9
27.154006 -39.413055 24.609187 9
24.130886 -39.440889 24.577619 9
21.117910 -39.447077 24.564602 9
18.113913 -39.430126 24.570883 9
15.112190 -39.444823 24.568064 9
12.117747 -39.437980 24.583677 9
9.127496 -39.433012 24.605579 9
6.144107 -39.380791 24.659216 9
3.162047 -39.343455 24.712396 9
0.181201 -39.320550 24.765347 9
-2.796412 -39.248222 24.851179 9
-5.775033 -39.215000 24.924001 9
-8.753338 -39.167172 25.011677 9
-11.732388 -39.102199 25.115549 9
-14.713135 -39.043511 25.223478 9
-17.696640 -38.956328 25.353563 9
-20.682563 -38.903549 25.473140 9
-23.672596 -38.830768 25.610525 9
-26.667117 -38.755133 25.756842 9
-29.670011 -38.624684 25.939220 9
-32.676000 -38.545813 26.102266 9
-35.690783 -38.437002 26.288528 9
-38.714607 -38.312595 26.490603 9
-41.835924 -37.331002 27.148875 9
-45.139425 -34.998053 28.523595 9
-48.903684 -29.440886 31.599102 9
-53.226659 -20.709581 36.355100 9
-57.485902 -13.754951 40.196400 9
52.472802 -22.584269 37.978998 9
48.991009 -23.553607 37.380093 9
44.274449 -31.023950 33.324638 9
40.597198 -33.799610 31.782539 9
37.376585 -34.350205 31.434935 9
34.259069 -34.400346 31.362085 9
31.147506 -34.478708 31.282239 9
28.049837 -34.530646 31.224450 9
24.957189 -34.612653 31.158602 9
21.882395 -34.619891 31.140454 9
18.818856 -34.584966 31.152615 9
15.753774 -34.618031 31.136446 9
12.701363 -34.574103 31.169079 9
9.650491 -34.557876 31.194787 9
6.604498 -34.522706 31.238385 9
3.562503 -34.462323 31.303210 9
0.520352 -34.437467 31.356925 9
-2.517396 -34.330133 31.462380 9
-5.556878 -34.262368 31.554590 9
-8.596548 -34.165036 31.670401 9
-11.637967 -34.039158 31.809312 9
-14.683297 -33.805662 32.013566 9
-17.734123 -33.596408 32.212882 9
-20.788896 -33.459278 32.381693 9
-23.851014 -33.267226 32.587895 9
-26.920387 -33.069136 32.805439 9
-29.997541 -32.869932 33.031746 9
-33.086752 -32.619450 33.293758 9
-36.189190 -32.331216 33.584354 9
-39.304226 -32.031997 33.889288 9
-42.686140 -29.282036 35.519829 9
-46.750372 -21.148514 40.057941 9
-49.645824 -23.799357 38.805936 9
-52.997004 -22.742188 39.558668 9
52.500141 -23.835944 41.648425 9
48.649670 -26.593443 40.047713 9
44.932366 -29.044090 38.625544 9
41.706444 -29.192389 38.473649 9
38.507750 -29.264948 38.371988 9
35.331655 -29.270575 38.315634 9
32.163676 -29.285412 38.262866 9
29.012450 -29.245750 38.248473 9
25.865721 -29.226576 38.231408 9
22.719144 -29.263993 38.191915 9
19.584720 -29.258901 38.184127 9
16.459119 -29.224478 38.200812 9
13.334631 -29.230226 38.203968 9
10.213840 -29.250970 38.207333 9
7.099794 -29.238444 38.237273 9
3.987765 -29.246618 38.264280 9
0.878697 -29.255116 38.299485 9
-2.227699 -29.254148 38.348243 9
-5.332892 -29.265784 38.398483 9
-8.437032 -29.283652 38.453693 9
-11.540412 -29.257361 38.541479 9
-14.644662 -29.239680 38.632977 9
-17.748972 -29.294242 38.693308 9
-20.853592 -29.355025 38.758650 9
-23.961922 -29.347402 38.869991 9
-27.073064 -29.345293 38.986826 9
-30.183623 -29.411953 39.074408 9
-33.301587 -29.414246 39.205949 9
-36.425138 -29.407115 39.351319 9
-39.550731 -29.438907 39.483931 9
-42.688654 -29.404790 39.661628 9
-45.887312 -28.906803 40.104417 9
-49.298164 -26.862241 41.411957 9
-147.895992 -2.152303 -29.908862 7
-144.617333 -5.098549 -29.541473 7
-141.699103 -8.430642 -28.772120 7
-139.398062 -12.456334 -27.286604 7
-146.487698 6.172062 -29.353083 7
-142.569768 3.927911 -29.734172 7
-138.815832 1.544680 -29.956537 7
-135.271835 -1.038349 -29.958914 7
-131.932719 -3.832030 -29.736625 7
-128.875902 -6.939186 -29.186255 7
-126.309226 -10.620524 -28.040188 7
-124.696626 -15.460318 -25.699683 7
-108.043062 -15.783941 -33.541654 8
-105.421174 -19.399541 -32.510088 8
-104.732945 -25.620063 -28.884248 8
-224.862102 136.123328 -77.084849 0
-146.662311 12.854260 -27.092322 7
-142.370761 10.977011 -27.906317 7
-138.193300 9.034252 -28.630286 7
-134.190175 6.956489 -29.188753 7
-130.318407 4.776674 -29.624359 7
-126.591675 2.470298 -29.914139 7
-123.061395 -0.031002 -29.987746 7
-119.702387 -2.714873 -29.865622 7
-114.988866 -3.818884 -31.457411 8
-106.790114 -0.679939 -37.562489 8
-103.203606 -2.894891 -37.885877 8
-100.141591 -5.749330 -37.539051 8
-97.251242 -8.839516 -36.961185 8
-94.709277 -12.417690 -35.899702 8
-92.675033 -16.738004 -34.109534 8
-91.406950 -22.217605 -31.190091 8
-226.698527 145.479457 -76.863189 0
-221.696572 143.288853 -77.511232 0
-218.272149 140.591217 -77.070060 0
-215.334548 137.739339 -76.299685 0
-148.628460 17.826973 -22.850486 7
-143.325503 16.862625 -24.805372 7
-138.842786 15.192554 -25.882374 7
-134.518625 13.423095 -26.821401 7
-130.340373 11.556832 -27.630369 7
-126.245098 9.650067 -28.378652 7
-122.276419 7.650167 -29.008790 7
-118.460273 5.519038 -29.482002 7
-111.911641 6.518413 -33.443987 8
-105.695227 7.318570 -37.112699 8
-101.983496 5.305365 -37.636341 8
-98.523104 3.013850 -37.854007 8
-95.141665 0.637069 -37.982289 8
-91.893143 -1.902474 -37.941943 8
-88.784519 -4.627961 -37.713941 8
-85.863983 -7.620344 -37.219741 8
-83.181924 -10.971608 -36.372382 8
-80.890380 -14.927980 -34.930291 8
-79.443488 -20.204371 -32.185553 8
-231.072654 146.157427 -68.928445 0
-220.558708 145.771718 -73.592054 0
-213.533496 144.337448 -75.826717 0
-210.684563 141.478865 -75.024576 0
-207.832778 138.636235 -74.242865 0
-151.373811 22.148111 -17.734024 7
-146.269024 20.903120 -19.439661 7
-141.486095 19.437507 -20.836594 7
-136.827553 17.923163 -22.144285 7
-131.348060 17.297942 -24.493963 7
-126.975542 15.649857 -25.578637 7
-122.726241 13.930298 -26.558489 7
-118.614690 12.115270 -27.409405 7
-112.330435 12.747483 -31.069638 8
-105.789751 13.840599 -35.186400 8
-101.871625 12.077992 -35.996037 8
-98.120444 10.159145 -36.619414 8
-94.491169 8.124712 -37.107644 8
-90.943057 6.014796 -37.509262 8
-87.495854 3.796266 -37.791321 8
-84.125198 1.491101 -37.981494 8
-80.895627 -0.996578 -37.980708 8
-77.799379 -3.671884 -37.789551 8
-74.806512 -6.508161 -37.441882 8
-72.031060 -9.686782 -36.754635 8
-69.548413 -13.350210 -35.591559 8
-67.647360 -17.986748 -33.469544 8
-58.104420 -10.562227 -43.559086 9
-52.962079 -9.799678 -46.818822 9
-48.647636 -10.259883 -48.819769 9
-45.330128 -12.348205 -49.198626 9
-42.595703 -15.472329 -48.575494 9
-40.324122 -19.504888 -47.100641 9
-38.542788 -24.580039 -44.669527 9
-236.542529 146.554610 -60.013725 0
-225.609343 146.167453 -65.041141 0
-215.129757 145.826259 -69.889569 0
-206.110309 145.153562 -73.779459 0
-203.273726 142.330632 -73.018984 0
-200.476680 139.507336 -72.245426 0
-197.693787 136.692048 -71.477520 0
-149.589475 24.709591 -13.630974 7
-144.249379 23.662365 -15.648480 7
-139.221731 22.415919 -17.369487 7
-134.314243 21.137460 -19.012470 7
-129.583584 19.764053 -20.503154 7
-124.990644 18.324580 -21.882248 7
-119.694255 17.692238 -24.206634 7
-115.353383 16.142029 -25.389501 8
-106.747504 19.355872 -32.175980 8
-102.458211 17.991311 -33.476067 8
-98.537010 16.264172 -34.333949 8
-94.684886 14.499179 -35.135410 8
-90.933045 12.652856 -35.833395 8
-87.262587 10.740226 -36.448390 8
-83.677348 8.749001 -36.969719 8
-80.168635 6.682445 -37.404254 8
-76.743599 4.523003 -37.735908 8
-73.422684 2.233007 -37.927499 8
-70.179859 -0.162428 -38.010446 8
-67.070979 -2.755430 -37.890750 8
-60.313757 0.155552 -43.560815 9
-55.456254 0.408538 -46.369852 9
-50.746836 0.568571 -49.040646 9
-46.859701 -0.485889 -50.432214 9
-43.558360 -2.465069 -50.873166 9
-40.609300 -5.046562 -50.713116 9
-37.752879 -7.819906 -50.376663 9
-34.998006 -10.819508 -49.835323 9
-32.396303 -14.164760 -48.978801 9
-29.991980 -17.974694 -47.701186 9
-27.914947 -22.555981 -45.720712 9
-26.807426 -29.324403 -41.712799 9
-232.331602 146.094824 -55.022273 0
-223.096148 145.166347 -58.952363 0
-209.592587 145.923903 -66.343192 0
-198.846610 145.940333 -71.777402 0
-196.046059 143.143155 -71.038476 0
-193.278756 140.347288 -70.289712 0
-190.496402 137.570783 -69.569370 0
-148.394749 26.743228 -8.820064 7
-142.805324 25.891288 -11.168089 7
-137.469537 24.908624 -13.293012 7
-132.349449 23.816890 -15.230562 7
-127.341789 22.705676 -17.100550 7
-122.609666 21.402910 -18.691224 7
-118.009874 20.039379 -20.173580 7
-108.557660 23.954801 -28.072378 8
-103.173355 23.738033 -30.814950 8
-99.590913 21.612547 -31.220512 8
-95.565219 20.025480 -32.258096 8
-91.620888 18.393490 -33.225560 8
-87.766690 16.699665 -34.105967 8
-83.979509 14.965538 -34.927208 8
-80.286610 13.150418 -35.645322 8
-76.668486 11.271299 -36.283020 8
-73.124991 9.321091 -36.835290 8
-69.663921 7.281149 -37.284558 8
-66.288202 5.138051 -37.619652 8
-59.605211 7.879721 -43.247700 9
-54.794695 8.071075 -46.040923 9
-50.157209 8.133097 -48.652715 9
-46.295677 7.083653 -50.054277 9
-42.914751 5.308329 -50.681908 9
-39.779743 3.138610 -50.900095 9
-36.719883 0.836015 -50.988438 9
-33.737089 -1.616086 -50.934162 9
-30.782097 -4.140951 -50.818878 9
-27.906940 -6.845628 -50.538165 9
-25.126715 -9.777550 -50.050268 9
-22.458653 -12.994017 -49.305335 9
-19.940606 -16.602503 -48.206729 9
-17.658948 -20.829332 -46.547158 9
-15.953290 -26.499107 -43.557085 9
-227.578417 145.807003 -50.460331 0
-214.932496 146.111249 -57.275718 0
-204.108280 146.009378 -62.830875 0
-192.161998 146.539996 -69.470528 0
-188.952711 143.934136 -69.112764 0
-186.262114 141.146033 -68.347721 0
-183.539283 138.382827 -67.624255 0
-148.110824 27.968717 -2.868803 7
-142.050774 27.491766 -5.814861 7
-136.295804 26.858601 -8.484961 7
-130.912014 25.987266 -10.782162 7
-125.714293 25.037119 -12.925331 7
-120.709183 23.990508 -14.897697 7
-114.511939 24.279917 -18.515210 8
-105.384907 27.866383 -26.176970 8
-100.819935 26.772078 -27.889555 8
-96.503835 25.478156 -29.323824 8
-92.349984 24.065332 -30.586768 8
-88.840481 21.947948 -30.982227 8
-84.895538 20.383994 -32.029817 8
-81.018765 18.785417 -33.019729 8
-77.250862 17.094414 -33.887037 8
-73.514055 15.403749 -34.742725 8
-69.895654 13.592551 -35.449891 8
-66.313941 11.762622 -36.128333 8
-59.816238 14.147162 -41.511775 9
-54.945164 14.398568 -44.437156 9
-50.324897 14.413707 -47.055143 9
-46.343979 13.560628 -48.688391 9
-42.846344 12.009677 -49.548372 9
-39.625446 10.037603 -49.952207 9
-36.431006 8.030835 -50.321151 9
-33.260288 5.989587 -50.656909 9
-30.168653 3.809243 -50.852484 9
-27.132326 1.519845 -50.943103 9
-24.106349 -0.803601 -51.008503 9
-21.170593 -3.323738 -50.885929 9
-18.298679 -6.006624 -50.614961 9
-15.470626 -8.826745 -50.225466 9
-12.752757 -11.943390 -49.564959 9
-10.145544 -15.388351 -48.610453 9
-7.713471 -19.346841 -47.192025 9
-5.675757 -24.404828 -44.763155 9
-222.113445 145.758928 -46.502026 0
-206.373707 147.233298 -56.123804 0
-198.666525 146.086665 -59.356829 0
-188.848518 145.880908 -64.474848 0
-182.017549 144.693763 -67.214465 0
-179.331481 141.940875 -66.490466 0
-176.662428 139.192606 -65.765748 0
-174.037983 136.435962 -65.015171 0
-149.657205 27.578147 5.425655 7
-142.503054 27.998930 1.111974 7
-138.944746 25.229821 1.215190 7
-130.137964 27.523032 -5.449377 7
-124.505897 26.956967 -8.182138 7
-119.289492 26.091279 -10.461093 7
-115.043413 24.319591 -11.517699 8
-103.254010 30.659247 -22.927487 8
-98.787156 29.452723 -24.543701 8
-94.352523 28.285967 -26.176630 8
-90.088422 26.998715 -27.627795 8
-85.896031 25.694992 -29.031004 8
-81.822034 24.313279 -30.313662 8
-78.312080 22.285910 -30.798168 8
-74.450286 20.735365 -31.843918 8
-70.657364 19.143026 -32.824151 8
-66.941377 17.491882 -33.721537 8
-64.757213 13.742027 -32.185204 8
-64.703616 6.853176 -27.098500 8
-50.956199 19.937724 -44.717464 9
-46.843987 19.267271 -46.590135 9
-43.221316 17.920938 -47.684236 9
-39.858332 16.205587 -48.359731 9
-36.576828 14.381280 -48.912130 9
-33.332376 12.512185 -49.414605 9
-30.120749 10.599959 -49.870821 9
-26.947207 8.629448 -50.266524 9
-23.822480 6.573552 -50.575468 9
-20.738361 4.438521 -50.807053 9
-17.706404 2.192327 -50.930941 9
-14.701910 -0.126321 -50.990101 9
-11.751964 -2.583384 -50.920154 9
-8.856993 -5.194902 -50.709092 9
-6.007980 -7.957182 -50.364975 9
-3.235518 -10.958972 -49.804677 9
-0.567381 -14.294563 -48.942697 9
1.960851 -18.091325 -47.664708 9
4.237364 -22.695702 -45.650750 9
5.779645 -29.520805 -41.579870 9
-215.859457 145.990656 -43.263540 0
-201.275542 147.148303 -52.274276 0
-193.304291 146.142235 -55.885753 0
-183.575702 145.962940 -61.139905 0
-175.196201 145.438776 -65.373189 0
-172.564360 142.700131 -64.645609 0
-169.935862 139.970655 -63.927749 0
-167.309860 137.250207 -63.219946 0
-146.610384 25.198595 12.830664 7
-137.456751 27.499092 5.807020 7
-130.496810 27.980769 1.439596 7
-124.184566 28.008595 -2.211004 7
-118.390355 27.669384 -5.285980 7
-107.086505 33.183215 -16.039204 8
-101.572937 32.971893 -19.060069 8
-96.974114 31.892542 -20.891125 8
-92.466956 30.794320 -22.659232 8
-88.060698 29.661128 -24.346620 8
-83.752821 28.489323 -25.951878 8
-79.557840 27.254434 -27.447789 8
-75.495510 25.923052 -28.797273 8
-71.499019 24.569831 -30.096145 8
-68.048212 22.555341 -30.576972 8
-65.364354 19.520025 -29.836602 8
-64.960775 13.259467 -25.312075 8
-56.474438 18.400304 -34.197368 9
-47.723878 24.366529 -43.869023 9
-43.916505 23.287053 -45.291012 9
-40.463969 21.717194 -46.136324 9
-37.071838 20.085451 -46.903270 9
-33.742563 18.380003 -47.581422 9
-30.459596 16.620442 -48.195373 9
-27.214464 14.814829 -48.756218 9
-23.980926 13.004862 -49.311022 9
-20.806518 11.099049 -49.762438 9
-17.669249 9.129092 -50.147473 9
-14.548430 7.128615 -50.503813 9
-11.490583 4.996741 -50.727663 9
-8.442891 2.831824 -50.924689 9
-5.456718 0.515382 -50.974963 9
