ply
format ascii 1.0
element vertex 1406
property float x
property float y
property float z
property int scalar_Label
end_header
74.628333 -6.424514 37.419652 5
73.833100 -9.405154 36.808194 5
72.634042 -12.596832 35.834951 5
70.957873 -16.050237 34.434263 5
68.528217 -19.914351 32.356485 5
66.290415 -23.771776 30.460260 5
64.135424 -27.668948 28.646640 9
61.589443 -31.842982 26.486845 9
57.973872 -36.665123 23.368301 9
53.082323 -42.294098 19.107257 9
26.201515 93.164313 -3.735321 3
26.220956 90.103206 -3.750001 3
4.447056 88.586103 -23.324036 3
19.878641 81.227005 -9.513372 1
19.275895 78.114952 -10.068699 1
19.285257 74.976817 -10.069711 1
19.292921 71.839652 -10.067538 1
19.289452 68.702851 -10.070653 1
40.557306 48.762869 9.148324 9
47.051767 46.595358 15.010325 9
50.521938 44.222136 18.161259 9
52.929409 41.790958 20.361928 9
54.977030 39.364430 22.243083 9
56.862676 36.960159 23.982241 9
58.635181 34.580049 25.623190 9
60.194964 32.200754 27.076712 9
61.600929 29.825459 28.395667 9
62.923423 27.462845 29.643115 9
64.004114 25.073470 30.677371 9
64.221904 22.498637 30.942967 5
65.511911 20.193186 32.171382 5
66.884332 17.935904 33.476586 5
68.052995 15.649842 34.602742 5
69.024127 13.328413 35.555626 5
69.836130 10.975161 36.369747 5
70.448326 8.570372 37.009020 5
70.886465 6.114214 37.496693 5
71.129801 3.592072 37.814554 5
71.205097 1.005255 37.986769 5
71.030273 -1.684222 37.940606 5
70.654641 -4.468000 37.720407 5
70.038534 -7.370806 37.291350 5
69.061881 -10.453026 36.547334 5
67.650178 -13.762287 35.423055 5
65.640404 -17.389757 33.774969 5
64.449723 -20.713866 32.860192 9
63.370134 -24.034455 32.050323 9
61.370096 -27.848245 30.432800 9
58.896224 -31.972400 28.404640 9
55.564246 -36.625948 25.627914 9
39.319463 -48.217322 11.471103 9
23.581469 93.158686 -1.320855 3
23.596372 90.098851 -1.342596 3
1.608877 88.580281 -20.674403 3
18.380997 84.288690 -5.976167 1
17.921886 81.191939 -6.399574 1
13.967538 68.686526 -9.902638 1
36.396557 48.606095 9.925572 9
34.580843 45.511223 8.370124 9
48.103578 44.220868 20.275612 9
50.817758 41.827188 22.700845 9
52.809827 39.392911 24.496234 9
54.656138 36.981831 26.167373 9
56.268392 34.572839 27.636898 9
57.830095 32.190576 29.065670 9
59.167750 29.798442 30.301731 9
60.428553 27.418507 31.474074 9
61.555559 25.034733 32.532899 9
62.543265 22.640300 33.473492 9
63.423200 20.237331 34.323540 9
64.197485 17.821841 35.085000 9
64.095001 15.176340 35.084550 9
64.817626 12.758367 35.808906 5
65.529814 10.347336 36.527992 5
66.146930 7.915755 37.168029 5
66.536709 5.415944 37.613916 5
66.720104 2.845605 37.884285 5
66.708402 0.200051 37.989336 5
66.460434 -2.544250 37.893664 5
65.992645 -5.391069 37.612058 5
65.221671 -8.382960 37.072641 5
64.087555 -11.557526 36.224108 9
64.339018 -14.188967 36.583262 9
63.353859 -17.368595 35.876013 9
62.099728 -20.711305 34.942602 9
60.438739 -24.293294 33.664593 9
58.648556 -27.999344 32.282984 9
56.262379 -32.066334 30.395482 9
53.189189 -36.566870 27.925388 9
48.118798 -42.215670 23.746495 9
10.115877 100.575198 -8.106989 2
10.441776 97.338454 -7.877804 3
20.970491 93.151610 1.112351 3
20.965344 90.094497 1.070478 3
-1.276575 88.577280 -18.054132 3
16.716185 84.227884 -2.636274 1
16.686628 81.125581 -2.683384 1
11.430190 71.854430 -7.229843 1
16.568796 68.720363 -2.817152 1
14.813953 65.585274 -4.318624 4
14.808629 62.460348 -4.312254 4
14.834006 59.335487 -4.274047 4
14.886451 56.211184 -4.207125 4
14.862287 53.080832 -4.200484 4
32.130128 48.443498 10.688618 9
39.888709 46.353088 17.385890 9
44.916231 44.128498 21.742694 9
48.036886 41.775023 24.467102 9
50.477467 39.397802 26.611889 9
52.285113 36.978151 28.217806 9
53.913530 34.568947 29.673958 9
55.395767 32.169113 31.008717 9
56.793412 29.784827 32.274866 9
57.888012 27.366987 33.285489 9
59.019639 24.978950 34.331739 9
59.946894 22.565276 35.207148 9
60.852482 20.162925 36.068052 9
61.574905 17.728725 36.776523 9
62.494823 15.359197 37.657716 9
63.255030 12.959505 38.406598 9
63.573183 10.438606 38.782680 9
63.839083 7.900523 39.118789 9
64.041406 5.339117 39.405395 9
64.037362 2.703105 39.521148 9
64.043274 0.059989 39.650387 9
64.133703 -2.563057 39.856490 9
64.300484 -5.166198 40.132408 9
63.397451 -8.196153 39.505860 9
62.982460 -11.064917 39.299452 9
61.627392 -14.351808 38.303007 9
60.489808 -17.594941 37.498042 9
59.649539 -20.750539 36.951676 9
57.662902 -24.471424 35.444434 9
55.856085 -28.177296 34.097976 9
53.544152 -32.195852 32.334978 9
50.511839 -36.657347 29.975898 9
11.811500 103.191067 -1.777941 2
11.775546 100.045699 -1.867008 2
12.993781 96.771118 -0.898094 3
18.349365 93.144861 3.548481 3
18.337112 90.089341 3.498158 3
8.639710 87.698523 -4.675274 1
15.231520 84.157864 0.828387 1
15.249516 81.069087 0.820373 1
13.224410 78.045774 -0.897220 1
13.245539 74.935126 -0.891124 1
13.287281 71.825550 -0.861896 1
16.443529 68.736578 1.788280 1
15.369890 65.646982 0.892560 4
15.440582 62.565581 0.963458 4
15.459365 59.482564 0.996546 4
15.513884 56.400453 1.065412 4
15.508816 53.313615 1.090045 4
15.502207 50.224069 1.119187 4
27.891927 48.287840 11.554768 9
35.373060 46.138321 17.874123 9
40.799486 43.929134 22.472787 9
44.814009 41.667171 25.890602 9
47.564334 39.320410 28.252090 9
49.793416 36.956877 30.180527 9
51.443512 34.546961 31.627857 9
52.912341 32.140534 32.927489 9
54.117236 29.714445 34.010341 9
55.349860 27.318565 35.120605 9
56.392920 24.906067 36.076516 9
57.302995 22.482538 36.925540 9
58.245689 20.083072 37.806124 9
59.397011 17.753880 38.865108 9
60.404379 15.407463 39.808016 9
61.240127 13.030155 40.611968 9
61.519284 10.501125 40.956482 9
61.825209 7.978570 41.328181 9
62.279512 5.502277 41.828214 9
62.543949 2.964404 42.175138 9
62.513764 0.320669 42.282329 9
62.403871 -2.363354 42.328796 9
62.099293 -5.134317 42.219423 9
61.342736 -8.100170 41.741537 9
60.917284 -10.965564 41.544463 9
59.215012 -14.383972 40.297857 9
58.481344 -17.447024 39.859993 9
57.718328 -20.556636 39.405022 9
55.220503 -24.490417 37.527178 9
53.051843 -28.353145 35.931005 9
50.734784 -32.362661 34.223058 9
46.738656 -37.285509 31.146487 9
2.415192 110.524318 -4.601254 2
1.878405 107.359021 -5.118417 2
12.874106 102.694103 3.822582 2
13.219977 99.551828 4.044423 2
13.487043 96.430537 4.208031 3
15.657197 93.143982 5.938965 3
15.715384 90.083057 5.944119 3
9.136703 87.475184 0.509374 1
13.777401 84.087171 4.286798 1
13.783032 81.014691 4.266953 1
12.169988 77.993603 2.924517 1
12.387885 74.900212 3.091088 1
12.586255 71.812954 3.247793 1
15.339559 68.746485 5.508089 1
15.936431 65.707713 6.004143 4
15.913881 62.663934 5.997752 4
15.921306 59.619809 6.022032 4
15.882870 56.571816 6.014746 4
15.922432 53.526204 6.077554 4
15.891719 50.473565 6.088789 4
23.425905 48.115348 12.311273 9
30.746620 45.917517 18.361863 9
36.198250 43.678403 22.882825 9
40.582219 41.432219 26.531853 9
38.735794 38.407425 25.079507 9
46.699825 36.844504 31.668825 9
44.902864 33.848673 30.267360 9
50.267184 32.085019 34.733090 9
51.659396 29.688906 35.951282 9
52.716873 27.253431 36.900151 9
53.761320 24.835394 37.842932 9
55.167700 22.519925 39.085831 9
56.425560 20.197008 40.211638 9
57.510972 17.854664 41.200984 9
58.290294 15.450374 41.945139 9
58.822512 12.988681 42.492621 9
59.227562 10.494896 42.941480 9
59.522084 7.968870 43.305488 9
59.696392 5.402892 43.576998 9
59.791808 2.805610 43.789838 9
59.745040 0.151779 43.892853 9
59.595416 -2.550527 43.918281 9
59.285494 -5.327046 43.819890 9
58.883568 -8.158388 43.653393 9
58.287408 -11.089220 43.336460 9
57.186806 -14.254850 42.619165 9
56.512915 -17.282208 42.254112 9
55.470249 -20.501923 41.599313 9
53.474529 -24.192208 40.185649 9
49.906273 -28.679285 37.518008 9
46.903771 -33.008741 35.318259 9
36.668849 -40.982676 27.331525 9
7.136580 109.367248 4.002676 2
7.245588 106.204128 4.010427 2
10.581863 102.635850 6.610472 2
10.615355 99.535978 6.572091 2
11.007783 96.403891 6.828051 3
13.034624 93.135883 8.401274 3
13.065396 90.078375 8.380884 3
10.129246 87.222849 5.986993 1
12.073209 84.031150 7.514117 1
12.119621 80.969432 7.525558 1
9.488887 77.991689 5.395111 1
11.013164 74.875299 6.605366 1
11.034758 71.805739 6.616225 1
13.607600 68.752421 8.681075 1
14.309382 65.727321 9.250681 4
14.270857 62.696151 9.232542 4
14.265321 59.664391 9.247272 4
14.272706 56.631723 9.278772 4
14.246911 53.595110 9.290067 4
14.236381 50.556746 9.320035 4
18.439095 47.899909 12.734781 9
26.143724 45.704868 18.961499 9
31.658980 43.441298 23.436448 9
36.002766 41.158994 26.976224 9
39.661154 38.882910 29.970692 9
42.789877 36.611398 32.544843 9
45.231143 34.298751 34.572682 9
47.130715 31.945193 36.171326 9
48.698028 29.570123 37.508679 9
50.769206 27.329703 39.253131 9
51.919591 24.937242 40.266193 9
53.229944 22.603140 41.411616 9
54.386082 20.257971 42.438504 9
55.048858 17.810357 43.076698 9
55.624592 15.348799 43.650617 9
56.079464 12.860327 44.133481 9
56.505054 10.366529 44.598349 9
56.747369 7.819438 44.922906 9
56.984385 5.267721 45.248857 9
57.012755 2.644206 45.414917 9
56.936977 -0.023950 45.504407 9
56.767490 -2.737502 45.525882 9
56.435476 -5.525706 45.425191 9
56.019053 -8.365748 45.264546 9
55.459951 -11.284267 44.998257 9
54.695481 -14.312776 44.577373 9
53.757245 -17.446720 44.027471 9
52.627455 -20.701268 43.335191 9
51.201806 -24.131083 42.419303 9
47.382450 -28.709293 39.634585 9
40.111034 -35.031681 34.159228 9
4.736479 109.307586 6.777713 2
4.793884 106.156952 6.738893 2
7.857727 102.632174 9.061301 2
7.921961 99.529420 9.042849 2
10.348470 96.190440 10.882295 3
10.368230 93.130971 10.843425 3
10.413076 90.073160 10.831066 3
4.450934 87.416651 6.115490 1
9.725534 84.010594 10.217304 1
9.747629 80.954527 10.207468 1
6.823507 77.989026 7.893375 1
8.672260 74.868154 9.329938 1
8.707071 71.803281 9.350434 1
12.063213 68.759421 11.983317 1
12.069524 65.735643 11.994990 4
12.069306 62.711200 12.008267 4
12.027442 59.683962 11.995608 4
12.025952 56.656450 12.021359 4
11.992270 53.624906 12.028617 4
12.008246 50.594148 12.081575 4
13.994151 47.738937 13.685229 9
21.262748 45.469329 19.433985 9
26.886121 43.183656 23.897297 9
31.357805 40.884553 27.462371 9
34.921478 38.563811 30.320527 9
38.166811 36.277146 32.933666 9
40.898722 33.980969 35.149293 9
38.552196 30.856653 33.399406 9
46.827870 29.660073 39.956370 9
48.490162 27.339960 41.348493 9
49.942815 25.010157 42.581571 9
50.906272 22.600022 43.437788 9
51.693903 20.165329 44.162051 9
52.362738 17.713460 44.799022 9
52.938949 15.246526 45.369252 9
53.385410 12.750591 45.844026 9
53.747432 10.233437 46.258796 9
53.993907 7.682257 46.589593 9
54.147966 5.099537 46.854620 9
54.230422 2.488147 47.070239 9
54.113077 -0.198159 47.137414 9
53.937466 -2.917980 47.166127 9
53.622832 -5.703217 47.094209 9
53.202105 -8.547331 46.947508 9
52.573408 -11.494390 46.647875 9
51.807817 -14.524506 46.250716 9
50.810764 -17.682673 45.683834 9
49.531733 -21.000091 44.909270 9
47.737964 -24.590816 43.749533 9
45.061462 -28.642509 41.924592 9
28.522549 -39.238868 29.509882 9
5.165322 102.623187 11.554000 2
5.223585 99.522288 11.526363 2
5.643000 96.390169 11.782605 3
7.739597 93.121793 13.330977 3
7.767534 90.066668 13.302474 3
4.803809 87.210737 10.988538 1
6.764918 84.022701 12.455665 1
6.789169 80.963897 12.445685 1
4.099554 77.987825 10.362234 1
5.675750 74.872660 11.556313 1
5.668570 71.805036 11.543641 1
9.430101 68.759862 14.427791 1
9.253601 65.733707 14.299526 4
9.240893 62.707613 14.303920 4
9.212348 59.679540 14.303250 4
9.194607 56.649939 14.317950 4
9.177063 53.618094 14.339901 4
9.126578 50.581036 14.343725 4
8.942689 47.528200 14.252509 9
16.315901 45.233224 19.955338 9
21.967120 42.916146 24.343454 9
26.437861 40.582826 27.832072 9
30.105819 38.242493 30.710731 9
33.345553 35.921958 33.266263 9
36.091946 33.595095 35.449089 9
38.483887 31.267955 37.365628 9
43.756831 29.527267 41.486039 9
45.385708 27.188887 42.828021 9
46.684325 24.814844 43.923042 9
47.809343 22.427594 44.890870 9
48.695609 20.005284 45.682106 9
49.456386 17.566766 46.383274 9
50.078207 15.103655 46.984329 9
50.550213 12.607578 47.477264 9
50.918804 10.085808 47.897585 9
51.177759 7.532330 48.240799 9
51.337054 4.945781 48.514722 9
51.329510 2.300550 48.668773 9
51.263676 -0.373882 48.785454 9
51.065051 -3.105852 48.808711 9
50.718234 -5.906319 48.727337 9
50.171366 -8.800582 48.502739 9
49.460828 -11.782806 48.162953 9
48.508349 -14.890787 47.649743 9
47.254951 -18.158507 46.919705 9
45.501872 -21.682037 45.824940 9
42.835984 -25.661032 44.057990 9
30.489201 -34.056857 35.068220 9
0.834939 102.815806 12.839103 2
0.994480 99.685444 12.882323 2
2.808158 96.397032 14.171040 3
5.013078 93.120407 15.761098 3
5.067361 90.063585 15.749464 3
-4.214294 87.615388 8.753971 1
3.004579 84.076293 14.122374 1
3.011942 81.006313 14.097845 1
1.356428 77.986859 12.834988 1
1.490070 74.897853 12.920015 1
1.507555 71.813289 12.925569 1
8.794030 68.772115 18.385323 1
5.660460 65.718299 16.044768 4
5.622667 62.681209 16.031311 4
5.605722 59.643085 16.040915 4
5.587337 56.603080 16.056890 4
5.558915 53.560183 16.072810 4
5.520316 50.513624 16.088589 4
4.630119 47.388273 15.474457 9
11.259514 44.992298 20.494858 9
16.914815 42.640633 24.790738 9
21.383078 40.272165 28.203164 9
25.316602 37.933063 31.220323 9
28.412537 35.559407 33.616166 9
31.179331 33.202240 35.770964 9
33.909708 30.899787 37.903324 9
39.083667 29.105363 41.862709 9
40.975396 26.787922 43.377743 9
42.619089 24.458531 44.712926 9
43.983937 22.101266 45.845589 9
45.077576 19.707578 46.781772 9
45.937200 17.276441 47.549514 9
46.676166 14.828053 48.233372 9
47.235827 12.342018 48.790043 9
47.650494 9.821079 49.245306 9
47.925318 7.261099 49.603292 9
48.034556 4.648747 49.845287 9
48.080291 2.009886 50.047149 9
47.938135 -0.699169 50.117269 9
47.665194 -3.466305 50.098289 9
47.186378 -6.323423 49.935338 9
46.543494 -9.263379 49.659830 9
45.589675 -12.348524 49.164471 9
44.277831 -15.609597 48.415772 9
42.375422 -19.154819 47.244653 9
39.641229 -23.108001 45.476737 9
35.701311 -27.662559 42.841880 9
19.657061 -37.690271 31.395863 9
-0.594096 96.458737 16.167627 3
1.948150 93.147536 17.963634 3
2.006534 90.086932 17.951671 3
-1.208034 84.151801 15.513316 1
-1.187822 81.064544 15.496554 1
-6.399100 74.986990 11.641910 1
-5.364171 71.837078 12.391585 1
6.470718 68.774359 21.056360 1
-1.227491 65.645878 15.428089 4
-1.268824 62.560418 15.413601 4
-14.301267 58.943352 5.898042 4
-14.253413 55.706794 5.966181 4
-1.342573 53.293865 15.454343 4
-1.588172 50.183245 15.322099 4
-0.706395 47.162859 16.022357 9
6.071819 44.744650 21.040839 9
11.717567 42.356198 25.236040 9
16.272074 39.962618 28.638499 9
20.163382 37.582846 31.561354 9
23.382653 35.192051 33.998483 9
26.230202 32.813731 36.169402 9
29.739333 30.609825 38.827592 9
34.159298 28.648824 42.153515 9
36.102142 26.308102 43.678939 9
37.734801 23.943992 44.983853 9
39.274421 21.592341 46.226488 9
40.487568 19.196137 47.237326 9
41.546972 16.785054 48.142233 9
42.431518 14.347963 48.926125 9
43.058966 11.856500 49.529725 9
43.591260 9.345936 50.070758 9
43.907218 6.777473 50.461810 9
44.032780 4.150727 50.722127 9
43.995692 1.467084 50.872216 9
43.806347 -1.276410 50.920032 9
43.323270 -4.133563 50.764216 9
42.665469 -7.073979 50.491211 9
41.625119 -10.179958 49.952435 9
40.276503 -13.438407 49.202413 9
38.409138 -16.942972 48.091587 9
36.007017 -20.720183 46.610373 9
32.650788 -24.963924 44.461479 9
20.613088 -32.995928 36.141452 9
-6.212374 96.735210 16.624350 3
-2.826280 93.320857 18.976856 3
-2.758770 90.236568 18.967698 3
-5.409367 84.224442 16.982581 1
-5.693269 81.133344 16.746516 1
-15.227532 78.303611 9.903176 1
1.542414 68.761623 21.872253 1
-18.584485 49.119501 7.658522 9
-6.899261 46.869235 16.067150 9
0.681797 44.483637 21.547792 9
6.325304 42.057751 25.649475 9
11.010042 39.642787 29.071732 9
14.927685 37.230681 31.951745 9
18.172409 34.808132 34.357090 9
21.066665 32.401814 36.517972 9
25.457056 30.309210 39.749376 9
29.148915 28.188588 42.487367 9
31.069598 25.810190 43.969909 9
32.771489 23.426653 45.302501 9
34.214994 21.021533 46.457258 9
35.468305 18.600908 47.482896 9
36.540544 16.159962 48.386146 9
37.379857 13.679025 49.130580 9
38.041049 11.163884 49.755394 9
38.517975 8.606194 50.256612 9
38.803989 5.997135 50.629954 9
38.888652 3.326395 50.868531 9
38.789921 0.591915 50.985524 9
38.449187 -2.232208 50.940247 9
37.867528 -5.154826 50.734190 9
36.967187 -8.212115 50.313591 9
35.796816 -11.398797 49.713602 9
34.152715 -14.800896 48.792713 9
32.019469 -18.442418 47.541853 9
29.154366 -22.438201 45.793597 9
25.134226 -26.988934 43.256054 9
-16.463327 -47.451336 14.613419 9
-6.707162 93.412832 20.702714 3
-8.063454 90.422046 19.696147 3
-9.199169 84.273704 18.808527 1
-20.751828 81.621448 10.705156 1
-10.744629 78.092190 17.668619 1
-10.727633 74.963137 17.663163 1
-10.751936 71.835294 17.637521 1
-5.911774 68.734829 21.019019 1
-23.994228 48.938593 8.576956 9
-12.618008 46.623563 16.578435 9
-4.848782 44.215786 22.067458 9
0.822422 41.755018 26.098115 9
5.550841 39.307593 29.476760 9
9.535238 36.867014 32.342311 9
12.941452 34.431162 34.810646 9
15.767424 31.979561 36.880695 9
21.110910 30.006417 40.706803 9
23.975313 27.711252 42.813385 9
25.901251 25.299405 44.273426 9
27.569580 22.874770 45.560573 9
29.020981 20.436776 46.703326 9
30.259064 17.978408 47.704463 9
31.295150 15.494608 48.572138 9
32.139818 12.980631 49.314002 9
32.765154 10.422213 49.911140 9
33.180539 7.813850 50.370488 9
33.421559 5.157849 50.717054 9
33.466381 2.441233 50.936263 9
33.277410 -0.354892 51.002821 9
32.808221 -3.254079 50.885549 9
32.091029 -6.256170 50.607404 9
31.060305 -9.393030 50.124374 9
29.631758 -12.706421 49.379937 9
27.750158 -16.231629 48.337837 9
25.219877 -20.059972 46.866469 9
21.808593 -24.306844 44.810246 9
16.919562 -29.246315 41.767291 9
-13.542588 78.090150 20.249297 1
-13.564103 74.962575 20.216642 1
-13.533822 71.834799 20.228314 1
-13.526659 68.707768 20.233202 1
-29.766563 48.735994 9.353221 9
-18.326006 46.385202 17.215126 9
-10.617839 43.932023 22.538549 9
-4.862616 41.440582 26.537129 9
-0.120981 38.955825 29.851259 9
4.014078 36.496008 32.758305 9
7.440727 34.025846 35.189325 9
10.237513 31.532953 37.198203 9
16.374273 29.648003 41.480397 9
18.613326 27.213128 43.121043 9
20.570881 24.771457 44.576873 9
22.240319 22.311764 45.843694 9
23.682362 19.836645 46.962956 9
24.911566 17.341223 47.944806 9
25.895292 14.810249 48.767528 9
26.741728 12.261424 49.504555 9
27.308897 9.653251 50.060459 9
27.703783 7.004367 50.507875 9
27.848611 4.286639 50.794928 9
27.812160 1.510990 50.968461 9
27.499094 -1.358275 50.965068 9
26.943656 -4.320552 50.808519 9
26.081903 -7.405804 50.456848 9
24.823028 -10.656210 49.850465 9
23.210533 -14.071241 49.019778 9
20.991576 -17.755953 47.797822 9
18.024875 -21.785853 46.092979 9
13.956995 -26.325579 43.673658 9
-1.732385 -35.615224 33.576557 9
-35.320757 48.554665 10.390086 9
-24.153241 46.143139 17.888655 9
-16.510695 43.643867 23.047360 9
-10.618188 41.126809 27.047987 9
-5.876650 38.603282 30.289518 9
-1.778004 36.099739 33.109994 9
1.709865 33.598787 35.531051 9
4.587900 31.079728 37.553731 9
10.842264 29.170022 41.819964 9
13.072925 26.696810 43.424563 9
15.050203 24.221863 44.867862 9
16.724147 21.726506 46.117092 9
18.171479 19.216117 47.223317 9
19.408563 16.686293 48.197646 9
20.365656 14.113463 48.994443 9
21.144299 11.512345 49.681086 9
21.706652 8.866892 50.233050 9
22.033080 6.164114 50.637928 9
22.126117 3.396207 50.897970 9
21.960209 0.547332 50.997071 9
21.532923 -2.392654 50.934399 9
20.839369 -5.434835 50.707588 9
19.783208 -8.620190 50.254696 9
18.326549 -11.974698 49.552306 9
16.406502 -15.534909 48.560991 9
13.821662 -19.390206 47.151773 9
10.318628 -23.658981 45.163001 9
5.286412 -28.608844 42.203045 9
-20.094219 -41.726557 26.126487 9
-41.354427 48.343884 11.222604 9
-30.128346 45.895224 18.584655 9
-22.607419 43.344050 23.546249 9
-16.576736 40.799887 27.546557 9
-11.813500 38.238825 30.730818 9
-7.643749 35.704299 33.536607 9
-4.221515 33.154948 35.864445 9
-0.401722 30.737070 38.455976 9
5.121795 28.674060 42.154971 9
7.379176 26.167399 43.747112 9
9.334789 23.650718 45.151082 9
11.042677 21.124144 46.402081 9
12.497189 18.577914 47.496768 9
13.672840 15.997677 48.419110 9
14.617646 13.384685 49.200463 9
15.329288 10.730260 49.839777 9
15.816522 8.028359 50.343161 9
16.077914 5.270623 50.710229 9
16.098347 2.444835 50.931892 9
15.836664 -0.469402 50.982529 9
15.352491 -3.464491 50.901037 9
14.456066 -6.607118 50.567258 9
13.192410 -9.897636 50.011202 9
11.501890 -13.369145 49.196324 9
9.255870 -17.081330 48.042677 9
6.241345 -21.129997 46.417596 9
2.004998 -25.709323 44.037713 9
-46.517407 -47.175083 13.752530 9
-36.445533 45.625803 19.185572 9
-28.824350 43.040858 24.096230 9
-22.832148 40.450592 27.981433 9
-17.871010 37.869949 31.220412 9
-13.796537 35.282924 33.905058 9
-10.270124 32.706463 36.249961 9
-5.392366 30.403785 39.454821 9
-0.773927 28.162990 42.501070 9
1.520418 25.623542 44.086976 9
3.481086 23.069178 45.469681 9
5.183110 20.503000 46.696798 9
6.569819 17.904586 47.733037 9
7.730252 15.282267 48.634812 9
8.668102 12.629025 49.404826 9
9.309384 9.919532 49.997162 9
9.757112 7.169105 50.476931 9
9.949295 4.354770 50.805869 9
9.865760 1.462054 50.972068 9
9.502124 -1.520023 50.973593 9
8.778302 -4.624953 50.761494 9
7.737006 -7.852452 50.363479 9
6.307949 -11.236169 49.737100 9
4.330585 -14.842703 48.784396 9
1.672461 -18.736622 47.425575 9
-1.971827 -23.049563 45.474892 9
-7.168576 -28.022285 42.587577 9
-30.096867 -39.773143 28.827796 9
-43.065855 45.338821 19.729894 9
-35.279989 42.723611 24.628060 9
-29.210576 40.097681 28.472197 9
-24.293488 37.469120 31.611522 9
-20.069828 34.857387 34.329830 9
-16.512377 32.243300 36.644293 9
-10.471700 30.066914 40.495261 9
-6.844862 27.637510 42.864843 9
-4.529139 25.061577 44.434377 9
-2.588372 22.463905 45.780872 9
-0.929857 19.849571 46.961702 9
0.462117 17.212174 47.986886 9
1.566785 14.538217 48.844129 9
2.478762 11.839072 49.591828 9
3.085539 9.081615 50.161632 9
3.447846 6.270310 50.591286 9
3.537788 3.389483 50.864412 9
3.369441 0.433432 50.990319 9
2.869793 -2.627320 50.925435 9
2.016050 -5.810984 50.656985 9
0.757719 -9.145249 50.155598 9
-0.957305 -12.660679 49.391227 9
-3.256621 -16.414840 48.288601 9
-6.431782 -20.526378 46.674393 9
-10.781344 -25.129884 44.372568 9
-26.795364 -34.035193 35.094829 9
-41.740582 42.414213 25.291966 9
-35.786926 39.733788 28.977720 9
-30.866050 37.061728 32.048653 9
-26.545443 34.417898 34.765564 9
-22.965918 31.763745 37.044088 9
-15.852602 29.695843 41.452519 9
-13.189678 27.082899 43.193507 9
-10.861903 24.466884 44.741064 9
-8.929335 21.825982 46.059554 9
-7.225246 19.178523 47.249271 9
-5.842797 16.498199 48.254822 9
-4.759083 13.779040 49.090419 9
-3.926252 11.021564 49.785160 9
-3.374429 8.210223 50.321631 9
-3.092125 5.338236 50.707320 9
-3.083308 2.395349 50.940572 9
-3.399331 -0.641504 50.991713 9
-4.060672 -3.789179 50.849609 9
-5.126082 -7.076530 50.480665 9
-6.610966 -10.522147 49.877190 9
-8.612546 -14.170792 48.983473 9
-11.383742 -18.121758 47.652810 9
-15.146434 -22.475554 45.757998 9
-20.455438 -27.457500 42.978131 9
-45.662025 -39.644490 28.596518 9
-99.843464 37.448569 -4.255481 8
-42.742395 39.341117 29.398916 9
-37.698492 36.635901 32.472467 9
-33.314550 33.953930 35.166315 9
-29.635224 31.267921 37.454643 9
-22.427682 29.163508 41.816600 9
-19.710743 26.515374 43.554969 9
-17.418657 23.850509 45.052857 9
-15.411011 21.179705 46.392750 9
-13.732832 18.485134 47.548718 9
-12.427482 15.747328 48.495990 9
-11.393643 12.975050 49.294181 9
-10.600252 10.166015 49.961864 9
-10.105967 7.298604 50.465515 9
-9.940842 4.355498 50.788438 9
-10.046653 1.340259 50.965196 9
-10.493202 -1.774717 50.956263 9
-11.310776 -5.009329 50.745234 9
-12.577149 -8.398409 50.288574 9
-14.356287 -11.976220 49.551099 9
-16.727964 -15.784815 48.488946 9
-20.005904 -19.944350 46.924798 9
-24.574258 -24.612319 44.642704 9
-40.812531 -33.367149 35.729540 9
-100.844290 37.690797 0.568141 8
-80.105158 35.919077 12.562649 8
-44.802008 36.191157 32.886487 9
-40.252799 33.481496 35.614617 9
-35.924516 30.835005 38.224221 9
-29.194351 28.617682 42.211919 9
-26.497850 25.921858 43.904237 9
-24.137382 23.223535 45.413410 9
-22.227664 20.491786 46.674516 9
-20.585565 17.745823 47.792286 9
-19.246392 14.969926 48.747062 9
-18.268961 12.141984 49.506025 9
-17.545775 9.273414 50.130770 9
-17.099820 6.350495 50.608867 9
-17.036043 3.338923 50.881760 9
-17.274352 0.245954 50.995625 9
-17.903253 -2.961619 50.901573 9
-18.927625 -6.298236 50.598105 9
-20.480433 -9.814743 50.012027 9
-22.531269 -13.520032 49.162241 9
-25.395017 -17.526695 47.874780 9
-29.302908 -21.934953 46.023871 9
-34.922180 -26.997514 43.242507 9
-87.208948 35.562607 13.641332 8
-76.542337 33.062480 19.720477 8
-68.597857 30.455232 24.288146 8
-41.818570 30.465313 39.342883 9
-36.259513 28.043972 42.585813 9
-33.511200 25.309437 44.273492 9
-31.214801 22.554728 45.719014 9
-29.228557 19.789790 47.001514 9
-27.632677 16.989903 48.076982 9
-26.335690 14.160152 48.996630 9
-25.394116 11.279244 49.729780 9
-24.788571 8.339755 50.287860 9
-24.441991 5.348041 50.714076 9
-24.491529 2.263122 50.933700 9
-24.854652 -0.907672 50.993131 9
-25.661936 -4.208417 50.821798 9
-26.941170 -7.661287 50.405945 9
-28.718988 -11.289417 49.732671 9
-31.260003 -15.186172 48.659664 9
-34.614865 -19.392160 47.162249 9
-39.375621 -24.119058 44.922453 9
-94.462244 35.201348 14.782192 8
-83.842833 32.646448 20.685931 8
-76.271997 29.945768 24.940974 8
-69.921648 27.240338 28.541154 8
-43.708026 27.431656 42.903666 9
-40.856024 24.663202 44.613966 9
-38.519029 21.866794 46.054883 9
-36.552851 19.050720 47.304916 9
-34.992064 16.196873 48.345946 9
-33.792449 13.300759 49.202459 9
-32.823562 10.377123 49.945264 9
-32.335670 7.365210 50.440483 9
-32.101275 4.300302 50.811199 9
-32.264923 1.140273 50.980740 9
-32.837432 -2.130492 50.944466 9
-33.861936 -5.536371 50.680650 9
-35.389240 -9.105685 50.163760 9
-37.562732 -12.894577 49.319417 9
-40.501163 -16.958357 48.087054 9
-45.343998 -21.661347 45.866848 9
161.576216 143.091639 -171.225665 0
165.071988 146.695567 -171.568125 0
153.075496 136.189062 -164.104274 0
150.065177 142.486350 -161.530624 0
154.171978 145.685231 -162.151164 0
166.624148 145.544705 -166.444266 0
181.870376 144.553524 -171.907164 0
141.006590 141.076139 -153.160153 0
139.727194 146.472625 -151.442703 0
153.230525 145.587787 -156.105930 0
165.589535 145.449202 -160.220309 0
178.436455 145.367098 -164.489271 0
132.297333 139.724859 -145.137440 0
130.063461 145.493367 -143.068347 0
140.752154 145.566548 -146.445083 0
152.311899 145.486851 -150.140244 0
164.656942 145.318541 -154.111975 0
177.211874 145.315882 -158.118353 0
124.014453 138.382308 -137.480114 0
121.865215 144.076942 -135.506408 0
128.837401 145.602177 -137.285344 0
139.904337 145.474714 -140.701413 0
151.595314 145.306499 -144.323202 0
163.372482 145.338352 -147.931290 0
175.409238 145.502044 -151.594792 0
186.402028 146.308707 -154.797841 0
116.033507 137.091714 -130.121463 0
114.006177 142.696219 -128.255686 0
115.324463 146.666538 -127.746269 0
128.110886 145.493469 -131.771742 0
139.084106 145.376199 -135.031106 0
149.343316 145.781329 -137.967977 0
161.979078 145.409760 -141.784160 0
173.901747 145.578517 -145.274818 0
106.446206 141.357158 -121.287083 0
105.336651 146.401147 -119.858664 0
116.986459 145.494070 -123.349916 0
127.379154 145.391805 -126.312825 0
135.931568 146.300724 -128.537385 0
149.286189 145.333099 -132.536892 0
160.573225 145.493141 -135.708780 0
172.353986 145.678466 -139.019950 0
99.193750 140.043626 -114.591830 0
97.401245 145.381304 -112.952347 0
106.330441 145.545615 -115.337169 0
116.272613 145.418006 -118.062973 0
126.596016 145.317817 -120.889950 0
135.054224 146.239871 -122.994969 0
148.031202 145.398059 -126.709388 0
159.158689 145.586790 -129.704855 0
92.190318 138.773323 -108.136344 0
90.510189 144.028452 -106.590590 0
96.156806 145.623265 -107.721420 0
105.805141 145.412366 -110.274787 0
115.642418 145.307433 -112.858068 0
123.703799 146.199022 -114.773526 0
136.165268 145.311575 -118.210193 0
146.719519 145.493159 -120.930092 0
156.115269 146.362875 -123.207992 0
85.454173 137.526713 -101.917128 0
83.820826 142.733235 -100.439049 0
84.489892 146.698370 -99.790768 0
95.891026 145.391928 -102.895868 0
105.113522 145.361853 -105.199733 0
114.619532 145.382955 -107.566310 0
122.435263 146.355571 -109.319995 0
134.952670 145.405570 -112.640898 0
145.375529 145.607986 -115.207488 0
83.780079 138.087364 -96.702000 0
80.646308 144.037630 -94.766285 3
85.842163 145.680696 -95.674015 0
94.977995 145.480243 -97.889062 0
104.383957 145.333202 -100.159795 0
113.850251 145.345138 -102.415356 0
123.828124 145.311959 -104.803993 0
133.789019 145.483321 -107.150245 0
141.806614 146.683245 -108.831255 0
74.441774 142.702574 -89.032455 3
79.703788 144.199139 -89.936112 3
88.084286 144.214680 -91.837100 3
94.040519 145.584494 -92.926055 0
103.529157 145.368157 -95.126942 0
113.084731 145.309492 -97.314165 0
122.687030 145.418175 -99.481354 0
132.280290 145.718690 -101.611187 0
68.404782 141.419574 -83.471153 3
71.004974 144.213325 -83.506007 3
79.073188 144.203139 -85.254463 3
87.449175 144.196446 -87.069951 3
93.132474 145.678149 -88.022894 0
102.525082 145.478504 -90.097157 0
112.247855 145.310966 -92.238108 0
121.510123 145.545417 -94.204866 0
62.539448 140.179726 -78.076755 3
62.748907 144.198155 -77.383650 3
70.464171 144.196580 -78.972617 3
78.455159 144.203562 -80.617416 3
86.765451 144.205813 -82.329490 3
95.383701 144.219144 -84.103647 0
101.546999 145.580389 -85.126230 0
111.224843 145.403400 -87.154927 0
118.619387 146.459114 -88.488535 0
55.738738 143.689060 -71.789925 3
62.223877 144.197607 -72.967729 3
69.907528 144.190806 -74.471459 3
77.896579 144.175965 -76.036542 3
86.133025 144.192262 -77.644701 3
94.731286 144.190746 -79.327000 3
100.595177 145.673484 -80.211686 0
109.893729 145.644483 -82.036297 0
50.304334 142.446809 -66.776018 3
54.337249 144.200366 -67.222656 3
61.737151 144.178532 -68.597366 3
69.333876 144.196576 -70.001500 3
77.232335 144.205849 -71.462829 3
85.466757 144.198703 -72.988991 3
93.998549 144.205056 -74.567694 3
102.729682 144.281445 -76.171066 0
106.845134 146.697855 -76.517795 0
45.039344 141.228347 -61.905815 3
46.790623 144.198963 -61.721363 3
53.885355 144.184942 -62.966326 3
61.197505 144.190523 -64.245538 3
68.778711 144.194926 -65.571449 3
76.657568 144.191868 -66.950073 3
84.837364 144.189215 -68.380647 3
93.317710 144.196676 -69.861453 3
39.875706 140.067669 -57.154901 3
39.539386 144.206297 -56.440463 3
46.350800 144.198579 -57.566897 3
53.400245 144.190059 -58.731824 3
60.676726 144.194398 -59.931197 3
68.226298 144.194118 -61.175357 3
76.052428 144.196156 -62.463710 3
84.171188 144.201074 -63.798757 3
92.626151 144.196444 -65.189606 3
34.865978 138.928656 -52.532068 3
34.504501 143.059117 -51.844567 3
39.213713 144.160167 -52.407738 3
45.877319 144.219277 -53.432894 3
52.916019 144.196622 -54.527485 3
60.129149 144.215025 -55.641445 3
67.674286 144.195314 -56.811306 3
75.443977 144.204573 -58.010012 3
83.548299 144.193468 -59.262128 3
30.824909 133.346340 -48.800979 3
30.852298 137.276860 -48.231527 3
33.003797 139.855436 -48.168409 3
35.789599 142.063462 -48.250492 3
39.637648 143.675375 -48.573233 3
45.472632 144.202253 -49.343091 3
52.478243 144.178982 -50.362486 3
59.654502 144.197708 -51.398682 3
67.127531 144.195827 -52.479142 3
74.905677 144.178605 -53.604193 3
-44.221314 6.778927 -50.423791 9
27.584697 123.239754 -45.823769 3
26.802810 127.812849 -45.084431 3
28.626515 130.602402 -44.947998 3
30.759889 133.192450 -44.879736 3
32.867400 135.807176 -44.802503 3
35.007195 138.410347 -44.729297 3
37.338204 140.908271 -44.694901 3
40.580143 142.885908 -44.855542 3
45.162847 144.132259 -45.299291 3
52.002732 144.184256 -46.215746 3
59.131424 144.208831 -47.173009 3
66.584641 144.196306 -48.177164 3
74.283493 144.198700 -49.210038 3
-108.227714 6.261731 -36.444255 8
-106.295948 9.915892 -36.355550 8
-58.648111 2.674056 -44.424935 9
-58.389650 8.961875 -43.764351 9
-56.990781 13.330977 -43.484773 9
-55.127539 16.908003 -43.360099 9
-53.083111 20.155184 -43.296702 9
-50.765085 22.960445 -43.320828 9
-47.880942 24.940876 -43.518625 9
-44.034729 25.603363 -44.003806 9
-38.423776 23.948734 -45.006749 9
-32.189153 21.623481 -46.174097 9
-25.109851 18.386568 -47.565257 9
24.308807 113.001283 -42.786772 3
23.514181 117.730470 -42.069575 3
24.314874 121.263449 -41.711783 3
26.404960 123.880978 -41.637346 3
28.500076 126.500320 -41.560962 3
30.633544 129.100439 -41.489666 3
32.775980 131.702402 -41.416910 3
34.920752 134.311318 -41.341164 3
37.063420 136.930561 -41.261408 3
39.198417 139.563941 -41.176416 3
41.883023 141.883598 -41.200658 3
45.697424 143.577528 -41.449320 3
51.518004 144.196417 -42.093371 3
58.673283 144.186079 -42.987852 3
66.065571 144.185933 -43.908005 3
-150.003984 -3.495024 -26.882744 7
-147.606974 -0.460822 -26.987687 7
-150.032336 16.091568 -25.056953 7
-146.547862 15.514346 -25.667588 7
-142.777786 14.275072 -26.383136 7
-138.852062 12.769255 -27.145830 7
-134.660463 10.745076 -27.996702 7
-129.847928 7.379852 -29.069121 7
-114.587624 -3.139592 -32.438813 8
-114.618713 5.107867 -31.643639 8
-113.308859 10.138737 -31.360180 8
-111.789180 14.554111 -31.165368 8
-110.061016 18.400505 -31.054588 8
-108.136343 21.741944 -31.019888 8
-105.064645 22.765214 -31.380899 8
-102.215840 24.234652 -31.662315 8
-95.409942 18.364026 -33.250976 8
-90.772267 16.763979 -34.094760 8
-85.801962 14.719708 -35.028852 8
-80.109743 11.589686 -36.174025 8
-64.100497 -1.707694 -39.833273 9
-63.992555 5.002558 -39.172715 9
-63.586218 11.035140 -38.620661 9
-62.023801 15.097470 -38.431228 9
-59.591892 17.747594 -38.506797 9
-57.277008 20.543004 -38.548067 9
-54.915503 23.236443 -38.603581 9
-52.201965 25.398095 -38.760653 9
-49.746332 27.914931 -38.842011 9
-46.943730 29.936567 -39.020447 9
-43.008504 30.437485 -39.512131 9
-38.464953 30.200687 -40.162434 9
-33.850436 29.966402 -40.819373 9
-29.093147 29.646740 -41.502012 9
-23.427357 28.300070 -42.414774 9
-17.515254 26.795564 -43.374855 9
-11.304478 25.084443 -44.394447 9
-4.612880 22.970502 -45.519069 9
2.784218 20.224660 -46.803471 9
11.954340 15.689230 -48.515740 9
20.136074 107.546482 -38.977004 3
19.974073 111.877584 -38.429497 3
22.088002 114.484218 -38.365010 3
24.188848 117.103862 -38.294631 3
26.324601 119.703032 -38.228246 3
28.406878 122.344432 -38.147510 3
30.539021 124.957065 -38.073574 3
32.706409 127.553258 -38.003153 3
34.813993 130.196184 -37.917047 3
36.951586 132.827416 -37.833223 3
39.104734 135.457648 -37.748615 3
41.290710 138.077639 -37.666417 3
43.613716 140.627788 -37.606421 3
46.756955 142.720072 -37.698095 3
51.316017 144.050849 -38.049772 3
58.152875 144.199292 -38.815737 3
-150.128533 -12.153804 -23.725986 7
-146.726837 -11.856679 -24.240428 7
-143.522577 -10.935306 -24.669418 7
-150.535252 18.766677 -21.122111 7
-147.085401 18.193506 -21.706881 7
-143.815994 18.196290 -22.213039 7
-140.491526 18.121525 -22.731315 7
-137.124035 18.008067 -23.256582 7
-133.721724 17.881341 -23.785416 7
-130.187204 17.513637 -24.351756 7
-126.379063 16.599539 -25.002756 7
-122.434753 15.493184 -25.687628 7
-118.361309 14.227490 -26.402446 7
-114.638824 13.844190 -26.986554 8
-113.137571 18.183020 -26.833128 8
-111.198367 21.490241 -26.830284 8
-109.163104 24.518368 -26.862787 8
-106.942676 27.114182 -26.957000 8
-103.930003 28.157445 -27.298869 8
-100.138871 27.780964 -27.874716 8
-96.224449 27.268434 -28.477285 8
-92.228634 26.705680 -29.092929 8
-88.201796 26.185860 -29.706140 8
-84.067533 25.579633 -30.339204 8
-79.854504 24.942825 -30.983008 8
-75.541134 24.245326 -31.643208 8
-67.924016 18.415716 -33.224865 8
-64.314318 19.127409 -33.653011 9
-62.541831 22.679707 -33.565168 9
-59.982682 24.993948 -33.695800 9
-57.315493 27.135262 -33.854008 9
-54.700153 29.343234 -33.995878 9
-52.027448 31.461976 -34.150691 9
-49.034604 33.137695 -34.386869 9
-45.421182 33.994590 -34.779888 9
-40.927777 33.741645 -35.391666 9
-35.967119 32.979327 -36.110365 9
-30.785353 32.052108 -36.870540 9
-25.470848 31.082855 -37.648696 9
-20.613938 30.795220 -38.297954 9
-15.731363 30.577498 -38.940274 9
-10.741006 30.333100 -39.595581 9
-5.677220 30.106370 -40.255017 9
-0.553331 29.914801 -40.915060 9
4.944477 29.414238 -41.649580 9
11.361044 28.037541 -42.583790 9
18.123446 26.446508 -43.579105 9
25.263767 24.625281 -44.640947 9
33.036014 22.333708 -45.825049 9
41.761556 19.283511 -47.200309 9
16.752013 97.175168 -35.815544 3
16.035496 102.083123 -35.180300 3
17.713794 105.046762 -35.033607 3
19.806443 107.683493 -34.967819 3
21.958074 110.277682 -34.910445 3
24.102933 112.880643 -34.848216 3
26.188330 115.530384 -34.770856 3
28.336601 118.139317 -34.702131 3
30.420887 120.797795 -34.617443 3
32.581197 123.409695 -34.543506 3
34.748514 126.024215 -34.466925 3
36.893610 128.661041 -34.382158 3
39.079670 131.280007 -34.300870 3
41.191962 133.954087 -34.201849 3
43.389532 136.584898 -34.114138 3
45.514212 139.269722 -34.008900 3
48.200506 141.639913 -33.999096 3
51.963073 143.427093 -34.172525 3
57.659780 144.199125 -34.673582 3
-151.172076 -18.281583 -20.069888 7
-148.626170 -15.228489 -20.249946 7
-145.323899 -14.554795 -20.712802 7
-140.561054 -18.075557 -21.696481 7
-151.063085 21.487034 -17.251562 7
-148.162663 22.317745 -17.631758 7
-144.764258 21.847535 -18.178269 7
-141.277995 21.241512 -18.744734 7
-137.813703 20.787699 -19.293656 7
-134.248219 20.177045 -19.865952 7
-130.634963 19.550880 -20.443258 7
-126.964107 18.890372 -21.028353 7
-123.326166 18.403875 -21.592454 7
-119.832367 18.324116 -22.101956 7
-114.601396 14.610828 -23.131953 8
-112.407318 17.465988 -23.226706 8
-111.976298 23.832650 -22.800130 8
-109.908465 26.721697 -22.867923 8
-107.695360 29.262689 -22.979712 8
-104.953853 30.755572 -23.243208 8
-101.505591 30.943117 -23.703176 8
-97.742316 30.622342 -24.243137 8
-93.815877 30.097492 -24.818253 8
-89.912718 29.706487 -25.376288 8
-85.956445 29.314222 -25.938281 8
-81.927408 28.890929 -26.509191 8
-77.881874 28.532238 -27.073708 8
-73.726153 28.088473 -27.656353 8
-69.433806 27.526746 -28.263221 8
-64.431557 25.987544 -29.040058 9
-62.131167 28.603328 -29.117533 9
-59.426450 30.601876 -29.295333 9
-56.677868 32.535257 -29.480798 9
-54.009728 34.582015 -29.642973 9
-51.173704 36.396490 -29.842760 9
-48.003883 37.771050 -30.118838 9
-44.199592 38.337859 -30.540532 9
-39.662740 38.020040 -31.126643 9
-34.829319 37.422873 -31.770257 9
-29.902037 36.816954 -32.422550 9
-24.859560 36.180357 -33.087961 9
-19.700981 35.517348 -33.766107 9
-14.410227 34.814367 -34.460026 9
-8.813013 33.877980 -35.207967 9
-3.287830 33.150570 -35.924448 9
2.482021 32.275574 -36.679510 9
8.459542 31.305607 -37.463802 9
14.135497 30.789948 -38.166605 9
19.640920 30.570952 -38.817786 9
25.220581 30.386413 -39.470209 9
30.950595 30.162341 -40.139508 9
36.771380 29.963571 -40.812560 9
42.941197 29.544630 -41.542132 9
12.530047 91.768746 -31.949156 3
13.332168 95.509678 -31.644671 3
15.448608 98.146557 -31.591201 3
17.616699 100.742127 -31.544057 3
19.719345 103.390349 -31.481028 3
21.863130 106.007930 -31.422094 3
23.937645 108.679697 -31.346710 3
26.114346 111.278112 -31.286320 3
28.222049 113.930805 -31.209492 3
30.348303 116.574071 -31.132124 3
32.479586 119.218643 -31.051653 3
34.660978 121.835065 -30.975891 3
36.763547 124.510906 -30.882102 3
38.960473 127.131881 -30.800427 3
41.131239 129.778465 -30.709766 3
43.305732 132.431694 -30.615225 3
45.499322 135.082974 -30.519287 3
47.699115 137.741208 -30.419647 3
49.946275 140.383355 -30.322978 3
53.085730 142.534071 -30.366769 3
-150.218089 -19.662397 -16.318430 7
-146.796244 -19.281242 -16.815869 7
-143.394764 -18.793783 -17.299962 7
-139.995884 -18.258658 -17.776914 7
-151.155925 22.968220 -13.592917 7
-148.773361 25.142665 -13.811040 7
-145.447017 24.770024 -14.322063 7
-142.115778 24.468121 -14.825998 7
-138.765104 24.197309 -15.327385 7
-135.327551 23.794093 -15.846190 7
-131.844356 23.368514 -16.369483 7
-128.328863 22.955354 -16.893091 7
-124.777787 22.548740 -17.417798 7
-121.158904 22.080328 -17.952477 7
-117.488553 21.591899 -18.492071 7
-114.655542 22.931707 -18.792577 8
-112.580476 25.809728 -18.884021 8
-110.441269 28.492506 -18.993657 8
-108.209542 30.939127 -19.128110 8
-105.648598 32.719721 -19.348187 8
-102.366470 33.157641 -19.752119 8
-98.661066 32.881289 -20.257422 8
-94.903741 32.594532 -20.766693 8
-91.125875 32.354564 -21.271796 8
-87.261738 32.049999 -21.788972 8
-83.377026 31.795839 -22.301587 8
-79.410747 31.492951 -22.824400 8
-75.355794 31.135743 -23.358634 8
-71.251790 30.791548 -23.894361 8
-67.125265 30.502444 -24.425120 8
-63.862863 31.583175 -24.744457 9
-61.125424 33.459506 -24.936577 9
-58.269037 35.167875 -25.151999 9
-55.464421 36.957636 -25.351265 9
-52.703473 38.814000 -25.536468 9
-49.716697 40.373063 -25.767608 9
-46.182716 41.231581 -26.113839 9
-42.133403 41.473406 -26.564824 9
-37.510825 41.063759 -27.129956 9
-32.816305 40.663718 -27.698739 9
-27.965991 40.174231 -28.288608 9
-23.102314 39.773245 -28.868873 9
-18.146739 39.367465 -29.455889 9
-12.992942 38.838978 -30.071144 9
-7.713138 38.279451 -30.698882 9
-2.464724 37.867657 -31.306650 9
3.067917 37.258287 -31.958027 9
8.774052 36.583772 -32.629561 9
14.490505 36.021465 -33.288277 9
20.516550 35.264391 -33.992664 9
26.906266 34.274005 -34.751677 9
33.169552 33.548734 -35.469506 9
39.542223 32.851728 -36.191746 9
48.643317 29.716410 -37.411663 9
7.735824 91.354411 -27.544429 3
10.670106 93.273611 -27.648153 3
14.927667 94.128944 -27.980133 3
17.451826 96.450771 -27.997264 3
19.605155 99.078166 -27.944818 3
21.713340 101.741712 -27.880641 3
23.833991 104.396266 -27.814716 3
26.009413 107.011609 -27.754080 3
28.118212 109.679544 -27.678021 3
30.296780 112.300195 -27.609468 3
32.428298 114.959174 -27.528766 3
34.610014 117.588293 -27.451946 3
36.762814 120.243532 -27.365898 3
38.896361 122.917909 -27.272231 3
41.075402 125.569456 -27.181246 3
43.249550 128.232435 -27.084736 3
45.449321 130.888344 -26.987409 3
47.633602 133.563617 -26.882725 3
49.865082 136.221070 -26.780276 3
-148.814713 -22.448866 -12.676001 7
-145.353732 -22.116166 -13.173455 7
-141.881743 -21.766853 -13.667472 7
-138.387126 -21.433443 -14.161355 7
-151.117493 24.070454 -10.013056 7
-149.004611 26.919183 -10.171434 7
-145.739556 26.645261 -10.651131 7
-142.470067 26.436951 -11.124375 7
-139.209714 26.324796 -11.587610 7
-135.848217 26.037154 -12.070480 7
-132.484146 25.821686 -12.546134 7
-129.058146 25.539228 -13.030125 7
-125.592644 25.247172 -13.516237 7
-122.094795 24.964108 -14.002432 7
-118.560968 24.683992 -14.489465 7
-114.655246 23.713754 -15.060428 8
-111.489438 24.351128 -15.439831 8
-110.813839 29.937393 -15.209654 8
-108.582994 32.335393 -15.359508 8
-106.021019 34.067163 -15.586571 8
-102.897383 34.754454 -15.942292 8
-99.261451 34.557213 -16.411002 8
-95.590764 34.375654 -16.879289 8
-91.824704 34.106833 -17.360794 8
-88.095557 33.981378 -17.825160 8
-84.246088 33.733626 -18.307794 8
-80.357533 33.504671 -18.790049 8
-76.479277 33.373737 -19.260964 8
-72.477141 33.129967 -19.749748 8
-68.418456 32.884708 -20.241268 8
-63.555238 31.532544 -20.894214 9
-62.306672 35.557283 -20.773536 9
-59.442540 37.199116 -20.991422 9
-56.666069 38.974185 -21.186389 9
-53.797863 40.630762 -21.395618 9
-50.939251 42.312628 -21.597981 9
-44.920694 39.861728 -22.430766 9
-43.820197 43.911399 -22.267191 9
-39.526855 43.858373 -22.735442 9
-34.971331 43.564754 -23.244917 9
-30.328735 43.259697 -23.760330 9
-25.588643 42.934620 -24.283299 9
-20.753878 42.597208 -24.812844 9
-15.874440 42.308672 -25.339103 9
-10.826528 41.930781 -25.885087 9
-5.677022 41.545695 -26.437607 9
-0.391113 41.119907 -27.002623 9
4.937478 40.758679 -27.562436 9
10.455255 40.310101 -28.143378 9
16.119010 39.827091 -28.736854 9
21.786617 39.457730 -29.316980 9
27.734772 38.928644 -29.932503 9
33.768151 38.441014 -30.548076 9
39.868489 38.014280 -31.160188 9
47.485979 36.308258 -32.017281 9
3.115687 90.900399 -23.243099 3
4.958650 93.688220 -23.164873 3
10.188549 93.622286 -23.639201 3
15.865599 93.288919 -24.173131 3
19.375651 94.818125 -24.343415 3
21.609219 97.400784 -24.301677 3
23.740769 100.065935 -24.239279 3
25.892149 102.716897 -24.175701 3
28.060280 105.357594 -24.110310 3
30.187499 108.031604 -24.034083 3
32.344916 110.686875 -23.957977 3
34.532764 113.325230 -23.881828 3
36.665807 116.007200 -23.792671 3
38.860839 118.652438 -23.707998 3
41.061938 121.301029 -23.619258 3
43.198319 123.999510 -23.516050 3
45.387398 126.671580 -23.415505 3
-151.111485 -24.789901 -8.414278 7
-147.700081 -24.304345 -8.894395 7
-144.185066 -24.094812 -9.395620 7
-140.656478 -23.868338 -9.893523 7
-137.080496 -23.720610 -10.396673 7
-151.161010 25.389220 -6.443513 7
-149.006601 28.063854 -6.636329 7
-145.832123 27.982509 -7.079406 7
-142.625031 27.883866 -7.523712 7
-139.355467 27.697678 -7.976208 7
-136.091377 27.596534 -8.420359 7
-132.762381 27.411097 -8.872785 7
-129.438686 27.310228 -9.316800 7
-126.073655 27.185984 -9.763212 7
-122.648288 27.001079 -10.216094 7
-119.114524 26.660498 -10.685861 7
-87.826325 -30.884870 -17.303377 8
-113.254777 28.654134 -11.336851 8
-110.948218 30.905558 -11.519391 8
-108.836963 33.494484 -11.657579 8
-106.265713 35.167708 -11.892117 8
-103.189699 35.905464 -12.229455 8
-99.680874 35.900508 -12.651425 8
-96.036186 35.724777 -13.094003 8
-92.346274 35.547232 -13.537866 8
-88.674305 35.476410 -13.969985 8
-84.911097 35.328377 -14.412482 8
-81.100494 35.180887 -14.856160 8
-77.219676 35.000369 -15.305320 8
-73.221256 34.718246 -15.768911 8
-69.261180 34.578839 -16.216106 8
-64.066576 32.692917 -16.891923 9
-63.162291 37.176799 -16.737097 9
-60.314020 38.795617 -16.951102 9
-57.481369 40.447576 -17.157150 9
-54.634083 42.090634 -17.360892 9
-51.786717 43.745968 -17.559533 9
-48.707324 45.110111 -17.795347 9
-45.100771 45.822243 -18.120575 9
-40.963457 45.917504 -18.533371 9
-36.499711 45.686341 -18.994956 9
-31.958367 45.451806 -19.459998 9
-27.360549 45.242237 -19.924481 9
-22.687025 45.036908 -20.391508 9
-17.902926 44.798904 -20.866755 9
-13.017159 44.543328 -21.348237 9
-8.076006 44.325429 -21.827715 9
-3.013780 44.075671 -22.315962 9
2.152818 43.817053 -22.809699 9
7.446535 43.530113 -23.312237 9
12.890830 43.196330 -23.826874 9
-9.468042 70.741692 -19.832283 1
-4.937768 70.993888 -20.213448 1
-0.084397 71.017057 -20.635409 1
4.755547 71.144801 -21.043795 1
41.922154 41.462093 -26.489647 9
64.422822 26.314431 -29.565191 9
