ply
format ascii 1.0
element vertex 1389
property float x
property float y
property float z
property int scalar_Label
end_header
9.486067 20.781728 46.561808 9
10.575091 17.243562 47.967312 9
11.501611 13.695432 49.149524 9
12.174563 10.107278 49.985725 9
12.664433 6.483571 50.570615 9
12.967141 2.813400 50.898512 9
13.113312 -0.904618 51.010465 9
13.026437 -4.702131 50.803133 9
12.693279 -8.595880 50.258339 9
12.152732 -12.586174 49.428153 9
11.278110 -16.728970 48.141274 9
10.117442 -21.024614 46.461938 9
8.475108 -25.564194 44.125438 9
6.410467 -30.349819 41.211020 9
5.337380 -34.811844 39.628394 9
1.986037 -40.328101 34.958494 9
-4.356073 -47.342235 26.233217 9
-5.870435 92.790745 33.655791 3
-5.880759 88.879011 33.673501 3
-21.446690 53.187254 13.306815 9
-14.325931 49.438837 22.646612 9
-9.847094 45.724892 28.512011 9
-6.362267 42.062707 33.067679 9
-3.551175 38.437286 36.734332 9
-1.359343 34.822316 39.583471 9
-0.273761 31.121813 40.974978 9
1.255519 27.516091 42.945559 9
2.864886 23.965022 45.017527 9
4.194918 20.406014 46.718450 9
5.307792 16.837325 48.129971 9
6.179992 13.242722 49.221055 9
6.850283 9.618815 50.042542 9
7.367655 5.967192 50.658738 9
7.621721 2.250517 50.924244 9
7.719369 -1.514931 50.979502 9
7.582054 -5.360963 50.720913 9
7.188142 -9.306811 50.119701 9
6.571925 -13.354815 49.220700 9
5.598639 -17.563687 47.845987 9
4.285828 -21.945985 46.018155 9
2.459764 -26.585895 43.507566 9
0.564502 -31.334599 40.899125 9
-1.034526 -36.046029 38.674771 9
-5.066089 -41.880993 33.232608 9
-13.535290 -49.863158 21.920753 9
-8.567169 100.531963 37.467271 3
-8.612298 96.623375 37.442854 3
-8.585727 92.711804 37.506755 3
-15.831303 89.546761 28.229020 3
-27.286215 53.099489 13.592019 9
-20.045429 49.317209 22.876051 9
-15.436145 45.573412 28.778379 9
-11.916912 41.876483 33.277911 9
-9.076411 38.216374 36.902707 9
-6.830089 34.570423 39.761283 9
-5.786922 30.828895 41.071442 9
-4.167409 27.199249 43.118410 9
-2.534116 23.615412 45.179820 9
-1.176819 20.025076 46.883451 9
-0.046274 16.424140 48.292483 9
0.816813 12.792489 49.354511 9
1.487354 9.133745 50.165678 9
1.937528 5.431168 50.690102 9
2.216999 1.686338 50.991483 9
2.254512 -2.129455 50.978044 9
2.043771 -6.030592 50.641465 9
1.598822 -10.025677 49.999568 9
0.864102 -14.145136 48.980585 9
-0.173976 -18.408816 47.566681 9
-1.650694 -22.881145 45.583281 9
-3.697082 -27.634063 42.861055 9
-5.390049 -32.336402 40.588486 9
-7.643251 -37.344357 37.588383 9
-12.353476 -43.492421 31.414704 9
-11.283707 108.265731 41.216547 3
-11.308059 104.349956 41.219076 3
-11.454530 100.459686 41.065248 3
-15.952022 97.143918 35.446821 3
-20.556160 93.707643 29.692362 3
-27.073166 90.326672 21.534825 3
-33.229258 53.009893 13.866973 9
-25.839477 49.194554 23.130566 9
-21.183088 45.414700 28.961391 9
-17.600583 41.683903 33.441888 9
-14.670302 37.994033 37.101194 9
-12.382419 34.315308 39.951600 9
-11.388178 30.531671 41.175547 9
-9.646736 26.881971 43.334658 9
-8.001578 23.263353 45.370259 9
-6.627207 19.639592 47.063250 9
-5.535977 15.994954 48.398046 9
-4.652433 12.331265 49.469312 9
-3.998823 8.633040 50.249018 9
-3.587377 4.885752 50.721686 9
-3.326298 1.100739 51.002518 9
-3.363920 -2.770369 50.905005 9
-3.590997 -6.711130 50.566245 9
-4.123982 -10.766962 49.839682 9
-4.935539 -14.944752 48.759425 9
-6.116615 -19.289589 47.210830 9
-7.763946 -23.854636 45.071848 9
-10.044214 -28.725368 42.132285 9
-11.511180 -33.376613 40.211506 9
-14.431678 -38.680947 36.456705 9
-20.192864 -45.292228 29.119792 9
-13.987608 115.993330 44.956203 3
-13.980866 112.064516 44.994531 3
-14.478172 108.234232 44.411886 3
-19.026650 105.047074 38.855514 3
-23.708411 101.747619 33.134069 3
-28.543023 98.331870 27.223460 3
-33.614497 94.801968 21.020531 3
-39.313861 52.917120 14.090685 9
-31.771992 49.067548 23.334971 9
-27.034927 45.252724 29.136453 9
-23.348550 41.490700 33.646918 9
-20.369418 37.766770 37.287675 9
-18.128386 34.044373 40.020826 9
-17.107719 30.226492 41.254547 9
-15.231984 26.557201 43.535310 9
-13.543306 22.908124 45.584504 9
-12.175392 19.246504 47.238016 9
-11.083222 15.565467 48.551035 9
-10.207518 11.863815 49.596250 9
-9.592424 8.120994 50.319400 9
-9.172011 4.339816 50.801335 9
-8.976506 0.502775 51.004850 9
-9.061269 -3.416344 50.861850 9
-9.356025 -7.411554 50.458494 9
-9.949190 -11.520216 49.686039 9
-10.855652 -15.762128 48.525994 9
-12.190720 -20.191524 46.836446 9
-14.043654 -24.861085 44.507376 9
-16.555560 -29.848311 41.364935 9
-22.790379 -36.351577 33.641673 9
-21.490896 -40.090073 35.177515 9
-28.627548 -47.290297 26.335486 9
-16.684224 123.720681 48.689236 3
-16.710151 119.788447 48.682611 3
-17.476157 116.017476 47.786312 3
-22.078016 112.957094 42.286293 3
-26.827474 109.791726 36.608226 3
-31.738399 106.516516 30.735429 3
-37.802145 48.938549 23.546593 9
-32.946082 45.090747 29.363764 9
-29.202599 41.293509 33.845088 9
-26.157992 37.536393 37.486732 9
-23.957349 33.770803 40.114639 9
-22.893066 29.920478 41.378005 9
-20.922037 26.225497 43.727520 9
-19.255260 22.534784 45.710614 9
-17.822670 18.846011 47.411310 9
-16.742344 15.125578 48.687915 9
-15.864011 11.387357 49.720663 9
-15.262786 7.604936 50.419376 9
-14.868973 3.781212 50.867620 9
-14.768685 -0.115647 50.961982 9
-14.869825 -4.075559 50.812902 9
-15.245106 -8.129128 50.333016 9
-15.930609 -12.300700 49.478893 9
-16.947591 -16.612357 48.224866 9
-18.439823 -21.127808 46.398134 9
-20.461708 -25.889268 43.933124 9
-22.812208 -30.850842 41.071003 9
-24.539177 -35.672312 38.955280 9
-29.078721 -41.669382 33.458146 9
-38.713553 -49.908366 21.835312 9
-19.383383 131.455020 52.413499 3
-19.407223 127.509980 52.402004 3
-20.438653 123.810003 51.207537 3
-25.122545 120.880817 45.727815 3
-29.902829 117.840489 40.134518 3
-34.921912 114.710938 34.260581 3
-44.439351 48.781237 23.172780 9
-38.961955 44.925790 29.591730 9
-35.195143 41.089903 34.003877 9
-32.053222 37.301438 37.682354 9
-29.918992 33.489252 40.178235 9
-28.734078 29.615040 41.559923 9
-26.706171 25.888750 43.929336 9
-25.008772 22.164249 45.910268 9
-23.617490 18.430238 47.531306 9
-22.519166 14.674747 48.807856 9
-21.661238 10.894477 49.801539 9
-21.056702 7.075058 50.497080 9
-20.719088 3.201157 50.878568 9
-20.637072 -0.737320 50.959240 9
-20.782854 -4.745537 50.771657 9
-21.245232 -8.859368 50.211585 9
-22.020257 -13.093087 49.283579 9
-23.167421 -17.480386 47.917744 9
-24.821074 -22.082984 45.956315 9
-27.106860 -26.968158 43.251691 9
-29.249043 -31.891644 40.714119 9
-31.576238 -36.969760 37.957885 9
-36.960714 -43.321334 31.611318 9
-22.080830 139.200155 56.143591 3
-22.077546 135.232904 56.153434 3
-23.436236 131.631791 54.600998 3
-28.147561 128.819410 49.203478 3
-33.023643 125.915719 43.616868 3
-38.092542 122.919150 37.808982 3
-46.110094 44.690304 28.647281 9
-41.180078 40.891963 34.298613 9
-38.029220 37.064621 37.909579 9
-35.951975 33.206857 40.289179 9
-34.706884 29.300764 41.714269 9
-32.599349 25.545178 44.128011 9
-30.870446 21.786262 46.107291 9
-29.463464 18.016191 47.717133 9
-28.374079 14.220819 48.962486 9
-27.542474 10.397231 49.911932 9
-26.945868 6.538105 50.591586 9
-26.670247 2.612561 50.902829 9
-26.593383 -1.364784 50.985813 9
-26.838586 -5.435547 50.699109 9
-27.388512 -9.610359 50.062585 9
-28.272669 -13.912444 49.042374 9
-29.543629 -18.373948 47.578153 9
-31.344034 -23.059120 45.506285 9
-33.900323 -28.069155 42.567008 9
-35.839973 -32.959812 40.334490 9
-39.027653 -38.385349 36.669995 9
-24.768692 142.973907 59.890666 3
-24.791039 139.011446 59.859295 3
-31.173596 136.781277 52.697780 3
-36.126019 134.009406 47.139688 3
-41.256699 131.146438 41.381880 3
-50.189629 40.458282 31.325639 9
-44.536797 36.783687 37.666085 9
-42.066412 32.922641 40.438380 9
-40.706905 28.990959 41.965372 9
-38.607994 25.194266 44.321728 9
-36.866855 21.397183 46.277217 9
-35.463528 17.586762 47.854228 9
-34.357560 13.754894 49.098124 9
-33.552111 9.887233 50.005375 9
-32.953703 5.989573 50.680800 9
-32.720578 2.016353 50.946992 9
-32.722199 -2.017963 50.950323 9
-33.033299 -6.143671 50.607024 9
-33.661133 -10.377358 49.908985 9
-34.661762 -14.750070 48.793381 9
-36.103288 -19.299946 47.183897 9
-38.109776 -24.087011 44.941493 9
-40.922556 -29.217713 41.795690 9
-42.519502 -34.031373 40.013331 9
-27.463218 142.773720 63.602897 3
-28.821972 139.199245 62.095105 3
-42.013410 138.756030 47.619355 3
-74.912208 38.800569 11.393158 8
-61.402822 35.547389 26.212989 9
-50.546504 32.391802 38.124155 9
-47.193375 28.629722 41.808691 9
-44.954726 24.806131 44.272054 9
-42.982709 20.999852 46.443919 9
-41.548733 17.154028 48.026731 9
-40.480184 13.275675 49.209782 9
-39.682507 9.366602 50.096771 9
-39.140903 5.417429 50.703956 9
-38.890386 1.408481 50.992991 9
-38.983114 -2.686099 50.906754 9
-39.363652 -6.868173 50.506071 9
-40.060204 -11.158767 49.760092 9
-41.181753 -15.603410 48.549454 9
-42.822123 -20.249708 46.771440 9
-45.371322 -25.243183 43.998818 9
-62.797889 -35.181506 24.926145 9
-30.116574 142.566092 67.328471 3
-32.180694 139.195109 65.086271 3
-47.232381 139.200318 48.928688 3
-81.441216 38.595684 11.992865 8
-74.875718 34.652794 19.044143 8
-70.605149 30.647533 23.635782 8
-61.059716 27.391055 33.884954 9
-55.362945 23.882147 40.008243 9
-51.344764 20.278789 44.332843 9
-48.886867 16.528142 46.985810 9
-47.324867 12.680586 48.679652 9
-46.321128 8.761741 49.776472 9
-45.722817 4.778418 50.440205 9
-45.524706 0.713617 50.676548 9
-45.679257 -3.439530 50.536559 9
-46.231113 -7.708200 49.972504 9
-47.349507 -12.155094 48.803184 9
-49.376917 -16.901076 46.661866 9
-54.776373 -22.707894 40.910230 9
-72.722387 -32.544961 21.721907 8
-32.825546 142.379044 70.965761 3
-35.552933 139.194219 68.066564 3
-50.768158 139.195029 52.086158 3
-88.186300 38.379355 12.495033 8
-81.583616 34.393334 19.434633 8
-77.357282 30.338194 23.883896 8
-74.083160 26.282612 27.336549 8
-70.894366 22.301006 30.701708 8
-68.441625 18.293730 33.297029 8
-66.597065 14.249722 35.256700 8
-59.788141 11.117463 42.422784 9
-58.061476 7.207419 44.262457 9
-57.156876 3.169255 45.242472 9
-56.997095 -1.015858 45.444040 9
-57.737231 -5.416356 44.704904 9
-59.680887 -10.146250 42.707324 9
-67.836751 -16.561948 34.204581 8
-70.850607 -21.813680 31.092835 8
-75.504969 -27.641801 26.266393 8
-81.680126 -34.082542 19.851514 8
-35.465553 142.176016 74.648867 3
-38.928456 139.193452 71.048878 3
-54.310791 139.190844 55.241489 3
-95.029645 38.160999 13.032817 8
-88.476901 34.123758 19.773201 8
-84.185231 30.028744 24.196814 8
-80.849919 25.934591 27.642091 8
-77.586381 21.916979 31.016307 8
-75.170438 17.859877 33.523864 8
-73.373338 13.763737 35.399491 8
-72.077400 9.622447 36.763986 8
-71.298824 5.411371 37.600897 8
-70.985894 1.118516 37.963413 8
-71.141285 -3.276995 37.848991 8
-71.851959 -7.815586 37.168755 8
-73.158349 -12.531399 35.881581 8
-75.332351 -17.520541 33.709325 8
-78.729375 -22.917395 30.288556 8
-83.640133 -28.858394 25.322414 8
-91.595353 -35.868864 17.244954 8
-38.087787 141.971801 78.324215 3
-42.329302 139.198491 74.012750 3
-57.885598 139.193933 58.371275 3
-102.080958 37.932554 13.500001 8
-95.490216 33.850305 20.135052 8
-91.117208 29.716411 24.548304 8
-87.768402 25.577710 27.937289 8
-84.435512 21.522225 31.313422 8
-82.054628 17.414634 33.737886 8
-80.234478 13.276596 35.603261 8
-78.995993 9.080797 36.888728 8
-78.227324 4.823198 37.706620 8
-77.990181 0.471410 37.995290 8
-78.259341 -3.992012 37.780285 8
-79.074728 -8.597963 37.021898 8
-80.628785 -13.416303 35.527720 8
-83.068817 -18.516333 33.150742 8
-87.047467 -24.111306 29.238173 8
-92.331934 -30.201629 24.024243 8
-40.720085 141.773982 81.965762 3
-45.713697 139.197839 77.002084 3
-61.473855 139.199115 61.497407 3
-102.739645 33.563052 20.411253 8
-98.142092 29.402531 24.953182 8
-94.839825 25.212266 28.228032 8
-91.435025 21.118123 31.607148 8
-89.034920 16.966945 34.004493 8
-87.276832 12.773557 35.776020 8
-86.079362 8.524918 37.001762 8
-85.355382 4.213380 37.767365 8
-85.172897 -0.194451 38.006417 8
-85.551599 -4.725650 37.699944 8
-86.508789 -9.407954 36.831375 8
-88.251062 -14.315097 35.198803 8
-90.979830 -19.531073 32.605646 8
-95.605093 -25.338971 28.161939 8
-101.156162 -31.548389 22.819336 8
-43.341400 141.576315 85.596607 3
-49.111530 139.199302 79.988417 3
-65.046202 139.198811 64.650173 3
-107.236729 28.889949 23.517747 8
-102.002428 24.845672 28.580501 8
-98.646733 20.697317 31.844983 8
-96.223141 16.501403 34.219611 8
-94.464040 12.260921 35.961334 8
-93.265875 7.965771 37.169706 8
-92.651371 3.588576 37.823213 8
-92.555135 -0.882281 37.984865 8
-93.023444 -5.478139 37.610670 8
-94.205223 -10.255624 36.558408 8
-96.127597 -15.251038 34.802702 8
-99.240489 -20.607249 31.913503 8
-108.875461 -27.770015 22.789204 8
-45.967188 141.382789 89.203765 3
-52.486281 139.193135 83.007982 3
-126.145959 27.421419 13.102554 7
-118.719748 23.419364 20.118223 7
-106.335786 20.227359 31.788686 8
-103.554290 16.027776 34.454419 8
-101.822553 11.735185 36.140490 8
-100.689591 7.381556 37.270234 8
-100.128734 2.947116 37.868979 8
-100.101635 -1.584344 37.973029 8
-100.733586 -6.260614 37.465403 8
-102.027675 -11.109633 36.343768 8
-104.246260 -16.219742 34.363104 8
-122.857968 -25.422891 17.045281 7
-48.557072 141.182179 92.826529 3
-55.901599 139.195665 86.002238 3
-133.577380 27.106749 13.851387 7
-126.247656 23.042785 20.630405 7
-121.468829 18.848486 25.073598 7
-120.125845 14.302306 26.370266 7
-118.052352 9.893078 28.342887 7
-116.888115 5.381629 29.487583 7
-116.908234 0.682995 29.552758 7
-116.903688 -4.021409 29.647141 7
-118.138082 -8.987347 28.613215 7
-120.677868 -14.279179 26.391246 7
-122.877162 -19.572752 24.489291 7
-135.501940 -27.465506 13.054941 7
-51.149225 140.984677 96.430554 3
-59.323519 139.197788 89.005178 3
-141.154490 26.786063 14.617727 7
-133.873519 22.665036 21.209937 7
-129.166954 18.410983 25.497498 7
-127.984312 13.795211 26.629857 7
-125.973204 9.325178 28.511881 7
-124.832111 4.758748 29.620291 7
-124.488533 0.073990 30.020642 7
-125.050853 -4.781238 29.616449 7
-126.596376 -9.858656 28.339292 7
-129.574195 -15.293536 25.788079 7
-132.536273 -20.815237 23.260399 7
-53.760078 140.794294 100.003566 3
-62.738590 139.195937 92.029992 3
-149.101989 26.438261 15.210485 7
-141.805290 22.263816 21.677375 7
-138.036040 17.842968 25.055270 7
-136.037678 13.274827 26.886499 7
-134.070389 8.745712 28.697548 7
-133.024032 4.112006 29.708338 7
-132.828852 -0.650417 29.980657 7
-133.528739 -5.583256 29.476779 7
-135.340026 -10.764768 28.008143 7
-138.751986 -16.342163 25.147683 7
-142.636225 -22.126005 21.884607 7
-56.362978 140.603652 103.571292 3
-66.190610 139.200855 95.039842 3
-149.930746 21.852054 22.144136 7
-147.134020 17.261594 24.620548 7
-144.283188 12.742146 27.150842 7
-142.393794 8.148042 28.864222 7
-141.439436 3.446272 29.783927 7
-141.374756 -1.391716 29.949537 7
-142.277776 -6.414883 29.295045 7
-144.378591 -11.706099 27.624486 7
-148.331722 -17.448729 24.379175 7
-58.914041 140.401268 107.171659 3
-69.644918 139.203626 98.066788 3
-61.569818 144.049323 110.834960 3
-61.480898 140.204536 110.748242 3
-73.068289 139.196072 101.138980 3
-62.563093 143.426768 115.666900 0
-62.469108 139.611896 115.574543 0
-62.729518 135.895057 115.207983 0
-82.944120 136.704599 98.923481 0
-65.143016 143.228958 119.199139 0
-65.042834 139.423547 119.101239 0
-65.480165 135.758456 118.593336 0
-86.507118 136.708568 102.036325 0
-67.699849 143.025928 122.744187 0
-67.632486 139.239827 122.611084 0
-72.963706 136.728882 118.376751 0
-90.143236 136.725439 105.118025 0
-70.242269 142.819858 126.295836 0
-70.145186 139.037776 126.175402 0
-76.387116 136.735423 121.349968 0
-93.782635 136.739260 108.225219 0
-73.226431 146.489328 129.734985 0
-72.830011 142.625750 129.811446 0
-72.739311 138.855940 129.676625 0
-79.867400 136.751256 124.308074 0
-97.301338 136.723005 111.448920 0
-75.592224 146.225290 133.422426 0
-75.334643 142.410883 133.385671 0
-75.245605 138.653139 133.240292 0
-83.326702 136.758231 127.309897 0
-100.834423 136.706418 114.687758 0
-78.066223 145.990417 137.028452 0
-77.935056 142.219999 136.891969 0
-77.794460 138.460594 136.773051 0
-86.824902 136.769831 130.313542 0
-103.916607 136.590430 118.265771 0
-80.584471 145.767170 140.603005 0
-80.467181 142.011948 140.447125 0
-80.349001 138.269186 140.303243 0
-90.314675 136.775192 133.353575 0
-106.697934 136.409499 122.059859 0
-83.166338 145.559893 144.136835 0
-83.027985 141.810570 143.985178 0
-82.911682 138.079251 143.830780 0
-93.848814 136.785874 136.395361 0
-109.515546 136.235604 125.833793 0
-85.719282 145.344621 147.693631 0
-85.574711 141.605196 147.536205 0
-85.483567 137.890793 147.356581 0
-97.450598 136.806542 139.426661 0
-112.361635 136.066727 129.595636 0
-88.267043 145.127292 151.258334 0
-88.154491 141.406934 151.071188 0
-88.037487 137.697426 150.899294 0
-100.996999 136.810212 142.528511 0
-115.263001 135.907984 133.331116 0
-90.831557 144.913151 154.818476 0
-90.723106 141.204971 154.619844 0
-90.565894 137.497417 154.463828 0
-104.631034 136.827602 145.611277 0
-118.262571 135.767524 137.017672 0
-93.416901 144.702879 158.373534 0
-93.281301 140.999387 158.182315 0
-93.109221 137.299732 158.026015 0
-108.265953 136.839791 148.731355 0
-96.003875 144.491509 161.936679 0
-95.830054 140.790313 161.758646 0
-95.707121 137.112797 161.564594 0
-111.893619 136.845005 151.894036 0
-98.590390 144.278360 165.510215 0
-98.411217 140.587177 165.325816 0
-98.292021 136.921422 165.121342 0
-115.586348 136.858131 155.058519 0
-101.158244 144.058966 169.105158 0
-101.023672 140.389339 168.886924 0
-100.862182 136.725166 168.697655 0
-119.325421 136.874861 158.238550 0
-103.762664 143.846202 172.692146 0
-103.615108 140.184751 172.472388 0
-103.480020 136.537247 172.260384 0
-122.910624 136.854377 161.544286 0
-149.547729 19.665666 -24.389932 7
-149.993190 3.640685 -28.144484 7
-148.846332 10.117289 -25.028654 7
-151.129670 24.891885 -16.174213 7
-147.936103 25.516729 -17.004817 7
-143.876720 24.138498 -19.250173 7
-139.321373 21.783019 -22.219538 7
-149.997336 -4.805084 -27.678263 7
-147.437717 -1.743745 -26.943820 7
-144.449657 0.105836 -27.015984 7
-151.082199 25.982409 -10.963499 7
-148.610377 28.306683 -10.625140 7
-144.913960 27.690668 -12.290318 7
-141.100628 26.921978 -14.090108 7
-137.191695 26.064290 -15.983561 7
-133.027480 24.783936 -18.204652 7
-128.436791 22.760022 -20.985075 7
-110.613840 17.497707 -30.556939 8
-108.491011 20.844562 -29.676853 8
-105.511323 22.576481 -29.972949 8
-147.965160 -8.867339 -25.471545 7
-144.716805 -7.533868 -25.894760 7
-141.505316 -6.102375 -26.267026 7
-151.108802 27.232997 -5.738451 7
-148.635246 29.491024 -5.450633 7
-145.130790 29.277925 -6.807357 7
-141.571260 29.029646 -8.212972 7
-137.873054 28.567175 -9.789216 7
-134.104136 28.057526 -11.426563 7
-130.176629 27.323934 -13.247242 7
-126.149434 26.507624 -15.158243 7
-121.838818 25.254529 -17.407121 7
-117.093594 23.310615 -20.178932 7
-112.492546 21.821626 -22.679846 8
-111.059653 26.300129 -20.997588 8
-109.240081 29.949980 -19.889233 8
-107.013354 32.795831 -19.350224 8
-103.559461 33.502081 -20.362585 8
-96.834558 28.833334 -25.328717 8
-148.712715 -15.671577 -23.652087 7
-145.260230 -14.742147 -24.333973 7
-141.797905 -13.810215 -25.030017 7
-139.015235 -11.110645 -24.618772 7
-151.088367 28.342099 -0.696818 7
-148.346473 29.897783 -0.867888 7
-144.961028 29.937091 -2.030758 7
-141.447897 29.761820 -3.356004 7
-137.919368 29.640292 -4.670752 7
-132.623854 25.816612 -8.461350 7
-130.631805 29.168081 -7.528738 7
-126.867580 28.824793 -9.070609 7
-122.957592 28.292198 -10.769874 7
-118.906733 27.597587 -12.611610 7
-114.618854 26.576416 -14.712187 8
-112.539998 29.728388 -13.965105 8
-110.529191 32.929103 -13.179934 8
-108.401314 35.853160 -12.584295 8
-105.585231 37.551925 -12.854230 8
-101.628878 37.365706 -14.481205 8
-96.837675 35.924102 -17.045245 8
-91.373463 33.574492 -20.317645 8
-76.769631 17.337506 -33.808799 8
-57.194284 14.995175 -42.825310 9
-57.596055 21.989063 -39.415332 9
-56.151901 26.294864 -38.024498 9
-54.249413 29.909346 -37.155369 9
-51.928187 32.928127 -36.747277 9
-49.243346 35.459413 -36.727449 9
-44.020742 34.865010 -39.216463 9
-150.547556 -19.610574 -19.967973 7
-146.992359 -18.920052 -20.781452 7
-143.451381 -18.148013 -21.561890 7
-139.907981 -17.343284 -22.338800 7
-136.383266 -16.452623 -23.079178 7
-151.083096 29.465770 4.268133 7
-147.837279 29.760249 3.308921 7
-144.517083 29.940969 2.258885 7
-141.122004 30.018968 1.123073 7
-137.604116 29.900150 -0.160780 7
-134.139346 29.979215 -1.340975 7
-130.585570 29.947551 -2.616210 7
-126.867215 29.663787 -4.081319 7
-123.195038 29.565755 -5.451619 7
-119.416795 29.349922 -6.927013 7
-114.708940 27.487906 -9.533962 8
-113.250624 31.726772 -8.068906 8
-111.031237 34.485802 -7.594796 8
-108.894677 37.336569 -7.057289 8
-106.204637 39.195841 -7.203287 8
-102.748547 39.784014 -8.243860 8
-98.565583 39.255885 -10.092086 8
-94.198525 38.547290 -12.105557 8
-89.422269 37.328109 -14.524250 8
-84.415829 35.906447 -17.136920 8
-78.461361 33.246508 -20.700703 8
-68.157372 24.555942 -28.749280 8
-61.351191 21.255887 -32.965914 9
-61.884941 28.266005 -29.583858 9
-62.080631 34.610756 -26.650067 9
-59.244320 36.797952 -26.825903 9
-56.427973 39.012315 -26.993109 9
-53.463724 41.042734 -27.314684 9
-50.566367 43.166012 -27.579128 9
-47.126618 44.646125 -28.364728 9
-41.860847 44.018421 -30.852096 9
-149.100992 -22.143152 -16.634094 7
-145.494020 -21.535383 -17.492702 7
-141.865839 -20.936273 -18.373494 7
-138.254425 -20.243003 -19.215222 7
-133.578617 -22.202233 -21.678127 7
-150.420359 28.950690 8.151806 7
-147.147142 29.179571 7.169237 7
-143.854733 29.426751 6.179164 7
-140.489716 29.572883 5.107174 7
-137.108215 29.751748 4.035142 7
-133.671187 29.880104 2.910498 7
-130.164280 29.934849 1.717331 7
-126.608566 29.966953 0.486602 7
-122.989723 29.952756 -0.797889 7
-119.349852 29.979142 -2.081122 7
-114.762934 28.318491 -4.492313 8
-113.423873 32.729393 -2.948142 8
-109.542023 32.495100 -4.469088 8
-108.925182 38.004690 -2.178798 8
-106.372282 40.062492 -2.185542 8
-100.823586 37.166584 -5.564667 8
-99.052829 40.570906 -4.689805 8
-95.057676 40.404646 -6.273109 8
-90.791146 39.914345 -8.115213 8
-86.345294 39.263625 -10.107981 8
-81.701937 38.440369 -12.264102 8
-76.667422 37.182624 -14.775190 8
-71.352436 35.678736 -17.515165 8
-63.023659 30.206655 -23.196128 9
-61.300081 33.915871 -22.253135 9
-61.592509 40.199204 -19.396017 9
-58.665353 42.180582 -19.708054 9
-55.662765 44.077663 -20.097938 9
-52.685994 46.021467 -20.468252 9
-49.715754 47.987380 -20.837454 9
-45.961983 49.048293 -21.925112 9
-40.809773 48.557830 -24.259359 9
-33.542155 45.812480 -28.435067 9
-23.391191 40.116691 -35.065457 9
-151.085001 -25.814730 -12.744634 7
-147.835522 -24.148643 -12.975812 7
-144.150989 -23.711743 -13.925953 7
-140.454261 -23.247933 -14.878223 7
-136.774333 -22.681413 -15.788361 7
-133.080866 -22.095393 -16.704681 7
-149.547131 27.911871 11.693305 7
-146.314855 28.253544 10.793649 7
-143.043352 28.560804 9.855995 7
-139.743641 28.863666 8.897641 7
-136.360087 29.043537 7.845696 7
-132.972695 29.282679 6.810044 7
-129.545154 29.503876 5.743137 7
-126.053012 29.661881 4.615972 7
-122.532049 29.834237 3.475783 7
-118.935760 29.933695 2.266958 7
-114.725947 28.967105 0.354827 8
-113.249761 33.088944 1.675605 8
-109.413805 32.914722 0.230623 8
-108.712604 38.242965 2.345946 8
-106.040370 40.076843 2.191568 8
-102.765176 40.913862 1.368110 8
-98.968976 40.957180 -0.005037 8
-95.086253 40.946006 -1.443680 8
-91.115685 40.885003 -2.946473 8
-86.928140 40.587227 -4.643254 8
-82.736674 40.383731 -6.310554 8
-78.241758 39.843056 -8.248405 8
-73.594420 39.202432 -10.297448 8
-68.685270 38.322720 -12.559557 8
-63.101123 36.671151 -15.421884 9
-62.860622 42.175494 -13.178467 9
-59.853098 43.994996 -13.585925 9
-56.891357 45.888052 -13.954805 9
-53.894333 47.752168 -14.360197 9
-50.947882 49.693598 -14.723629 9
-47.657357 51.246166 -15.396795 9
-43.513996 51.852506 -16.815033 9
-38.056238 51.056803 -19.352891 9
-31.733988 49.446270 -22.586968 9
-24.661057 47.200288 -26.397994 9
-15.775557 43.247344 -31.657949 9
-5.041259 93.416557 -16.561173 3
-150.463914 -25.955406 -8.033524 7
-146.735939 -25.678013 -9.044051 7
-143.026986 -25.279032 -10.004030 7
-139.243490 -25.017421 -11.059400 7
-135.514855 -24.542080 -12.011747 7
-151.137287 24.637445 15.002257 7
-148.531040 26.520904 15.017088 7
-145.312158 26.919567 14.162902 7
-142.087775 27.358469 13.316004 7
-138.773888 27.648728 12.364920 7
-135.468305 28.017591 11.442489 7
-132.127161 28.368309 10.491277 7
-128.730696 28.664015 9.488318 7
-125.320059 28.993942 8.486592 7
-121.813041 29.197326 7.387606 7
-118.250644 29.364334 6.244667 7
-114.779906 29.773135 5.229483 8
-112.728350 32.810691 5.839253 8
-110.507791 35.482666 6.222377 8
-108.281717 38.097310 6.569563 8
-105.510555 39.751921 6.301436 8
-102.183594 40.497535 5.436168 8
-98.482795 40.691063 4.191603 8
-94.701821 40.832968 2.886876 8
-90.852483 40.947630 1.536457 8
-86.886266 40.967225 0.093731 8
-82.848638 40.967560 -1.392810 8
-78.670287 40.853992 -2.988783 8
-74.301805 40.568277 -4.737180 8
-69.916407 40.361723 -6.468581 8
-63.104835 37.014704 -10.428187 9
-61.601788 40.841931 -9.418014 9
-60.564228 45.192730 -8.024647 9
-57.581742 47.018458 -8.422873 9
-54.612464 48.876779 -8.812567 9
-51.679853 50.795223 -9.173478 9
-48.500969 52.439967 -9.751177 9
-44.754538 53.461609 -10.812562 9
-35.306675 48.140031 -16.677350 9
-34.583526 52.728407 -15.135714 9
-28.636882 51.610319 -17.954318 9
-22.291324 50.223979 -21.049187 9
-15.290586 48.328014 -24.618987 9
-6.928120 45.248309 -29.214228 9
-12.052820 71.010384 -17.170650 1
-6.596187 70.959055 -19.457184 1
-10.487496 88.708418 -11.145152 3
-12.949219 95.323707 -7.642755 3
-8.903648 96.476118 -8.934985 3
-10.297083 102.023093 -6.301217 2
-7.539773 104.214358 -6.681531 2
-2.029472 104.330119 -9.009399 2
-3.631139 109.858273 -6.322534 2
-149.636761 -26.718009 -3.705411 7
-145.822663 -26.679822 -4.830459 7
-142.036835 -26.479697 -5.885668 7
-138.237639 -26.240745 -6.937766 7
-134.427927 -25.956218 -7.983035 7
-150.548633 24.295763 18.922239 7
-147.400396 24.851021 18.181408 7
-144.221060 25.376023 17.409200 7
-140.950890 25.738620 16.529383 7
-137.690316 26.178405 15.677460 7
-134.434703 26.681338 14.845791 7
-131.093403 27.053462 13.921534 7
-127.732367 27.442818 12.989598 7
-124.324232 27.795725 12.017925 7
-120.894815 28.167655 11.038613 7
-117.436982 28.546037 10.043821 7
-114.684322 30.290616 9.856372 8
-112.129115 32.386081 9.875238 8
-109.909651 35.051550 10.239888 8
-107.579407 37.479282 10.457894 8
-104.713062 38.973083 10.090939 8
-101.330839 39.632744 9.187746 8
-97.682127 39.917146 8.026419 8
-94.002658 40.223014 6.854337 8
-90.235948 40.465261 5.616168 8
-86.388257 40.660236 4.320717 8
-82.489125 40.857006 2.998542 8
-78.469390 40.959681 1.585295 8
-74.305930 40.945203 0.062998 8
-70.124801 40.996326 -1.448348 8
-63.096787 37.337855 -5.514644 9
-61.333772 40.800922 -4.777025 9
-60.779850 45.751911 -3.002682 9
-57.843955 47.608619 -3.364021 9
-54.911753 49.484441 -3.725734 9
-49.365501 48.248355 -6.317510 9
-48.951250 53.168973 -4.540250 9
-45.336012 54.310982 -5.479200 9
-40.901520 54.583759 -7.082117 9
-35.721004 54.125287 -9.267231 9
-30.508173 53.752448 -11.441401 9
-24.899683 53.082190 -13.894389 9
-18.907393 52.150144 -16.608236 9
-12.466193 50.912351 -19.625790 9
-5.274574 49.096194 -23.170469 9
2.938098 46.482968 -27.433159 9
14.299034 41.118270 -33.999954 9
-12.018183 70.986395 -12.262044 1
-6.389617 70.763731 -14.622817 1
-0.784550 70.684690 -16.930857 1
-13.577786 86.700989 -5.832294 1
-15.825269 93.191990 -2.543123 3
-14.163634 96.267780 -2.112115 3
-13.683918 100.286182 -0.861628 2
-12.293396 103.519913 -0.279979 2
-8.308182 104.706462 -1.519109 2
-8.304960 108.991892 -0.002494 2
-4.677677 110.505917 -0.994146 2
2.626907 109.390525 -4.466622 2
-148.993849 -26.951027 0.875587 7
-145.142211 -27.029665 -0.290505 7
-141.306681 -26.973042 -1.403489 7
-137.465984 -26.847111 -2.497884 7
-133.571577 -26.779964 -3.642773 7
-149.229510 22.123838 21.812376 7
-146.067932 22.694518 21.085659 7
-142.893202 23.276786 20.351679 7
-139.705329 23.871859 19.610882 7
-136.435697 24.328471 18.778285 7
-133.231103 24.977207 18.038400 7
-129.897966 25.397956 17.154354 7
-126.569949 25.884459 16.291086 7
-123.227474 26.394891 15.424830 7
-119.825212 26.841647 14.504521 7
-116.376201 27.256518 13.547447 7
-112.328141 26.624553 11.954046 8
-111.319260 31.577279 13.650806 8
-109.119867 34.279086 14.021168 8
-106.647167 36.463400 14.080348 8
-103.677272 37.792595 13.615492 8
-100.209563 38.326726 12.650755 8
-96.633960 38.745519 11.594140 8
-93.029655 39.182860 10.526708 8
-89.333008 39.542972 9.387838 8
-85.566975 39.867839 8.202182 8
-81.750642 40.190284 6.989367 8
-77.850849 40.465977 5.719930 8
-73.844151 40.668154 4.374797 8
-69.754560 40.837250 2.978304 8
-63.087214 37.654476 -0.668742 9
-61.334900 41.107382 0.045663 9
-60.660922 45.880064 1.656888 9
-57.734920 47.731372 1.303296 9
-54.811288 49.600072 0.948425 9
-51.931974 51.536654 0.627156 9
-48.926503 53.338856 0.198678 9
-45.455206 54.627725 -0.608355 9
-41.230665 55.115254 -2.011209 9
-36.337622 54.947337 -3.922918 9
-31.322782 54.755848 -5.898743 9
-26.153482 54.512123 -7.962146 9
-20.739648 54.131073 -10.179622 9
-14.928095 53.471497 -12.662788 9
-8.661033 52.498765 -15.447109 9
-14.197912 63.081168 -9.413130 4
-15.280751 69.120665 -6.786471 1
-6.512733 65.897007 -11.397576 4
-10.895292 74.839582 -6.440770 1
-14.491342 82.822036 -2.149716 1
-21.110795 93.205851 4.192246 3
-17.527534 94.587996 3.252518 3
-15.613710 97.409332 3.482088 3
-12.742655 99.441778 3.040304 2
-12.279102 103.417387 4.241972 2
-8.015034 104.372913 2.843297 2
-5.600770 106.812484 2.702136 2
-4.600437 110.317778 3.496381 2
1.019645 110.417349 1.223080 2
-148.625186 -26.399818 5.819189 7
-144.715828 -26.676492 4.575783 7
-140.802021 -26.862253 3.359865 7
-136.899363 -26.921112 2.190719 7
-150.856514 18.830048 25.142767 7
-147.791050 19.661655 24.570949 7
-144.611307 20.244417 23.855167 7
-141.445156 20.901170 23.166013 7
-138.302937 21.651384 22.514514 7
-135.048994 22.189198 21.734549 7
-131.810015 22.806718 20.983765 7
-128.526265 23.374594 20.191129 7
-125.227598 23.959813 19.392974 7
-121.886406 24.508353 18.558753 7
-118.573035 25.161496 17.767482 7
-114.766414 24.929560 16.455978 8
-112.595449 27.801284 16.902880 8
-110.362200 30.501191 17.253160 8
-108.177251 33.235869 17.625038 8
-105.528362 35.126667 17.502542 8
-102.324169 36.081126 16.819066 8
-98.883449 36.686183 15.911542 8
-95.374711 37.236649 14.951896 8
-91.774456 37.701986 13.920170 8
-88.174836 38.230635 12.905291 8
-84.481885 38.681033 11.820152 8
-80.767746 39.165835 10.732941 8
-76.924217 39.531478 9.547012 8
-72.989112 39.841046 8.299569 8
-69.029907 40.192789 7.051592 8
-63.107033 38.005885 4.138665 9
-61.578626 41.725679 5.010585 9
-60.293867 45.688817 6.052496 9
-57.425578 47.601354 5.748672 9
-54.540760 49.505397 5.427343 9
-51.659319 51.426645 5.105258 9
-48.659321 53.222909 4.685297 9
-45.165363 54.474007 3.875023 9
-37.709498 51.331597 -0.014689 9
-36.338842 55.091984 0.860847 9
-31.542030 55.117614 -0.904379 9
-26.623716 55.115932 -2.733322 9
-21.306532 54.807252 -4.831089 9
-15.962739 54.590107 -6.914647 9
-16.369439 60.162668 -4.762983 4
-16.881111 65.713516 -2.588307 4
-16.450532 70.250712 -1.140907 1
-13.080520 71.985830 -1.815462 1
-13.152857 76.878092 -0.067873 1
-26.219562 93.206486 10.678384 3
-22.011391 93.952238 9.309249 3
-17.401123 94.430427 7.683147 3
-15.632695 97.361390 8.001962 3
-11.258789 98.155730 6.560396 2
-10.797241 102.146117 7.737313 2
-8.078166 104.318201 7.399067 2
-2.369287 104.229543 5.106688 2
-1.338154 107.753271 5.875721 2
0.777089 110.451018 5.928706 2
-148.612203 -24.839414 11.206395 7
-144.623634 -25.405066 9.848497 7
-140.665072 -25.769030 8.571695 7
-136.693936 -26.058518 7.312734 7
-148.444413 13.837044 26.634840 7
-145.378952 14.799391 26.122141 7
-142.282917 15.708483 25.571878 7
-139.148199 16.551862 24.976679 7
-136.644063 18.855019 25.139505 7
-133.490863 19.676851 24.515385 7
-130.237507 20.316297 23.781736 7
-127.022349 21.078944 23.100643 7
-123.744332 21.751653 22.357565 7
-120.418547 22.373332 21.572301 7
-117.055193 22.969703 20.757972 7
-113.635843 23.510139 19.896833 8
-111.413308 26.302593 20.277638 8
-109.258189 29.160355 20.697451 8
-106.928637 31.656004 20.914551 8
-104.078730 33.224986 20.601138 8
-100.752782 34.007207 19.825156 8
-97.358278 34.722627 18.993854 8
-93.832970 35.278954 18.051674 8
-90.307670 35.892646 17.123656 8
-86.760082 36.528315 16.188934 8
-83.097828 37.049642 15.165292 8
-79.403504 37.586590 14.129068 8
-75.682986 38.148995 13.085797 8
-71.823132 38.580605 11.938789 8
-67.985050 39.111432 10.828210 8
-63.079931 38.290678 8.844222 9
-62.566199 43.306714 10.515906 9
-59.716574 45.227529 10.234404 9
-56.880344 47.175112 9.959428 9
-53.989353 49.066028 9.636718 9
-51.166267 51.051565 9.364273 9
-48.101206 52.765246 8.900131 9
-44.633747 54.042153 8.127948 9
-40.468329 54.580624 6.834096 9
-35.974172 54.833913 5.312592 9
-31.302088 54.984910 3.682567 9
-26.504560 55.098777 1.985853 9
-21.526435 55.124955 0.184368 9
-16.689059 55.396623 -1.487966 4
-16.682117 60.528029 0.299157 4
-16.642832 65.523194 2.018606 4
-16.018549 69.865682 3.287611 1
-12.726630 71.665960 2.682414 1
-30.388575 92.493668 16.402510 3
-32.476104 98.737538 19.310496 3
-34.494692 104.762177 22.110691 3
-36.468078 110.596777 24.822322 3
-38.324057 116.188567 27.400700 3
-40.097446 121.576768 29.872552 3
-41.852287 126.821054 32.282526 3
-43.508926 131.864249 34.581539 3
-45.124180 136.758520 36.808931 3
-46.653808 141.476446 38.938976 3
9.097678 104.228822 5.223894 2
-149.157960 -21.698414 17.274377 7
-145.026779 -22.777936 15.704762 7
-140.989190 -23.453575 14.310380 7
-149.221224 8.119005 28.860916 7
-146.227334 9.368684 28.492001 7
-143.205166 10.551612 28.082151 7
-140.149517 11.662839 27.627953 7
-137.080291 12.756504 27.155967 7
-133.977543 13.790787 26.644316 7
-130.846227 14.783252 26.101148 7
-127.692477 15.752248 25.535249 7
-124.510428 16.689295 24.941608 7
-121.959682 18.937012 25.027863 7
-118.718595 19.783866 24.367929 7
-114.598136 18.972620 22.807201 8
-112.249245 21.610028 23.080442 8
-110.161355 24.676731 23.588098 8
-107.996007 27.536730 23.987118 8
-105.415716 29.615995 23.957956 8
-102.298077 30.761766 23.405399 8
-98.986746 31.612485 22.674999 8
-95.583516 32.355915 21.868537 8
-92.134790 33.075200 21.031443 8
-88.658218 33.801562 20.180786 8
-85.116135 34.479628 19.284002 8
-81.504436 35.108812 18.339450 8
-77.859996 35.748180 17.380591 8
-74.184466 36.401825 16.409346 8
-70.400668 36.964230 15.361936 8
-66.619790 37.594693 14.332599 8
-62.956665 38.443870 13.413665 9
-61.725567 42.506404 14.453476 9
-58.868214 44.419834 14.170858 9
-56.113378 46.471239 13.964521 9
-53.304467 48.462503 13.710981 9
-50.475810 50.439575 13.438176 9
-47.340148 52.069425 12.930316 9
-43.858186 53.330341 12.166192 9
-39.687136 53.863788 10.901800 9
-35.214429 54.141909 9.435994 9
-30.768778 54.536373 8.012210 9
-25.982020 54.656857 6.366365 9
-21.237303 54.917978 4.775767 9
-16.810511 55.592759 3.431294 4
-16.582472 60.486024 5.008868 4
-6.176188 55.456431 -0.421394 9
-14.599375 68.547109 7.010246 1
-11.114639 70.181296 6.296086 1
-31.724926 93.698026 21.606631 3
-33.925879 100.003808 24.497182 3
-36.099944 106.123879 27.309596 3
-38.154394 111.986103 29.986541 3
-40.202673 117.696381 32.604808 3
-42.141570 123.175557 35.100854 3
-44.022499 128.474759 37.510658 3
-45.830950 133.589746 39.827788 3
-50.001344 140.387975 43.560559 3
-50.426685 144.191152 44.928419 3
-150.509607 -16.289520 24.284152 7
-150.000728 -7.497215 27.453197 7
-149.141170 -0.117712 29.988035 7
-146.346679 1.844434 29.949093 7
-143.486226 3.600033 29.807657 7
-140.554857 5.156330 29.565084 7
-137.581342 6.600481 29.262009 7
-134.567969 7.948768 28.905150 7
-131.551991 9.294653 28.539859 7
-128.462587 10.484749 28.088923 7
-125.369339 11.681601 27.632563 7
-122.219741 12.777366 27.115685 7
-119.063324 13.881841 26.593183 7
-114.714537 12.658918 24.857757 8
-112.790370 16.237399 25.593203 8
-110.760874 19.522102 26.183037 8
-108.762305 22.783467 26.766839 8
-106.389060 25.299517 26.959831 8
-103.576110 27.010379 26.720633 8
-100.291806 27.919868 26.040968 8
-97.020017 28.888939 25.379823 8
-93.605760 29.664043 24.598108 8
-90.146710 30.415284 23.787066 8
-86.733873 31.287430 23.026781 8
-83.237479 32.078034 22.204283 8
-79.684947 32.835277 21.345259 8
-76.116038 33.621183 20.484205 8
-72.409869 34.265006 19.522179 8
-68.694170 34.955280 18.566382 8
-63.157940 33.237440 16.172043 9
-61.464098 36.778016 16.853383 9
-60.745732 41.524371 18.265299 9
-57.924563 43.490122 18.016899 9
-55.163822 45.539282 17.810152 9
-52.359646 47.541489 17.565799 9
-49.590332 49.594184 17.343276 9
-46.380318 51.140919 16.793574 9
-42.759801 52.249157 15.949735 9
-38.548207 52.746312 14.692268 9
-34.183204 53.152047 13.344746 9
-29.696561 53.509318 11.932253 9
-25.212493 53.954933 10.542882 9
-20.481937 54.230931 9.004925 9
-16.041438 54.891530 7.687208 4
-15.434556 59.410033 8.964854 4
-14.878099 63.897844 10.242537 4
-16.774024 70.626074 13.103312 1
-17.789015 76.367776 15.326271 1
-16.318141 79.724836 15.892825 1
-28.229371 94.927406 25.009782 3
-30.504393 101.228359 27.838295 3
-32.753308 107.346117 30.592360 3
-34.889417 113.214988 33.220426 3
-36.989028 118.908005 35.773379 3
-38.961428 124.359189 38.198081 3
-53.222931 139.278452 48.029499 3
-54.611189 143.818402 49.945882 3
-50.561400 144.189224 48.582611 3
-45.886110 144.179952 46.867772 3
-138.052050 -18.462754 24.618010 7
-139.121677 -6.223245 29.340023 7
-136.742732 -3.049509 29.831082 7
-134.108265 -0.584473 29.989283 7
-131.323040 1.473733 29.952550 7
-128.461855 3.327514 29.814596 7
-125.531100 5.008544 29.588609 7
-122.514808 6.497929 29.263323 7
-119.480779 7.952508 28.914055 7
-114.705690 5.899884 26.809834 8
-113.041404 10.148363 27.835436 8
-111.249675 14.021579 28.684516 8
-109.860808 18.538017 29.872170 8
-107.480803 21.107540 30.075733 8
-104.752399 23.013825 29.936702 8
-101.488213 23.979160 29.302021 8
-98.149225 24.853258 28.606660 8
-94.768479 25.699195 27.882495 8
-91.401215 26.610397 27.178649 8
-87.936565 27.409075 26.399711 8
-84.616432 28.479000 25.752213 8
-81.105259 29.296835 24.952611 8
-77.564490 30.119993 24.139152 8
-73.983837 30.935478 23.304107 8
-70.403274 31.802575 22.480110 8
-66.740606 32.606527 21.602239 8
-63.002931 33.363322 20.678064 9
-62.232827 38.107801 22.035314 9
-59.484418 40.176902 21.854840 9
-56.763113 42.283441 21.688965 9
-54.037278 44.386932 21.513971 9
-51.330097 46.516890 21.347178 9
-48.438478 48.431112 21.042261 9
-45.243637 50.005861 20.519555 9
-41.427033 50.900324 19.562413 9
-37.246765 51.447104 18.364829 9
-32.931188 51.920327 17.091750 9
-28.511659 52.361300 15.766884 9
-24.050492 52.840717 14.433765 9
-19.468727 53.278503 13.039942 9
-14.643199 53.556784 11.505945 9
-13.405054 57.465068 12.337990 4
-16.754816 65.748131 16.112435 1
-15.604124 69.542832 16.924103 1
-14.508233 73.338054 17.747821 1
-13.364272 77.039780 18.518848 1
-11.698838 80.232827 18.944338 1
-24.732510 96.178307 28.416245 3
-27.121861 102.508414 31.207558 3
-29.426451 108.606786 33.891547 3
-31.639106 114.477051 36.467178 3
-33.781221 120.145760 38.950411 3
-57.685111 142.684041 54.214007 3
-55.233213 144.203560 53.808034 3
-50.718617 144.205302 52.209358 3
-46.060374 144.194616 50.550688 3
-41.091337 144.057121 48.738143 3
-122.132273 -18.647943 24.779727 7
-123.399128 -7.023585 29.161896 7
-121.212641 -3.461678 29.790570 7
-118.637570 -0.830310 29.983325 7
-114.123881 -2.257252 28.228172 8
-114.265775 5.836861 31.052231 8
-112.518658 9.900191 31.952000 8
-110.621056 13.554521 32.662758 8
-108.360845 16.433829 32.998923 8
-105.731212 18.581874 32.973565 8
-102.569469 19.762655 32.459474 8
-99.265515 20.721933 31.822901 8
-95.968708 21.729948 31.198857 8
-92.556874 22.583187 30.482750 8
-89.131875 23.458863 29.764221 8
-85.668592 24.317873 29.022634 8
-82.159494 25.151818 28.252866 8
-78.689919 26.093326 27.524675 8
-75.136723 26.955699 26.738792 8
-71.667454 27.988140 26.028513 8
-68.084360 28.902528 25.238349 8
-63.104229 27.935962 23.394952 9
-61.529960 31.704280 24.146900 9
-60.843010 36.576275 25.527793 9
-58.168771 38.759350 25.408677 9
-55.507390 40.957255 25.292161 9
-52.821357 43.123574 25.151465 9
-50.108942 45.259240 24.986345 9
-47.118364 47.067873 24.621903 9
-43.716264 48.415776 23.972950 9
-39.829485 49.249775 22.999149 9
-35.721104 49.897640 21.888913 9
-31.428799 50.414840 20.671820 9
-27.120365 50.992176 19.462144 9
-22.690081 51.518302 18.190458 9
-18.171811 52.034441 16.880550 9
-13.539748 52.518674 15.516998 9
-10.434962 54.593591 15.142100 4
-9.100957 58.399616 15.879346 4
-12.224910 66.371336 19.367118 1
-11.114228 70.203644 20.173309 1
-10.039776 74.018628 20.979848 1
-8.860180 77.691092 21.701506 1
4.495570 70.735077 15.114082 1
-21.290834 97.499077 31.861233 3
-23.722705 103.795775 34.571197 3
-26.087555 109.879074 37.188823 3
-60.699181 141.570656 58.380939 3
-59.763631 144.230025 58.847767 3
-55.353153 144.205891 57.329969 3
-50.844407 144.198985 55.778645 3
-46.219978 144.199813 54.184831 3
-41.452504 144.192794 52.534348 3
-35.603697 143.525027 50.313254 3
-113.038508 -11.761752 29.208387 8
-113.507435 -2.655646 32.370097 8
-112.189540 2.484374 33.715751 8
-110.574239 6.866342 34.721860 8
-108.583519 10.396538 35.335908 8
-106.083464 12.887581 35.458740 8
-103.102114 14.465598 35.139882 8
-99.892087 15.644351 34.619553 8
-96.646517 16.787724 34.071852 8
-93.386042 17.934851 33.515430 8
-90.061306 19.005819 32.910033 8
-86.690893 20.037667 32.273022 8
-83.303590 21.080361 31.628897 8
-79.832620 22.032236 30.925282 8
-76.301133 22.936231 30.182745 8
-72.709889 23.798741 29.403503 8
-69.087747 24.666268 28.610924 8
-63.149324 22.318151 26.097164 9
-62.926210 28.045685 27.855177 9
-61.905280 32.541625 28.977012 9
-59.375972 34.943479 28.975950 9
-56.678455 37.116382 28.845950 9
-54.129734 39.476975 28.814352 9
-51.420865 41.631600 28.663514 9
-48.609719 43.664292 28.437428 9
-45.584698 45.451186 28.063195 9
-39.219666 43.371578 25.451624 9
-37.978873 47.311512 26.284905 9
-33.865746 47.980713 25.209990 9
-29.697759 48.659805 24.115057 9
-25.411320 49.283099 22.959932 9
-21.085931 49.940452 21.796928 9
-16.564611 50.471781 20.527658 9
-12.018660 51.060405 19.261821 9
-7.339601 51.599450 17.932504 9
-4.055585 53.570083 17.472815 4
-1.643155 56.393071 17.541452 4
-6.068102 65.540053 21.689066 4
-2.138886 66.848438 20.805882 1
0.072357 69.738483 20.940894 1
4.517929 70.678361 19.769185 1
-14.993350 92.090771 32.408794 3
-17.812932 98.810771 35.290421 3
-63.609567 140.439587 62.425615 3
-64.086873 144.209814 63.671413 3
-59.829657 144.203940 62.260324 3
-55.503392 144.232378 60.831716 3
-50.950867 144.179252 59.300059 3
-46.377153 144.204450 57.778996 3
-41.618990 144.190327 56.180451 3
-36.774442 144.212911 54.558529 3
-110.421574 -16.351135 31.550429 8
-110.698162 -7.560841 34.451199 8
-109.707108 -1.669239 36.075078 8
-108.001287 2.615976 36.985774 8
-105.745202 5.724951 37.365661 8
-102.905500 7.681153 37.213247 8
-99.824020 9.187263 36.845948 8
-96.719513 10.663358 36.457426 8
-93.559677 12.057310 36.022210 8
-90.379329 13.435132 35.570831 8
-87.091919 14.656972 35.034983 8
-83.807158 15.911803 34.504871 8
-80.456227 17.090906 33.926943 8
-77.060844 18.234580 33.319923 8
-73.637751 19.372270 32.697720 8
-70.153493 20.457093 32.036131 8
-66.591607 21.470799 31.324710 8
-63.109437 22.641640 30.679429 9
-62.627511 27.985773 32.185780 9
-60.133037 30.478242 32.223625 9
-57.643716 32.961712 32.254787 9
-55.065414 35.315891 32.214867 9
-52.491650 37.667967 32.170223 9
-49.882359 39.969358 32.094244 9
-46.930986 41.852464 31.784462 9
-43.621778 43.325618 31.238684 9
-39.853579 44.298101 30.399261 9
-35.847244 45.054312 29.417862 9
-31.767517 45.793849 28.403808 9
-27.594090 46.498386 27.345381 9
-23.436293 47.289966 26.311967 9
-19.115686 47.979280 25.192956 9
-14.748229 48.694662 24.061607 9
-10.241359 49.344668 22.862464 9
-5.649470 49.990178 21.630006 9
-0.921956 50.586117 20.335280 9
3.905414 51.172922 19.001008 9
8.865196 51.724785 17.609421 9
13.865893 52.330713 16.214654 9
19.113352 52.808665 14.699644 9
24.492702 53.270597 13.132426 9
30.013086 53.714191 11.509273 9
-66.489900 139.347026 66.394029 3
-67.619523 143.656782 67.967550 3
-64.159421 144.201397 67.013550 3
-59.935137 144.209508 65.660620 3
-55.557307 144.186010 64.245433 3
-51.088348 144.183798 62.802605 3
-46.519025 144.199027 61.327922 3
-41.800311 144.199806 59.796557 3
-36.966810 144.215983 58.227741 3
-31.907445 144.175036 56.565341 3
-104.884053 -10.477501 36.463830 8
-103.385281 -5.593552 37.576240 8
-101.042966 -2.466494 37.918039 8
-98.417595 0.068403 37.997123 8
-95.637029 2.285091 37.931902 8
-92.750822 4.294358 37.769678 8
-89.734308 6.069268 37.495573 8
-86.684788 7.791036 37.191267 8
-83.550014 9.378754 36.817893 8
-80.348512 10.872734 36.392751 8
-77.090603 12.297047 35.925949 8
-73.805785 13.703292 35.441196 8
-70.448952 15.026620 34.906413 8
-67.010391 16.259957 34.316735 8
-63.037559 16.760573 33.352884 9
-62.115020 21.618764 34.543335 9
-60.649922 25.612704 35.318030 9
-58.220926 28.228691 35.405050 9
-55.702171 30.705949 35.420384 9
-53.271869 33.283869 35.485696 9
-50.677583 35.637959 35.433014 9
-47.984835 37.863968 35.309342 9
-44.916314 39.634868 34.938773 9
-41.391035 40.883920 34.278315 9
-37.468169 41.713744 33.375021 9
-33.559946 42.621471 32.493526 9
-29.531626 43.454816 31.550183 9
-25.336132 44.169624 30.518313 9
-21.155400 44.970547 29.510368 9
-16.910491 45.772655 28.478521 9
-12.498467 46.473259 27.362740 9
-8.110279 47.273620 26.277156 9
-3.592999 48.020360 25.132379 9
1.057686 48.715891 23.927678 9
5.785223 49.420245 22.696872 9
10.641820 50.088195 21.411359 9
15.657009 50.698943 20.056231 9
20.775341 51.309166 18.663998 9
25.979213 51.938336 17.245285 9
31.375874 52.498194 15.742709 9
-70.364215 142.532421 71.767245 3
-68.383687 144.225379 71.618064 3
-64.249583 144.207718 70.332690 3
-60.008091 144.190378 69.010351 3
-55.669856 144.185421 67.657476 3
-51.245209 144.203892 66.280112 3
-46.672603 144.203317 64.847464 3
-41.989405 144.216135 63.379753 3
-37.121143 144.193693 61.840459 3
-32.140861 144.193294 60.267613 3
-26.624471 143.933176 58.452706 3
-87.886821 -11.016103 36.361998 8
-86.596589 -5.899894 37.533032 8
-84.335185 -2.604808 37.906661 8
-81.725160 0.039640 37.991953 8
