ply
format ascii 1.0
element vertex 1344
property float x
property float y
property float z
property int scalar_Label
end_header
-175.119107 145.976990 95.739046 0
-172.459318 145.976907 95.282265 0
-169.754550 145.975317 94.818104 0
-166.999794 145.968304 94.345121 0
-164.183881 145.945264 93.859806 0
-161.354297 145.962643 93.378895 0
-158.448491 145.950964 92.881119 0
-155.519312 145.971241 92.384830 0
-152.464105 145.914679 91.855913 0
-149.307969 145.814076 91.303679 0
-146.102791 145.727299 90.745838 0
-143.812487 146.621063 90.494468 0
-140.373566 146.414673 89.879824 0
-4.742653 19.045026 47.302524 9
-0.140586 20.370655 46.728615 9
4.524101 21.703953 46.146439 9
9.336187 22.970670 45.530230 9
14.252334 24.216454 44.894380 9
19.326741 25.398669 44.223177 9
24.544309 26.537493 43.522315 9
29.810190 27.718665 42.821079 9
35.288888 28.808515 42.071083 9
39.387457 31.098106 41.740635 9
41.921641 34.664861 41.872708 9
72.093094 16.873984 34.044046 5
77.978370 18.325348 33.287315 5
84.072889 19.714600 32.487195 5
90.419928 21.018848 31.632905 5
96.914909 22.322769 30.755213 5
103.792168 23.468497 29.790293 5
123.456265 16.009742 25.343554 6
130.509890 17.455912 24.399381 6
138.902259 18.145080 23.114671 6
146.637005 19.409219 22.031475 6
-217.564830 135.477407 103.810982 0
-215.909695 136.414200 103.657541 0
-217.873091 144.125172 105.061426 0
-217.396148 147.058848 105.387295 0
-214.812682 146.134654 104.819586 0
-212.700995 146.117364 104.458823 0
-210.574985 146.118014 104.098833 0
-208.429941 146.128932 103.737761 0
-206.230628 146.093262 103.361729 0
-203.052363 144.537348 102.608845 0
-200.812474 144.559542 102.235520 0
-199.566231 146.146469 102.249184 0
-197.240794 146.094185 101.852518 0
-194.897993 146.063776 101.456759 0
-192.523950 146.035499 101.056824 0
-190.124191 146.018569 100.654949 0
-187.714619 146.035806 100.257019 0
-185.239252 146.011153 99.842993 0
-182.736199 145.999184 99.426938 0
-180.155710 145.936338 98.991619 0
-177.634714 146.001311 98.585071 0
-174.962935 145.926487 98.134541 0
-172.321093 145.942411 97.702667 0
-169.604958 145.920925 97.254040 0
-166.845058 145.901876 96.799386 0
-164.053270 145.900692 96.342881 0
-161.238204 145.927987 95.887478 0
-158.265687 145.835879 95.390039 0
-155.250301 145.757484 94.888427 0
-152.821498 146.362598 94.581662 0
-150.097183 146.695067 94.188360 0
-8.358929 5.157759 50.724911 9
-4.652805 7.364250 50.447119 9
-0.777278 9.433941 50.123691 9
3.333970 11.312942 49.736101 9
7.639791 13.053393 49.298599 9
12.119101 14.685353 48.818987 9
16.678829 16.302296 48.325909 9
21.475315 17.768973 47.774507 9
26.306319 19.273568 47.224813 9
31.349385 20.665407 46.626319 9
36.555638 21.995484 45.994374 9
41.840870 23.340257 45.353720 9
49.766030 22.641503 43.992473 9
76.921281 6.939697 37.354379 5
81.932815 9.125049 36.887315 5
87.315011 11.093950 36.331201 5
92.952389 12.948816 35.719609 5
98.858295 14.690968 35.050670 5
105.247150 16.179078 34.269459 5
127.795692 6.503070 29.270864 6
133.716461 8.750495 28.681393 6
140.067920 10.794650 27.995710 6
146.895939 12.623217 27.204815 6
-217.628779 136.026034 106.138867 0
-217.559589 139.974574 106.633787 0
-217.381340 143.577570 107.067233 0
-217.072906 146.818784 107.433586 0
-214.590888 146.076766 106.930157 0
-212.560959 146.197187 106.613099 0
-210.400936 146.131900 106.251641 0
-208.235767 146.102759 105.894929 0
-206.079400 146.131584 105.548084 0
-203.868857 146.115541 105.187523 0
-197.216880 139.207445 103.210459 0
-199.356869 146.075189 104.453382 0
-197.059234 146.059822 104.081622 0
-194.718458 146.026838 103.701558 0
-192.333578 145.977474 103.313217 0
-189.952862 145.982136 102.933608 0
-187.534336 145.981332 102.548206 0
-185.030052 145.912318 102.141105 0
-182.546125 145.921076 101.748515 0
-179.991232 145.886380 101.339899 0
-177.429257 145.893587 100.936731 0
-174.814971 145.885700 100.524303 0
-172.143673 145.859641 100.101490 0
-169.474626 145.889118 99.687484 0
-166.720932 145.870920 99.254855 0
-163.867356 145.792216 98.799522 0
-160.942096 145.690264 98.330930 0
-158.911485 146.635344 98.143985 0
-155.828652 146.460866 97.643227 0
14.489368 -5.488872 50.685102 9
16.390561 -1.209047 50.984834 9
19.455819 1.929543 50.951721 9
23.009676 4.618228 50.784172 9
26.980313 6.949617 50.505942 9
31.170412 9.121877 50.174495 9
35.629857 11.103099 49.777866 9
40.348485 12.915741 49.320752 9
45.970019 14.033172 48.632480 9
101.340614 -6.029932 37.516433 5
103.033346 -0.980399 37.983018 5
-216.792708 138.905069 108.576583 0
-216.635840 142.558237 108.984044 0
-216.528915 146.176577 109.396435 0
-214.901869 146.966365 109.232414 0
-212.330325 146.117975 108.724852 0
-210.258453 146.198414 108.408122 0
-208.095000 146.164575 108.064412 0
-205.875340 146.082797 107.707245 0
-203.687407 146.097682 107.367779 0
-201.385094 145.976710 106.995234 0
-199.150390 146.007671 106.652689 0
-196.848442 145.981052 106.293892 0
-194.505108 145.939733 105.928069 0
-192.152330 145.931916 105.566031 0
-189.772224 145.931996 105.201930 0
-187.339173 145.905828 104.827691 0
-184.897430 145.916201 104.457799 0
-182.372123 145.863712 104.068655 0
-179.852155 145.868773 103.688631 0
-177.282497 145.859907 103.300587 0
-174.656183 145.830991 102.902742 0
-172.013227 145.833715 102.507573 0
-169.245990 145.739494 102.082931 0
-167.068474 146.391728 101.841093 0
-164.554419 146.685436 101.505374 0
-215.832789 137.471850 110.471441 0
-215.638847 141.074609 110.831909 0
-215.427855 144.523671 111.174383 0
-214.753574 147.035459 111.345164 0
-212.128288 146.087762 110.841857 0
-210.059398 146.167654 110.536935 0
-207.866834 146.080059 110.196187 0
-205.717109 146.107786 109.875914 0
-203.509784 146.085115 109.542729 0
-201.202776 145.951126 109.183604 0
-198.978943 145.992949 108.857774 0
-196.652491 145.923893 108.505668 0
-194.325396 145.901286 108.160022 0
-191.962434 145.873395 107.809858 0
-189.576348 145.859943 107.459299 0
-187.152996 145.842194 107.104187 0
-184.705663 145.839868 106.748726 0
-182.201394 145.810194 106.383289 0
-179.681118 145.809339 106.020248 0
-177.103046 145.784348 105.647540 0
-174.487624 145.763740 105.271415 0
-172.577218 146.652553 105.102691 0
-169.756042 146.471055 104.681472 0
-214.405253 139.157488 112.634565 0
-214.116018 142.494605 112.921268 0
-213.864162 145.789553 113.210809 0
-212.557206 147.150417 113.154834 0
-209.832905 146.089634 112.651757 0
-207.728101 146.143318 112.351838 0
-205.532533 146.089133 112.029435 0
-203.353362 146.105474 111.718020 0
-200.990623 145.878498 111.357139 0
-198.722126 145.847645 111.031198 0
-196.449738 145.856062 110.710259 0
-194.115896 145.818802 110.377491 0
-191.764157 145.802400 110.045915 0
-189.407815 145.825731 109.719382 0
-186.965910 145.776868 109.374994 0
-184.515419 145.765179 109.034893 0
-182.016617 145.737737 108.688074 0
-180.064514 146.465292 108.497634 0
-177.716852 146.712264 108.203785 0
-212.833990 136.622671 114.378482 0
-212.559256 140.030038 114.642001 0
-212.278373 143.315911 114.895544 0
-211.966752 146.444675 115.132381 0
-210.270311 147.134443 114.957239 0
-207.567084 146.168704 114.493653 0
-205.395283 146.146465 114.191212 0
-203.177517 146.094267 113.881392 0
-200.795622 145.832029 113.531481 0
-198.539449 145.814757 113.223057 0
-196.252084 145.795373 112.911941 0
-193.949889 145.799305 112.602747 0
-191.583170 145.755675 112.282195 0
-189.202402 145.739459 111.964125 0
-187.016419 146.036690 111.703412 0
-185.049170 146.662219 111.504663 0
-182.453515 146.482983 111.148075 0
-210.586409 136.823696 116.306292 0
-210.237147 140.047447 116.514885 0
-209.893000 143.179944 116.718817 0
-209.581480 146.272603 116.925835 0
-208.006206 147.184949 116.789890 0
-205.196142 146.102866 116.329890 0
-202.993419 146.069394 116.037611 0
-200.594862 145.776161 115.700200 0
-198.324593 145.732551 115.402086 0
-196.071290 145.759325 115.113968 0
-193.758124 145.741819 114.816385 0
-191.985894 146.540633 114.658803 0
-189.711086 146.650240 114.380798 0
-206.982697 138.485650 118.177760 0
-206.636482 141.610079 118.354397 0
-206.040855 144.231030 118.465516 0
-205.380663 146.678134 118.558092 0
-203.501605 147.137893 118.355866 0
-200.383788 145.703956 117.863155 0
-198.536286 146.296196 117.678732 0
-196.536134 146.680721 117.462276 0
-194.057280 146.397405 117.139664 0
-206.678760 138.291570 120.349230 0
-207.165544 142.809706 120.684799 0
-207.060985 146.202579 120.881476 0
-205.123858 146.539746 120.669369 0
-202.969528 146.561387 120.413727 0
-200.672347 146.403203 120.132008 0
15.865781 -3.152133 -50.890585 9
12.952240 -4.673556 -50.771625 9
10.088026 -5.701324 -50.665571 9
7.248688 -6.590422 -50.568491 9
4.433426 -7.157113 -50.481872 9
1.630033 -7.673605 -50.402956 9
-1.163382 -8.167402 -50.331413 9
-3.948384 -8.584054 -50.267647 9
-6.727706 -8.917010 -50.211629 9
-9.502940 -9.210705 -50.162918 9
-12.279471 -9.360056 -50.122323 9
-15.053145 -9.554163 -50.088268 9
-17.830995 -9.650958 -50.061878 9
-20.607906 -9.779417 -50.042117 9
-23.392127 -9.821964 -50.029904 9
-26.180367 -9.852850 -50.024663 9
-28.976928 -9.834220 -50.026698 9
-31.781007 -9.792340 -50.035825 9
-34.592021 -9.742673 -50.051946 9
-37.421969 -9.591641 -50.075832 9
-40.257891 -9.464725 -50.106535 9
-43.132633 -9.125276 -50.146016 9
-46.568350 -5.113995 -50.223110 9
46.162521 -12.289142 -49.051797 9
43.007978 -14.499506 -48.868469 9
40.134442 -15.076089 -48.700265 9
37.291788 -15.554549 -48.539948 9
34.456414 -16.100158 -48.386887 9
31.649082 -16.541886 -48.241412 9
28.864573 -16.896769 -48.103267 9
26.088993 -17.280634 -47.972156 9
23.328365 -17.626536 -47.848082 9
20.584177 -17.894298 -47.730940 9
17.842089 -18.259765 -47.620635 9
15.117256 -18.496809 -47.517073 9
12.398154 -18.761867 -47.420227 9
9.688834 -18.957608 -47.329955 9
6.983641 -19.196213 -47.246333 9
4.286271 -19.327485 -47.169084 9
1.591249 -19.546573 -47.098507 9
-1.099222 -19.655356 -47.034174 9
-3.787141 -19.839020 -46.976463 9
-6.474110 -19.913474 -46.924897 9
-9.158143 -20.082479 -46.879992 9
-11.845222 -20.120644 -46.841099 9
-14.530613 -20.221952 -46.808768 9
-17.220035 -20.258414 -46.782604 9
-19.909133 -20.333076 -46.762929 9
-22.603585 -20.360487 -46.749469 9
-25.303137 -20.365233 -46.742308 9
-28.004331 -20.396604 -46.741623 9
-30.716557 -20.359610 -46.747109 9
-33.435380 -20.315663 -46.758995 9
-36.156381 -20.306911 -46.777442 9
-38.896394 -20.200086 -46.802047 9
-41.638034 -20.143040 -46.833320 9
-44.435218 -19.768243 -46.870210 9
-47.459011 -18.058640 -46.910104 9
-50.948316 -13.825805 -46.950714 9
51.456491 -15.614327 -46.116184 9
47.882090 -20.063350 -45.961152 9
44.815623 -21.947023 -45.801212 9
41.959094 -22.737398 -45.642217 9
39.195558 -23.031896 -45.486824 9
36.437275 -23.380500 -45.338712 9
33.708138 -23.597888 -45.196257 9
30.979385 -23.899536 -45.061205 9
28.269406 -24.127546 -44.932069 9
25.575685 -24.281369 -44.808685 9
22.882106 -24.519285 -44.692590 9
20.194900 -24.784487 -44.583211 9
17.524852 -24.919985 -44.478740 9
14.858603 -25.086821 -44.380886 9
12.196658 -25.283302 -44.289623 9
9.543061 -25.414658 -44.203767 9
6.892929 -25.569586 -44.124354 9
4.247913 -25.676009 -44.050441 9
1.605375 -25.812025 -43.982996 9
-1.034210 -25.906198 -43.921059 9
-3.672295 -25.979199 -43.864866 9
-6.309621 -26.048064 -43.814626 9
-8.946376 -26.126765 -43.770520 9
-11.583032 -26.206910 -43.732426 9
-14.220579 -26.275616 -43.700156 9
-16.860548 -26.319005 -43.673503 9
-19.504177 -26.335856 -43.652443 9
-22.148744 -26.379386 -43.637745 9
-24.801124 -26.363218 -43.628168 9
-27.454002 -26.389594 -43.625201 9
-30.115987 -26.366735 -43.627529 9
-32.782116 -26.355883 -43.636056 9
-35.454702 -26.338930 -43.650541 9
-38.135995 -26.303562 -43.670831 9
-40.823537 -26.274490 -43.697310 9
-43.539585 -26.104765 -43.727931 9
-46.369358 -25.286762 -43.755694 9
-49.406633 -23.377889 -43.774843 9
-52.847752 -19.456328 -43.773507 9
-56.654366 -14.040312 -43.760044 9
57.978738 -12.508665 -43.154262 9
53.725379 -19.743414 -43.077893 9
50.125474 -24.201438 -42.971070 9
46.039957 -32.039830 -42.934619 9
44.086269 -27.711250 -42.696281 9
41.334707 -28.118759 -42.546520 9
37.827614 -33.915371 -42.505611 9
35.188056 -34.090483 -42.367290 9
32.559372 -34.254434 -42.234877 9
29.942244 -34.394331 -42.108036 9
27.332580 -34.538181 -41.987270 9
24.729426 -34.692312 -41.872669 9
22.136183 -34.815270 -41.763300 9
19.549141 -34.938021 -41.659769 9
16.966529 -35.080125 -41.562477 9
14.390520 -35.205703 -41.470588 9
11.822034 -35.276996 -41.383176 9
9.254772 -35.404900 -41.302764 9
6.691468 -35.536120 -41.228109 9
4.132474 -35.636446 -41.158365 9
1.576729 -35.683344 -41.092938 9
-0.977812 -35.748348 -41.033526 9
-3.530971 -35.844196 -40.980439 9
-6.083004 -35.930918 -40.932687 9
-8.636350 -35.942683 -40.888604 9
-11.188255 -36.026694 -40.851858 9
-13.743023 -36.052790 -40.819178 9
-16.621871 -30.194686 -40.642461 9
-19.235688 -30.224952 -40.620437 9
-21.853740 -30.233304 -40.603493 9
-23.990536 -36.079115 -40.741639 9
-26.560587 -36.090376 -40.736192 9
-29.134316 -36.107171 -40.736436 9
-31.713176 -36.119069 -40.742117 9
-34.301683 -36.093613 -40.752423 9
-37.658968 -30.223624 -40.619286 9
-40.312724 -30.223901 -40.641954 9
-42.130915 -35.856290 -40.812986 9
-44.835961 -35.284175 -40.832109 9
-47.710744 -33.817320 -40.834694 9
-50.814210 -31.273633 -40.816723 9
-54.197854 -27.549091 -40.776357 9
-58.007585 -22.084144 -40.700832 9
-61.558169 -18.428856 -40.677758 9
58.971934 -22.648567 -40.275570 9
55.259523 -27.218761 -40.210636 9
51.787398 -31.052795 -40.137698 9
48.523231 -34.205076 -40.056562 9
45.563151 -35.998584 -39.946407 9
42.790191 -36.905362 -39.818390 9
40.136032 -37.200150 -39.679028 9
37.519460 -37.321924 -39.540488 9
34.910580 -37.452928 -39.408028 9
32.309757 -37.588561 -39.281466 9
29.718241 -37.715005 -39.160321 9
27.139486 -37.792661 -39.043264 9
24.558804 -37.955224 -38.934528 9
21.983844 -38.136954 -38.832016 9
19.423078 -38.229174 -38.732094 9
16.871440 -38.262605 -38.635657 9
14.319036 -38.370990 -38.547153 9
11.771180 -38.479852 -38.464074 9
9.230257 -38.517855 -38.383926 9
6.690354 -38.600935 -38.310662 9
4.153721 -38.660455 -38.241889 9
1.619144 -38.706784 -38.177934 9
-0.914290 -38.801710 -38.120970 9
-3.446417 -38.843571 -38.067376 9
-5.978656 -38.862242 -38.018182 9
-8.511531 -38.879011 -37.974137 9
-11.043686 -38.945216 -37.937098 9
-13.578270 -38.969971 -37.903771 9
-16.112882 -39.026561 -37.876815 9
-18.652693 -39.027039 -37.853020 9
-21.191884 -39.078043 -37.836287 9
-23.734515 -39.118708 -37.824396 9
-26.288932 -39.066725 -37.814326 9
-28.845548 -39.046296 -37.810649 9
-31.404011 -39.056539 -37.813351 9
-33.967618 -39.066711 -37.821316 9
-36.543209 -39.027922 -37.832768 9
-39.122122 -39.015269 -37.850488 9
-41.698373 -39.066801 -37.875885 9
-44.367024 -38.577393 -37.886923 9
-47.165575 -37.420639 -37.879244 9
-50.146132 -35.416405 -37.846693 9
-53.360874 -32.422035 -37.784665 9
-56.703950 -29.121282 -37.718352 9
-60.188511 -25.498122 -37.647600 9
-66.731360 -8.207809 -37.101034 8
-69.754463 -7.925287 -37.166109 8
-72.824256 -7.522006 -37.233432 8
-75.909423 -7.141573 -37.308141 8
-79.033402 -6.692839 -37.387179 8
-82.175396 -6.263705 -37.473681 8
-85.376186 -5.707618 -37.562806 8
-88.632769 -5.050863 -37.655665 8
-91.940062 -4.323299 -37.753469 8
-95.383305 -3.257924 -37.847794 8
-98.938254 -1.966163 -37.942776 8
88.778180 0.396366 -37.995690 5
84.627882 -3.205589 -37.861068 5
81.085706 -4.897141 -37.676144 5
77.707181 -6.150960 -37.486017 5
74.412530 -7.228149 -37.298533 5
71.201119 -8.106249 -37.112346 5
68.037835 -8.907866 -36.931297 5
61.660382 -24.308158 -37.293457 9
58.008322 -28.351629 -37.258215 9
54.526595 -31.997590 -37.219078 9
51.209956 -35.207803 -37.173519 9
48.103744 -37.660041 -37.107846 9
45.209607 -39.212763 -37.014876 9
42.502117 -39.857467 -36.892571 9
39.868008 -40.155305 -36.762255 9
37.275869 -40.250938 -36.629290 9
34.691968 -40.347914 -36.501831 9
32.109297 -40.498764 -36.382053 9
29.541687 -40.593172 -36.265266 9
26.982593 -40.673253 -36.153168 9
24.426271 -40.789539 -36.047905 9
21.878767 -40.879229 -35.946718 9
19.339051 -40.940078 -35.849439 9
16.802451 -41.022085 -35.758240 9
14.270016 -41.110094 -35.672431 9
11.743295 -41.167137 -35.590309 9
9.218350 -41.259225 -35.514836 9
6.698444 -41.297131 -35.441918 9
4.179372 -41.387979 -35.376441 9
1.663595 -41.410095 -35.312772 9
-0.851508 -41.484865 -35.256515 9
-3.365833 -41.483479 -35.201649 9
-5.879028 -41.580277 -35.156326 9
-8.392589 -41.628898 -35.113674 9
-10.908451 -41.625363 -35.073474 9
-13.424394 -41.661159 -35.040047 9
-15.943238 -41.672111 -35.010349 9
-18.465555 -41.667070 -34.984795 9
-20.982866 -41.773455 -34.969479 9
-23.511948 -41.756251 -34.953174 9
-26.040728 -41.788754 -34.944172 9
-28.577387 -41.781212 -34.938184 9
-31.115621 -41.804380 -34.938614 9
-33.662662 -41.795012 -34.942443 9
-36.215474 -41.786936 -34.951312 9
-38.775650 -41.771799 -34.964839 9
-41.359729 -41.643731 -34.977994 9
-43.982271 -41.334929 -34.987598 9
-46.715478 -40.452695 -34.975071 9
-50.858578 -31.834181 -34.600973 9
-52.741841 -36.125563 -34.844941 9
-55.978095 -33.225587 -34.754038 9
-59.306007 -30.205760 -34.663904 9
-64.978080 -16.761685 -34.093455 8
-67.892293 -16.624776 -34.153239 8
-70.809080 -16.539468 -34.221295 8
-73.765064 -16.354229 -34.290674 8
-76.730261 -16.199241 -34.367470 8
-79.720974 -16.012599 -34.448911 8
-82.737671 -15.798335 -34.535282 8
-85.767079 -15.607641 -34.628973 8
-88.821083 -15.400517 -34.728265 8
-91.887603 -15.219902 -34.835146 8
-95.019439 -14.899970 -34.942453 8
-98.149153 -14.660647 -35.059932 8
-101.328207 -14.345350 -35.180899 8
-104.557815 -13.959594 -35.305797 8
104.435061 -10.649573 -36.459974 5
101.014268 -11.468123 -36.216401 5
97.659265 -12.199492 -35.978084 5
94.360109 -12.863264 -35.745413 5
91.112528 -13.463709 -35.518232 5
87.901154 -14.042388 -35.297985 5
84.721653 -14.609179 -35.084903 5
81.591319 -15.099081 -34.875976 5
78.508664 -15.506321 -34.670641 5
75.429692 -15.986082 -34.475620 5
72.390299 -16.402390 -34.284705 5
69.386364 -16.761631 -34.097948 5
66.409318 -17.090515 -33.916395 5
60.810445 -29.260152 -34.310079 9
57.357074 -32.544055 -34.292775 9
54.031211 -35.569955 -34.272474 9
50.814488 -38.389026 -34.251007 9
47.787879 -40.523105 -34.203655 9
44.966737 -41.764548 -34.118465 9
42.276293 -42.406156 -34.008918 9
39.685759 -42.530659 -33.878270 9
37.108510 -42.628728 -33.751455 9
34.536334 -42.751863 -33.631114 9
31.981665 -42.803189 -33.512054 9
29.427079 -42.910921 -33.401047 9
26.881374 -43.003397 -33.294232 9
24.347353 -43.042553 -33.189466 9
21.811500 -43.160219 -33.093917 9
19.285175 -43.233785 -33.000836 9
16.763511 -43.309456 -32.912724 9
14.246345 -43.383522 -32.829343 9
11.732893 -43.462023 -32.751006 9
9.225327 -43.483108 -32.674181 9
6.717970 -43.564583 -32.605517 9
4.213577 -43.636979 -32.541063 9
1.711691 -43.680489 -32.479651 9
-0.788936 -43.694909 -32.421233 9
-3.289156 -43.736577 -32.369047 9
-5.789273 -43.766486 -32.320828 9
-8.288918 -43.828044 -32.279094 9
-10.788831 -43.887264 -32.241864 9
-13.293587 -43.853539 -32.203818 9
-15.795949 -43.916080 -32.176039 9
-18.304526 -43.904299 -32.148515 9
-20.814645 -43.916505 -32.127024 9
-23.328553 -43.922657 -32.109803 9
-25.845069 -43.942145 -32.098004 9
-28.366086 -43.957017 -32.090576 9
-30.895506 -43.937491 -32.085768 9
-33.422946 -43.981076 -32.089358 9
-35.964060 -43.957685 -32.093670 9
-38.514203 -43.917405 -32.101687 9
-41.066168 -43.914581 -32.116637 9
-43.667268 -43.649258 -32.120864 9
-46.376394 -42.821886 -32.096844 9
-49.214464 -41.410195 -32.043498 9
-52.252664 -39.131189 -31.944547 9
-55.391725 -36.615692 -31.837350 9
-58.623609 -33.939276 -31.726587 9
-61.952094 -31.110132 -31.613000 9
-65.849107 -26.086255 -31.378678 8
-68.679562 -26.004160 -31.436775 8
-71.528874 -25.902634 -31.499179 8
-74.389257 -25.816321 -31.567940 8
-77.267112 -25.721883 -31.641773 8
-80.169168 -25.598233 -31.719554 8
-83.079889 -25.504375 -31.804692 8
-86.010241 -25.402705 -31.895122 8
-88.957090 -25.306206 -31.991643 8
-91.930334 -25.185483 -32.092700 8
-94.917978 -25.081173 -32.200625 8
-97.937624 -24.942136 -32.312697 8
-102.594658 -20.204840 -32.183040 8
-105.858929 -19.646465 -32.287230 8
-111.006839 -14.121263 -32.135245 8
-116.310756 -8.555064 -31.993139 8
105.489973 -17.473841 -33.571442 5
102.133884 -18.200712 -33.341974 5
98.918745 -18.622504 -33.105252 5
95.728001 -19.055003 -32.876519 5
92.584153 -19.427693 -32.651990 5
89.461187 -19.814800 -32.435319 5
86.384401 -20.132349 -32.221901 5
83.330032 -20.451307 -32.015326 5
80.300979 -20.759188 -31.814795 5
77.304254 -21.026682 -31.618536 5
74.318463 -21.327698 -31.430552 5
71.358979 -21.603132 -31.247422 5
68.418475 -21.877260 -31.070411 5
65.510278 -22.090275 -30.895912 5
60.253430 -32.865756 -31.354700 9
56.914737 -35.727842 -31.357448 9
53.675326 -38.431206 -31.359304 9
50.516418 -41.044112 -31.363949 9
47.558120 -42.896901 -31.329682 9
44.759848 -44.090132 -31.261338 9
42.113393 -44.552868 -31.153285 9
39.521276 -44.772087 -31.035133 9
36.963040 -44.836202 -30.912100 9
34.406475 -44.945501 -30.796781 9
31.857163 -45.062427 -30.686764 9
29.329030 -45.065608 -30.574115 9
26.795673 -45.166588 -30.472511 9
24.275040 -45.205604 -30.371505 9
21.754892 -45.296386 -30.278530 9
19.243912 -45.341529 -30.187119 9
16.735166 -45.416169 -30.102227 9
14.233693 -45.442368 -30.018609 9
11.732989 -45.513886 -29.942536 9
9.236946 -45.555661 -29.868926 9
6.743676 -45.587381 -29.799076 9
4.251801 -45.639601 -29.735050 9
1.762077 -45.662360 -29.673415 9
-0.726981 -45.740206 -29.619963 9
-3.215227 -45.730130 -29.564831 9
-5.703398 -45.765706 -29.517214 9
-8.191383 -45.817647 -29.475094 9
-10.681871 -45.808944 -29.433109 9
-13.172888 -45.831662 -29.397652 9
-15.663065 -45.902415 -29.369896 9
-18.160636 -45.877718 -29.339809 9
-20.656504 -45.924457 -29.319064 9
-23.162114 -45.885376 -29.296646 9
-25.664068 -45.936570 -29.284913 9
-28.176369 -45.919872 -29.272770 9
-30.687042 -45.963931 -29.269265 9
-33.209454 -45.947833 -29.265909 9
-35.739766 -45.917616 -29.265954 9
-38.271252 -45.927270 -29.273211 9
-40.811016 -45.924914 -29.284051 9
-43.384790 -45.754814 -29.287566 9
-46.073981 -44.969003 -29.252408 9
-48.874474 -43.693671 -29.187617 9
-51.862408 -41.605618 -29.070830 9
-54.945672 -39.290930 -28.943348 9
-58.119531 -36.807855 -28.809468 9
-61.354839 -34.315937 -28.680511 9
-65.244006 -29.231589 -28.377628 8
-68.049172 -29.159084 -28.427940 8
-70.853769 -29.144258 -28.487283 8
-73.686194 -29.072967 -28.547829 8
-76.528949 -29.018764 -28.614701 8
-79.393605 -28.940491 -28.685134 8
-82.270858 -28.874947 -28.761702 8
-85.171948 -28.785406 -28.841973 8
-88.073422 -28.751929 -28.931414 8
-91.030502 -28.598836 -29.018290 8
-93.985975 -28.512278 -29.115174 8
-96.968813 -28.403309 -29.216187 8
-99.967805 -28.307759 -29.323787 8
-102.992820 -28.199220 -29.436315 8
-106.083975 -27.973381 -29.547111 8
-109.588567 -26.738604 -29.599062 8
-115.629047 -19.210867 -29.256375 8
-123.111474 -8.595226 -28.731876 7
-126.616719 -8.129370 -28.862466 7
-130.156833 -7.665808 -29.000373 7
-133.783033 -7.090152 -29.138679 7
-137.458324 -6.495158 -29.283396 7
-141.238207 -5.764583 -29.427691 7
-145.071635 -5.018413 -29.579169 7
-149.090232 -3.989133 -29.722225 7
122.039429 -0.778018 -29.983923 6
117.762531 -3.140797 -29.831748 6
107.707997 -20.914631 -30.608430 5
103.946524 -22.731735 -30.460001 5
100.806324 -22.980681 -30.225150 5
97.662838 -23.310911 -30.002143 5
94.572827 -23.559429 -29.780798 5
91.487005 -23.866925 -29.569768 5
88.442512 -24.119481 -29.361725 5
85.418071 -24.378719 -29.160456 5
82.445309 -24.535977 -28.958691 5
79.466640 -24.779716 -28.768699 5
76.521570 -24.973582 -28.581364 5
73.581742 -25.216422 -28.403234 5
70.681639 -25.376265 -28.225229 5
67.778025 -25.616970 -28.058495 5
65.975961 -21.239157 -27.573377 5
59.866531 -35.687607 -28.420647 9
56.598526 -38.300718 -28.445688 9
53.421018 -40.775300 -28.468752 9
50.312968 -43.194043 -28.495407 9
47.404411 -44.842114 -28.473167 9
44.631839 -45.948200 -28.417471 9
41.990097 -46.443793 -28.322295 9
39.423757 -46.566248 -28.204341 9
36.873899 -46.640528 -28.087394 9
34.330494 -46.726309 -27.975844 9
31.800533 -46.767464 -27.865407 9
29.274809 -46.827514 -27.760833 9
26.752845 -46.911704 -27.662512 9
24.238574 -46.982410 -27.567536 9
21.735372 -46.992022 -27.472170 9
19.230988 -47.067809 -27.386220 9
16.732784 -47.124678 -27.303077 9
14.237789 -47.195831 -27.225302 9
11.748507 -47.230965 -27.148919 9
9.262471 -47.254590 -27.075813 9
6.778075 -47.293703 -27.008095 9
4.296388 -47.299650 -26.941889 9
1.815544 -47.312352 -26.880341 9
-0.664866 -47.392528 -26.828303 9
-3.144430 -47.378731 -26.772848 9
-5.623687 -47.429464 -26.726662 9
-8.103933 -47.439548 -26.681291 9
-10.584378 -47.476476 -26.642160 9
-13.065731 -47.516917 -26.607390 9
-15.550314 -47.524217 -26.574006 9
-18.036614 -47.543698 -26.545675 9
-20.530256 -47.499926 -26.516269 9
-23.018439 -47.574321 -26.500538 9
-25.520342 -47.527740 -26.479037 9
-28.019620 -47.558597 -26.467921 9
-30.530958 -47.519525 -26.455194 9
-33.036415 -47.578638 -26.454572 9
-35.556155 -47.563874 -26.452037 9
-38.085530 -47.526711 -26.451801 9
-40.613915 -47.545178 -26.460244 9
-43.167785 -47.446814 -26.463328 9
-45.841747 -46.697901 -26.417640 9
-48.608123 -45.561476 -26.344749 9
-51.526456 -43.786709 -26.224440 9
-54.604038 -41.434800 -26.061968 9
-57.704674 -39.241475 -25.917270 9
-60.879027 -36.957719 -25.770286 9
-64.759230 -31.841791 -25.399887 8
-67.539359 -31.799486 -25.444488 8
-70.327187 -31.779047 -25.495545 8
-73.142022 -31.705723 -25.547096 8
-75.961071 -31.672169 -25.606628 8
-78.806799 -31.595904 -25.667588 8
-81.671318 -31.510733 -25.732747 8
-84.537493 -31.476673 -25.806917 8
-87.423938 -31.430777 -25.885149 8
-90.338042 -31.353185 -25.965953 8
-93.256369 -31.319537 -26.055338 8
-96.197642 -31.273041 -26.148905 8
-99.165787 -31.205677 -26.246113 8
-102.152210 -31.144848 -26.349171 8
-105.171876 -31.051956 -26.455188 8
-108.500780 -30.215292 -26.510012 8
-112.953004 -26.643670 -26.363781 8
-119.115668 -19.119414 -25.928731 8
-123.922563 -15.290836 -25.783442 7
-127.266274 -15.125995 -25.920453 7
-130.685115 -14.858025 -26.056239 7
-134.115198 -14.638076 -26.202156 7
-137.625015 -14.316978 -26.347406 7
-141.153579 -14.032586 -26.502234 7
-144.707422 -13.771036 -26.665720 7
-148.331838 -13.442030 -26.831566 7
147.342329 -6.941156 -29.178207 6
143.321841 -7.985880 -28.912862 6
139.422481 -8.889676 -28.648590 6
135.615710 -9.701297 -28.387864 6
131.906999 -10.398741 -28.128737 6
128.240265 -11.099013 -27.878471 6
124.660182 -11.694661 -27.629607 6
121.146612 -12.223317 -27.384248 6
117.650058 -12.799791 -27.150025 6
114.124882 -13.542040 -26.935226 5
106.542819 -25.030157 -27.495331 5
102.960404 -26.448281 -27.354176 5
99.845772 -26.707059 -27.136749 5
96.762008 -26.949322 -26.924465 5
93.730256 -27.108786 -26.712220 5
90.692527 -27.352088 -26.512287 5
87.694604 -27.541044 -26.314223 5
84.704495 -27.772034 -26.125224 5
81.747894 -27.960544 -25.938722 5
78.812704 -28.141883 -25.757300 5
75.899473 -28.310901 -25.580449 5
73.007663 -28.465807 -25.407918 5
70.131851 -28.623677 -25.240971 5
68.246618 -24.816446 -24.758187 5
65.925682 -22.586064 -24.404450 5
59.563722 -38.116449 -25.512659 9
56.361713 -40.486875 -25.554610 9
53.207561 -42.903842 -25.607726 9
50.169440 -45.022416 -25.642990 9
47.260632 -46.719711 -25.649395 9
44.521335 -47.693199 -25.600480 9
41.913033 -48.042679 -25.503578 9
39.358940 -48.137977 -25.389455 9
36.821754 -48.178973 -25.274952 9
34.288495 -48.245247 -25.166857 9
31.764467 -48.297323 -25.061724 9
29.243565 -48.379558 -24.963380 9
26.735575 -48.405379 -24.864214 9
24.228091 -48.479422 -24.773369 9
21.728122 -48.533533 -24.684824 9
19.234594 -48.568375 -24.598588 9
16.743251 -48.630583 -24.518781 9
14.260258 -48.623652 -24.436752 9
11.776961 -48.670386 -24.363461 9
9.297466 -48.697895 -24.292359 9
6.818522 -48.777776 -24.229889 9
4.343029 -48.827064 -24.168545 9
1.869511 -48.859187 -24.109509 9
-0.602789 -48.819813 -24.047800 9
-3.075087 -48.902654 -24.001069 9
-5.547922 -48.882892 -23.948785 9
-8.020511 -48.922831 -23.905778 9
-10.492992 -48.982092 -23.868362 9
-12.968822 -48.980534 -23.829157 9
-15.447084 -48.975202 -23.793394 9
-17.923480 -49.042009 -23.768086 9
-20.406789 -49.038960 -23.740123 9
-22.893214 -49.041335 -23.716456 9
-25.383849 -49.040376 -23.696280 9
-27.879893 -49.029644 -23.679001 9
-30.379452 -49.032581 -23.666802 9
-32.881326 -49.059537 -23.660653 9
-35.392572 -49.054836 -23.655400 9
-37.909782 -49.052459 -23.654209 9
-40.429079 -49.080763 -23.659725 9
-42.989389 -48.894394 -23.649199 9
-45.624869 -48.332482 -23.607756 9
-48.373575 -47.247890 -23.521850 9
-51.263405 -45.577951 -23.385837 9
-54.299047 -43.389191 -23.206098 9
-57.388304 -41.198216 -23.030642 9
-60.531996 -39.005072 -22.859604 9
-64.392842 -33.928245 -22.427521 8
-67.157757 -33.896438 -22.465443 8
-69.941923 -33.839343 -22.505403 8
-72.729599 -33.822666 -22.553477 8
-75.543877 -33.758536 -22.601646 8
-78.357080 -33.752950 -22.659657 8
-81.198545 -33.700877 -22.717958 8
-84.045724 -33.684031 -22.784048 8
-86.912163 -33.657426 -22.853880 8
-89.802241 -33.610388 -22.926552 8
-92.708749 -33.568511 -23.004442 8
-95.648430 -33.484470 -23.083363 8
-98.595558 -33.436742 -23.170427 8
-101.563019 -33.388715 -23.262409 8
-104.552243 -33.338515 -23.359212 8
-107.737838 -32.836100 -23.421217 8
-111.584406 -30.750970 -23.349801 8
-117.390764 -24.031840 -22.880498 8
-122.387099 -19.656221 -22.626192 7
-125.662725 -19.562226 -22.751676 7
-130.945291 -14.989018 -22.497851 7
-132.307284 -19.355017 -23.018528 7
-135.718247 -19.156286 -23.152856 7
-139.163253 -18.955647 -23.293260 7
-142.621229 -18.798516 -23.443671 7
-146.124884 -18.618473 -23.598607 7
-149.667676 -18.431996 -23.759600 7
147.679087 -14.378496 -26.321492 6
143.969996 -14.852236 -26.042016 6
140.303297 -15.325716 -25.770843 6
136.682504 -15.789017 -25.507031 6
133.132083 -16.185812 -25.246038 6
129.617731 -16.584966 -24.992860 6
126.140200 -16.982563 -24.747032 6
122.720562 -17.326731 -24.504254 6
119.343254 -17.648251 -24.266713 6
116.924490 -15.677684 -23.849106 6
110.360541 -24.191548 -24.298464 5
105.499584 -28.799187 -24.443018 5
102.224822 -29.465958 -24.269598 5
99.133525 -29.720506 -24.067895 5
96.076032 -29.949869 -23.869963 5
93.106545 -29.989870 -23.661450 5
90.106381 -30.180668 -23.471484 5
87.151467 -30.296713 -23.280479 5
84.182961 -30.519083 -23.104230 5
81.260180 -30.657464 -22.925876 5
78.339319 -30.852847 -22.757845 5
75.459281 -30.968906 -22.587816 5
72.588390 -31.112771 -22.425332 5
70.684286 -27.556544 -21.927929 5
66.927388 -31.271490 -22.103274 5
62.593344 -37.795054 -22.548985 9
59.377762 -40.012610 -22.603607 9
56.190047 -42.356995 -22.677045 9
53.107483 -44.468707 -22.735300 9
50.055858 -46.685803 -22.810033 9
47.202985 -48.122938 -22.816521 9
44.491982 -48.967208 -22.771475 9
41.856718 -49.505986 -22.701730 9
39.318983 -49.540280 -22.587462 9
36.787363 -49.585723 -22.478248 9
34.262760 -49.634690 -22.373317 9
31.744664 -49.688323 -22.272748 9
29.230761 -49.763368 -22.178168 9
26.722981 -49.843598 -22.087958 9
24.230950 -49.828842 -21.992121 9
21.736952 -49.881258 -21.906724 9
19.247984 -49.931959 -21.824906 9
16.766560 -49.938197 -21.742341 9
14.286471 -49.973840 -21.666414 9
11.810644 -49.989648 -21.592149 9
9.336873 -50.014464 -21.522435 9
6.864315 -50.069109 -21.459379 9
4.395757 -50.048166 -21.392241 9
1.927087 -50.069100 -21.332952 9
-0.540911 -50.127924 -21.281121 9
-3.008478 -50.081807 -21.222105 9
-5.475689 -50.143421 -21.177694 9
-7.943717 -50.161794 -21.132394 9
-10.412765 -50.178993 -21.090512 9
-12.882039 -50.223312 -21.054968 9
-15.354607 -50.231661 -21.019241 9
-17.829546 -50.241599 -20.987206 9
-20.309373 -50.224133 -20.955855 9
-22.791645 -50.223544 -20.929780 9
-25.274680 -50.257513 -20.910824 9
-27.764738 -50.259378 -20.892071 9
-30.260684 -50.251591 -20.875855 9
-32.757314 -50.282958 -20.867262 9
-35.262394 -50.289128 -20.859608 9
-37.780449 -50.246475 -20.850440 9
-40.307818 -50.191831 -20.843606 9
-42.832097 -50.207552 -20.847697 9
-45.458474 -49.667126 -20.797515 9
-48.178315 -48.712275 -20.707886 9
-51.052177 -47.092065 -20.552819 9
-54.053046 -45.043428 -20.357135 9
-57.135197 -42.848229 -20.150302 9
-60.236995 -40.809939 -19.963963 9
-64.083187 -35.761784 -19.469960 8
-66.850999 -35.675214 -19.494768 8
-69.617327 -35.650678 -19.530036 8
-72.396904 -35.626583 -19.569416 8
-75.187948 -35.611609 -19.613840 8
-78.009010 -35.540843 -19.656664 8
-80.822595 -35.550998 -19.712002 8
-83.668068 -35.505302 -19.765832 8
-86.539839 -35.429266 -19.820848 8
-89.406235 -35.426012 -19.887640 8
-92.323450 -35.321970 -19.948546 8
-96.419013 -31.849296 -19.672186 8
-98.146483 -35.317584 -20.104457 8
-101.107139 -35.258994 -20.183500 8
-104.082658 -35.217222 -20.268869 8
-107.138388 -35.023934 -20.343750 8
-114.074979 -25.146212 -19.456925 8
-115.955473 -28.214798 -19.869622 8
-121.330276 -22.863647 -19.451130 7
-124.582316 -22.766539 -19.560282 7
-127.855594 -22.684426 -19.676244 7
-131.194856 -22.519698 -19.789549 7
-134.548691 -22.390840 -19.911932 7
-137.936482 -22.256696 -20.039463 7
-141.359310 -22.117480 -20.172275 7
-144.793100 -22.023653 -20.315317 7
-148.311499 -21.830564 -20.454865 7
-151.838844 -21.691205 -20.605676 7
146.222406 -18.317700 -23.001991 6
142.645313 -18.591331 -22.731171 6
139.114233 -18.847320 -22.466148 6
135.621224 -19.098809 -22.207868 6
132.125643 -19.431073 -21.963767 6
128.721867 -19.638681 -21.715417 6
125.334140 -19.881995 -21.476921 6
121.995346 -20.084811 -21.241238 6
118.677887 -20.307783 -21.013756 6
115.185330 -21.034217 -20.839618 5
108.890523 -28.956279 -21.351577 5
104.824230 -31.585191 -21.378035 5
101.700144 -31.898875 -21.191797 5
98.677752 -32.006538 -20.991346 5
95.672987 -32.126172 -20.797360 5
92.653840 -32.350652 -20.618896 5
89.703157 -32.437096 -20.432062 5
86.762345 -32.552836 -20.253147 5
83.840993 -32.667658 -20.079098 5
80.935071 -32.792706 -19.910959 5
78.056059 -32.887029 -19.744513 5
75.176303 -33.044285 -19.589199 5
72.330349 -33.140460 -19.432312 5
69.495318 -33.254641 -19.281850 5
66.668226 -33.398648 -19.139008 5
62.455486 -39.440018 -19.617043 9
59.253185 -41.626452 -19.700898 9
56.123504 -43.731277 -19.782566 9
53.012305 -45.999802 -19.887799 9
50.030751 -47.890177 -19.958940 9
48.021815 -44.845754 -19.507364 9
44.459949 -50.248078 -19.965190 9
41.846398 -50.685343 -19.895493 9
39.310104 -50.736321 -19.787990 9
36.790545 -50.729160 -19.677858 9
34.263266 -50.824665 -19.582562 9
31.753485 -50.846723 -19.482875 9
29.247786 -50.886068 -19.388665 9
26.750209 -50.906178 -19.295887 9
24.255727 -50.947298 -19.208950 9
21.773038 -50.914593 -19.117310 9
19.286844 -50.966177 -19.038491 9
16.805622 -51.010445 -18.962313 9
14.328116 -51.057205 -18.889844 9
11.858270 -51.022769 -18.811663 9
9.386603 -51.067052 -18.745693 9
6.917579 -51.108573 -18.682784 9
4.450996 -51.133608 -18.621364 9
1.985656 -51.164189 -18.563903 9
-0.478743 -51.208322 -18.511301 9
-2.942549 -51.215338 -18.457789 9
-5.406075 -51.261225 -18.411998 9
-7.870643 -51.266349 -18.364845 9
-10.335746 -51.291444 -18.323250 9
-12.803728 -51.280513 -18.280803 9
-15.271463 -51.318725 -18.247250 9
-17.741555 -51.349737 -18.216142 9
-20.216099 -51.353754 -18.185198 9
-22.696678 -51.326430 -18.153909 9
-25.177149 -51.348696 -18.131588 9
-27.664125 -51.346191 -18.109682 9
-30.150646 -51.391513 -18.096563 9
-32.653659 -51.337654 -18.075286 9
-35.147893 -51.402397 -18.070978 9
-37.658631 -51.385362 -18.060531 9
-40.172286 -51.395489 -18.056526 9
-42.722417 -51.222062 -18.034647 9
-45.334354 -50.751229 -17.981766 9
-48.059514 -49.749816 -17.871003 9
-50.905013 -48.266134 -17.708021 9
-53.891515 -46.271910 -17.489683 9
-56.923401 -44.297474 -17.277309 9
-59.994924 -42.369583 -17.074081 9
-63.867655 -37.181653 -16.499334 8
-66.603367 -37.202977 -16.528554 8
-69.376717 -37.121577 -16.549666 8
-72.144101 -37.118750 -16.583553 8
-74.922308 -37.125871 -16.622349 8
-77.734971 -37.060004 -16.656588 8
-80.553906 -37.027526 -16.698507 8
-83.387198 -37.000311 -16.744919 8
-86.232337 -36.987868 -16.796948 8
-89.108867 -36.930298 -16.847814 8
-91.988719 -36.917909 -16.907847 8
-94.899112 -36.869482 -16.967865 8
-97.824490 -36.833983 -17.033480 8
-100.784427 -36.758738 -17.098798 8
-103.750671 -36.724027 -17.172940 8
-106.768584 -36.611422 -17.242646 8
-110.231608 -35.443260 -17.198697 8
-115.071122 -31.036404 -16.798766 8
-120.617921 -25.239999 -16.251959 7
-123.855917 -25.138938 -16.345094 7
-127.110062 -25.064473 -16.446051 7
-130.389687 -24.996108 -16.552629 7
-133.719858 -24.881715 -16.659194 7
-137.062381 -24.806435 -16.775187 7
-140.424151 -24.755426 -16.899039 7
-143.856164 -24.627472 -17.019859 7
-147.290230 -24.562536 -17.152938 7
-150.736951 -24.538208 -17.295885 7
145.108425 -21.560894 -19.701155 6
141.611502 -21.723695 -19.441901 6
138.131161 -21.923817 -19.192945 6
134.699206 -22.094917 -18.947578 6
131.243870 -22.387226 -18.720819 6
127.877620 -22.559251 -18.488150 6
124.556562 -22.698871 -18.258189 6
121.227850 -22.924265 -18.043022 6
119.382607 -19.677913 -17.469906 6
113.948014 -25.122974 -17.814839 5
108.230616 -31.645330 -18.288232 5
104.420561 -33.648753 -18.292570 5
101.321083 -33.927993 -18.118846 5
98.323010 -34.000816 -17.927953 5
95.323764 -34.136782 -17.748822 5
92.366997 -34.212129 -17.567884 5
89.423371 -34.307340 -17.393839 5
86.508416 -34.373837 -17.221241 5
83.595564 -34.492076 -17.058964 5
80.714857 -34.565139 -16.896122 5
77.833339 -34.699664 -16.744632 5
75.006450 -34.701726 -16.582465 5
72.182502 -34.745902 -16.429293 5
69.352739 -34.868688 -16.289323 5
66.555949 -34.921352 -16.145447 5
62.383270 -40.799650 -16.681567 9
59.213928 -42.856758 -16.782392 9
56.078660 -44.997971 -16.898955 9
52.986254 -47.189475 -17.027272 9
50.006827 -49.081499 -17.125998 9
47.174591 -50.441092 -17.166985 9
44.463363 -51.322373 -17.155832 9
41.869296 -51.660426 -17.084071 9
39.342325 -51.665934 -16.976179 9
36.810975 -51.749527 -16.881059 9
34.296179 -51.773889 -16.782210 9
31.783937 -51.830124 -16.690553 9
29.283284 -51.846636 -16.597404 9
26.786764 -51.876485 -16.509148 9
24.295267 -51.910127 -16.424607 9
21.807337 -51.959861 -16.345264 9
19.329017 -51.951153 -16.261964 9
16.848400 -52.021158 -16.191502 9
14.376237 -52.025056 -16.116069 9
11.906107 -52.041159 -16.045267 9
9.441444 -51.986225 -15.968776 9
6.974421 -52.023712 -15.906816 9
4.509818 -52.043037 -15.845687 9
2.046381 -52.066136 -15.788095 9
-0.416123 -52.068681 -15.730994 9
-2.878394 -52.106878 -15.681388 9
-5.340920 -52.110646 -15.630511 9
-7.803700 -52.136967 -15.585481 9
-10.268978 -52.114889 -15.537392 9
-12.733942 -52.149278 -15.499403 9
-15.201075 -52.171946 -15.462951 9
-17.670883 -52.187141 -15.428562 9
-20.145718 -52.171708 -15.393308 9
-22.619986 -52.209174 -15.367730 9
-25.102810 -52.189231 -15.337900 9
-27.583403 -52.238000 -15.319762 9
-30.078300 -52.194040 -15.292897 9
-32.569785 -52.228800 -15.279009 9
-35.069835 -52.237198 -15.264801 9
-37.580008 -52.216948 -15.249987 9
-40.086482 -52.268142 -15.247268 9
-42.620579 -52.186109 -15.230697 9
-45.242766 -51.642921 -15.158677 9
-47.925900 -50.867227 -15.060233 9
-50.782617 -49.307806 -14.865481 9
-53.739463 -47.450336 -14.636125 9
-56.768430 -45.473432 -14.394918 9
-59.836247 -43.547414 -14.163554 9
-63.745585 -38.193027 -13.501347 8
-66.475909 -38.227970 -13.525579 8
-69.241054 -38.170636 -13.541518 8
-71.998142 -38.198003 -13.571592 8
-74.780260 -38.180884 -13.599487 8
-77.579431 -38.154536 -13.629699 8
-80.390243 -38.140508 -13.664982 8
-83.218521 -38.120353 -13.703043 8
-86.056550 -38.121306 -13.747348 8
-88.925572 -38.077732 -13.789685 8
-91.792043 -38.096065 -13.843464 8
-94.692313 -38.067255 -13.895041 8
-97.610831 -38.041152 -13.950723 8
-100.542138 -38.034315 -14.012620 8
-103.509181 -37.986254 -14.073240 8
-106.506321 -37.916852 -14.135139 8
-109.899720 -36.914289 -14.085382 8
-114.431163 -33.252100 -13.711374 8
-119.358687 -28.901807 -13.258826 8
-123.354125 -26.983983 -13.112523 7
-126.588258 -26.932305 -13.200799 7
-129.840207 -26.902425 -13.296225 7
-133.121697 -26.869655 -13.395843 7
-136.455020 -26.789730 -13.494353 7
-139.791870 -26.766260 -13.604449 7
-143.177949 -26.706516 -13.714951 7
-146.606920 -26.627322 -13.828020 7
-150.067281 -26.553838 -13.946794 7
147.901775 -23.859944 -16.628212 6
144.369488 -24.052818 -16.386291 6
140.905474 -24.182467 -16.143604 6
137.467672 -24.328024 -15.908705 6
134.087915 -24.421778 -15.673864 6
130.702496 -24.594420 -15.453684 6
127.335874 -24.795952 -15.242514 6
124.065089 -24.852409 -15.020237 6
120.790970 -24.979988 -14.811503 6
118.039543 -23.930227 -14.470399 6
113.318647 -27.698508 -14.699665 5
107.775412 -33.803375 -15.216068 5
104.193404 -35.244036 -15.190364 5
101.142320 -35.412473 -15.018801 5
98.146155 -35.496194 -14.841723 5
95.168943 -35.586832 -14.669979 5
92.212989 -35.676203 -14.502504 5
89.264264 -35.804191 -14.344106 5
86.377566 -35.802372 -14.174047 5
83.483755 -35.877205 -14.017560 5
80.585829 -36.024574 -13.874205 5
77.735521 -36.072119 -13.722517 5
74.898126 -36.130218 -13.576106 5
72.071560 -36.205498 -13.435767 5
69.273963 -36.227830 -13.292593 5
66.480264 -36.288732 -13.158075 5
62.360978 -41.943170 -13.740871 9
59.205852 -43.944397 -13.865052 9
56.103893 -45.937920 -13.993684 9
53.026042 -48.057814 -14.143931 9
50.055861 -49.899800 -14.263504 9
47.212978 -51.312265 -14.332213 9
44.508692 -52.156874 -14.331363 9
41.909219 -52.529739 -14.272717 9
39.376434 -52.578745 -14.175036 9
36.848174 -52.651933 -14.083681 9
34.341439 -52.629400 -13.982826 9
31.839945 -52.611101 -13.885560 9
29.332839 -52.684452 -13.803458 9
26.838815 -52.700385 -13.716759 9
24.345706 -52.758435 -13.638653 9
21.861149 -52.783210 -13.559077 9
19.384263 -52.768072 -13.477086 9
16.909115 -52.773374 -13.400728 9
14.437571 -52.771417 -13.326273 9
11.966993 -52.800141 -13.258815 9
9.501374 -52.776441 -13.187129 9
7.033932 -52.846527 -13.130956 9
4.572109 -52.789223 -13.060350 9
2.108785 -52.823079 -13.004902 9
-0.353480 -52.859684 -12.952630 9
-2.815201 -52.870106 -12.899582 9
-5.277094 -52.885890 -12.850035 9
-7.739215 -52.915992 -12.805211 9
-10.204330 -52.880930 -12.754227 9
-12.666689 -52.963517 -12.722103 9
-15.134960 -52.947537 -12.679220 9
-17.607075 -52.917502 -12.637138 9
-20.078908 -52.941399 -12.605200 9
-22.554331 -52.958963 -12.575131 9
-25.033884 -52.971177 -12.547064 9
-27.521045 -52.949963 -12.517127 9
-30.006321 -52.992758 -12.498756 9
-32.509260 -52.927544 -12.468226 9
-35.000614 -53.004000 -12.460002 9
-37.506193 -53.013552 -12.445298 9
-40.022363 -52.996328 -12.429657 9
-42.563256 -52.872533 -12.402051 9
-45.154311 -52.514852 -12.344873 9
-47.864392 -51.584265 -12.211230 9
-50.700470 -50.136757 -12.008878 9
-53.665322 -48.238699 -11.747048 9
-56.688765 -46.290033 -11.481140 9
-59.744241 -44.421103 -11.229266 9
-63.641215 -39.125687 -10.506752 8
-66.370447 -39.159580 -10.524280 8
-69.131811 -39.112291 -10.533663 8
-71.883088 -39.156681 -10.558809 8
-74.677738 -39.088183 -10.571495 8
-78.353785 -35.956770 -10.164970 8
-81.192041 -35.956733 -10.193775 8
-83.089826 -39.105738 -10.659380 8
-85.921406 -39.122305 -10.696595 8
-88.797799 -39.051041 -10.725017 8
-91.658713 -39.082034 -10.770812 8
-94.550082 -39.075044 -10.814745 8
-97.465486 -39.053414 -10.860073 8
-100.380839 -39.085835 -10.916237 8
-103.327947 -39.085557 -10.971407 8
-106.335228 -38.984318 -11.016347 8
-109.716469 -38.009687 -10.946080 8
-114.204353 -34.456811 -10.529764 8
-118.957644 -30.521159 -10.067098 8
-123.083082 -28.291520 -9.841172 7
-126.288531 -28.295529 -9.921971 7
-129.561754 -28.209513 -9.994654 7
-132.816909 -28.224996 -10.085110 7
-136.139503 -28.158836 -10.168762 7
-139.481404 -28.116508 -10.259866 7
-142.835466 -28.112478 -10.360407 7
-146.237612 -28.076600 -10.461092 7
-149.672659 -28.041759 -10.566403 7
147.455657 -25.751012 -13.268429 6
143.997286 -25.818026 -13.031577 6
140.517166 -25.995215 -12.813878 6
137.136062 -26.042435 -12.585592 6
133.703832 -26.261199 -12.384055 6
130.362843 -26.357686 -12.172518 6
127.061479 -26.433548 -11.963474 6
123.791786 -26.502926 -11.758575 6
120.547396 -26.577870 -11.559250 6
117.987987 -25.092254 -11.163256 6
112.828600 -29.919314 -11.589054 5
107.632269 -35.167552 -12.081007 5
104.053634 -36.605953 -12.084710 5
101.042479 -36.680243 -11.914681 5
98.059590 -36.737485 -11.746577 5
95.103938 -36.776912 -11.580187 5
92.156719 -36.849289 -11.422193 5
89.230520 -36.917989 -11.267667 5
86.321717 -36.991694 -11.117704 5
83.441913 -37.031652 -10.966998 5
80.573192 -37.091386 -10.822710 5
77.714205 -37.175427 -10.685431 5
74.904379 -37.144125 -10.535992 5
72.098626 -37.148255 -10.394910 5
69.288976 -37.220260 -10.266671 5
66.506991 -37.240150 -10.134688 5
62.422751 -42.731323 -10.767416 9
59.285096 -44.647447 -10.909492 9
56.164092 -46.714791 -11.077721 9
53.113092 -48.697404 -11.239040 9
50.115220 -50.663076 -11.402780 9
47.283165 -52.012148 -11.484025 9
44.575446 -52.868674 -11.499498 9
41.976219 -53.235796 -11.448972 9
39.448408 -53.250636 -11.351365 9
36.933454 -53.229914 -11.251518 9
34.420229 -53.241962 -11.159157 9
31.908108 -53.295356 -11.075522 9
29.412033 -53.272636 -10.983708 9
26.914632 -53.305900 -10.902687 9
24.419011 -53.376171 -10.829744 9
21.933952 -53.394323 -10.751963 9
19.455582 -53.383553 -10.672645 9
16.979570 -53.385958 -10.597874 9
14.503604 -53.437629 -10.532911 9
12.032903 -53.458241 -10.466034 9
9.565540 -53.461309 -10.399180 9
7.098962 -53.494933 -10.339378 9
4.634665 -53.514667 -10.280104 9
2.172012 -53.506039 -10.219204 9
-0.290388 -53.498706 -10.161018 9
-2.752557 -53.563249 -10.115958 9
-5.215008 -53.555771 -10.062784 9
-7.678174 -53.561100 -10.014003 9
-10.142152 -53.578395 -9.969488 9
-12.608248 -53.580067 -9.925147 9
-15.076548 -53.581174 -9.883203 9
-17.546587 -53.596264 -9.845815 9
-20.021261 -53.586272 -9.807172 9
-22.494292 -53.641122 -9.780659 9
-24.975144 -53.643049 -9.748740 9
-27.461523 -53.633976 -9.717651 9
-29.950710 -53.645074 -9.692046 9
-32.447567 -53.635375 -9.665811 9
-34.952317 -53.611350 -9.639913 9
-37.459739 -53.616146 -9.620807 9
-39.971141 -53.638604 -9.606837 9
-42.512936 -53.514826 -9.573473 9
-45.113595 -53.106918 -9.500048 9
-47.821716 -52.196522 -9.353829 9
-50.648455 -50.806931 -9.138286 9
-53.617901 -48.893165 -8.846691 9
-56.631857 -46.997667 -8.560383 9
-59.684930 -45.145663 -8.283215 9
-63.612748 -39.729014 -7.474548 8
-66.347271 -39.749251 -7.483453 8
-69.099366 -39.747510 -7.491826 8
-71.868598 -39.730227 -7.500656 8
-74.651219 -39.715065 -7.512611 8
-77.436180 -39.742914 -7.533834 8
-80.239700 -39.756051 -7.555708 8
-83.065131 -39.747003 -7.577146 8
