ply
format ascii 1.0
element vertex 1413
property float x
property float y
property float z
property int scalar_Label
end_header
-6.170878 33.490886 -41.054087 9
-3.188626 32.719557 -41.737160 9
-0.275356 31.895020 -42.383394 9
2.696899 31.192357 -43.113929 9
4.153583 28.352519 -42.390679 9
6.950950 27.432363 -42.985615 9
9.716887 26.498435 -43.573717 9
12.421285 25.502159 -44.123159 9
15.107894 24.506847 -44.676832 9
17.780568 23.517593 -45.238237 9
20.400565 22.469758 -45.765576 9
22.973139 21.366874 -46.262227 9
25.534127 20.265831 -46.765492 9
28.059583 19.123323 -47.248129 9
30.558262 17.951150 -47.718346 9
33.014149 16.716352 -48.156261 9
35.449834 15.456303 -48.586051 9
37.856363 14.150693 -48.995828 9
40.223054 12.773740 -49.370794 9
42.552923 11.325242 -49.712060 9
44.756604 9.610181 -49.904510 9
46.782968 7.495635 -49.873676 9
48.656012 5.001950 -49.637623 9
50.365048 2.073153 -49.169590 9
51.884328 -1.387725 -48.420267 9
53.217376 -5.417120 -47.376834 9
54.283844 -10.263527 -45.907000 9
54.887728 -16.500353 -43.700856 9
55.673004 -22.550554 -41.656999 9
58.090810 -24.442571 -41.964278 9
-142.473182 31.047769 6.505150 7
-135.644868 31.431619 4.381813 7
-129.223232 31.636902 2.453119 7
-123.136266 31.703101 0.678580 7
-118.071091 31.069547 -0.453904 7
-105.582901 36.551918 -6.894530 8
-100.475200 36.246687 -8.233835 8
-95.395869 36.007172 -9.610858 8
-90.633639 35.584190 -10.813548 8
-85.905310 35.212885 -12.044483 8
-81.262443 34.846867 -13.264573 8
-76.819668 34.377779 -14.384743 8
-68.489436 37.639324 -18.553721 9
-60.939059 40.383146 -22.238908 9
-54.121359 42.615338 -25.457097 9
-49.187741 43.144673 -27.266106 9
-45.170777 42.846225 -28.395252 9
-41.453174 42.308029 -29.324386 9
-37.782525 41.781240 -30.254798 9
-34.159742 41.263372 -31.184776 9
-30.660409 40.668825 -32.048783 9
-27.193540 40.093800 -32.921989 9
-23.782713 39.510208 -33.783168 9
-20.452449 38.886465 -34.609151 9
-17.168232 38.259776 -35.428699 9
-13.929251 37.629084 -36.241419 9
-10.722370 37.008889 -37.058320 9
-7.572828 36.365519 -37.855072 9
-4.489916 35.683426 -38.621179 9
-1.429125 35.018308 -39.397410 9
1.617188 34.380182 -40.190853 9
4.552110 33.632702 -40.905425 9
7.436466 32.854434 -41.598057 9
10.269184 32.040193 -42.265924 9
13.124958 31.298607 -42.984433 9
14.592084 28.456758 -42.273032 9
17.324421 27.553408 -42.894448 9
20.013001 26.612237 -43.492863 9
22.673315 25.654878 -44.083475 9
25.274807 24.627207 -44.631071 9
27.864414 23.604287 -45.186045 9
30.429353 22.562634 -45.733278 9
32.948043 21.460450 -46.246371 9
35.444098 20.336146 -46.750957 9
37.904151 19.161430 -47.229661 9
40.344234 17.962872 -47.700107 9
42.762157 16.733247 -48.158334 9
45.033593 15.212232 -48.444412 9
47.162091 13.383054 -48.552762 9
49.120040 11.159790 -48.436177 9
50.965047 8.638512 -48.158623 9
52.671069 5.734235 -47.674103 9
54.262816 2.473043 -47.003987 9
55.769422 -1.104444 -46.177592 9
57.128003 -5.183015 -45.092436 9
58.253005 -10.027733 -43.603515 9
59.888256 -13.725836 -42.814387 9
62.337487 -15.332452 -43.242420 9
63.640819 -20.202459 -41.853071 9
-140.404903 29.144535 12.434813 7
-132.745016 30.162140 9.637502 7
-125.735528 30.836201 7.201283 7
-119.216085 31.265348 5.027011 7
-106.210085 37.072296 -1.928998 8
-100.755075 36.997456 -3.544530 8
-95.545911 36.816843 -5.042660 8
-90.378755 36.695414 -6.570730 8
-85.587107 36.339771 -7.874489 8
-80.803854 36.061258 -9.227062 8
-76.139051 35.760537 -10.543051 8
-67.354430 39.404848 -15.169330 9
-59.487618 42.420881 -19.198447 9
-52.792043 44.512740 -22.399960 9
-48.095718 44.787898 -24.060563 9
-44.091084 44.457415 -25.206279 9
-40.254078 44.024735 -26.257243 9
-36.567251 43.499274 -27.223591 9
-32.943574 42.967186 -28.176194 9
-29.392834 42.414945 -29.104966 9
-25.865734 41.894931 -30.051727 9
-22.415820 41.345127 -30.968141 9
-18.989199 40.825233 -31.901143 9
-15.676572 40.225546 -32.766795 9
-12.410920 39.621577 -33.624151 9
-9.193335 39.009763 -34.470967 9
-6.035017 38.373275 -35.295188 9
-2.888661 37.771033 -36.141136 9
0.203299 37.146359 -36.966962 9
3.214579 36.459734 -37.744636 9
6.201971 35.785296 -38.529025 9
9.127748 35.067852 -39.280707 9
12.089124 34.446219 -40.099213 9
14.938313 33.702458 -40.829749 9
17.734607 32.917960 -41.531495 9
20.522484 32.158678 -42.251061 9
23.261356 31.359299 -42.943393 9
24.754242 28.531700 -42.255043 9
27.423180 27.638423 -42.897424 9
30.009926 26.634125 -43.467802 9
32.599269 25.660389 -44.062312 9
35.149889 24.642869 -44.631639 9
37.682404 23.615673 -45.198985 9
40.167489 22.520588 -45.726951 9
42.634331 21.408735 -46.249680 9
44.973537 20.056414 -46.624999 9
47.182425 18.437744 -46.840565 9
49.250942 16.508807 -46.873240 9
51.180238 14.245965 -46.713387 9
52.988012 11.660863 -46.373570 9
54.738015 8.873872 -45.932510 9
56.454511 5.925767 -45.418148 9
58.097365 2.704363 -44.765689 9
59.645893 -0.866491 -43.934110 9
61.440832 -3.929760 -43.434777 9
63.486737 -6.424325 -43.295648 9
65.452041 -9.214566 -43.006706 9
67.195432 -12.733812 -42.323504 9
63.508607 -32.465953 -32.435429 9
-132.501702 26.785647 16.865078 7
-123.834451 28.742218 13.130566 7
-108.477609 36.285702 4.313166 8
-101.885118 37.059662 1.831763 8
-96.158505 37.247284 -0.078240 8
-90.841105 37.197327 -1.745144 8
-85.761711 37.040219 -3.291662 8
-80.806715 36.866890 -4.801439 8
-75.949736 36.696786 -6.292761 8
-69.347449 38.248360 -9.255296 9
-58.273967 44.229500 -15.977677 9
-51.812114 46.068132 -19.063397 9
-47.229023 46.206622 -20.667108 9
-43.189506 45.887363 -21.866703 9
-39.318852 45.466678 -22.968446 9
-35.511416 45.047429 -24.059741 9
-31.907056 44.475610 -25.015359 9
-28.202235 44.075052 -26.101140 9
-24.651576 43.566592 -27.089941 9
-21.169482 43.039793 -28.055721 9
-17.741070 42.508861 -29.010512 9
-14.364502 41.973636 -29.954695 9
-11.067937 41.397010 -30.859937 9
-7.773206 40.872836 -31.799737 9
-4.571574 40.284966 -32.684720 9
-1.424002 39.678638 -33.550737 9
1.673632 39.056304 -34.400324 9
4.730725 38.428030 -35.241613 9
7.723947 37.758733 -36.049089 9
10.720236 37.140471 -36.891325 9
13.666828 36.497215 -37.712390 9
16.544121 35.795888 -38.489159 9
19.413365 35.125510 -39.286642 9
22.293787 34.517191 -40.126640 9
25.007155 33.684709 -40.806858 9
27.707149 32.865471 -41.497186 9
30.430211 32.121120 -42.240307 9
33.118738 31.355364 -42.969044 9
34.621430 28.506323 -42.279779 9
37.204188 27.568901 -42.906097 9
39.752552 26.595105 -43.511130 9
42.274176 25.595635 -44.102793 9
44.688288 24.407321 -44.574223 9
46.969816 22.962901 -44.884791 9
49.093291 21.187414 -44.990319 9
51.107151 19.156793 -44.945137 9
53.022448 16.873681 -44.755200 9
54.873121 14.393458 -44.459669 9
56.692813 11.777714 -44.100371 9
58.487566 9.029351 -43.681359 9
60.256396 6.134495 -43.196291 9
62.589568 4.585235 -43.557862 9
64.583233 2.131713 -43.384089 9
66.158877 -1.525747 -42.509760 9
67.547908 -5.855973 -41.269609 9
68.364341 -12.040882 -38.978068 9
68.625757 -20.214297 -35.586080 9
69.909987 -25.696447 -33.832357 9
-103.970163 36.357671 8.022103 8
-97.842207 36.795073 5.782315 8
-92.196805 36.947550 3.842298 8
-86.684682 37.096604 1.936425 8
-81.324819 37.220740 0.082888 8
-76.281053 37.164844 -1.580788 8
-66.302067 41.801688 -7.396041 9
-57.609674 45.514951 -12.300530 9
-51.152840 47.312549 -15.450278 9
-46.533039 47.457028 -17.118206 9
-42.466415 47.137177 -18.364318 9
-38.552909 46.733867 -19.524227 9
-34.721711 46.313876 -20.656817 9
-30.962118 45.885114 -21.769678 9
-27.239850 45.482411 -22.892501 9
-23.607763 45.045324 -23.975498 9
-20.123523 44.502569 -24.961681 9
-16.596708 44.069604 -26.028247 9
-13.164975 43.585488 -27.044150 9
-9.840534 43.029500 -27.994376 9
-6.526514 42.516862 -28.971815 9
-3.264245 41.995193 -29.934984 9
-0.086127 41.419120 -30.849209 9
3.104286 40.913065 -31.811799 9
6.201118 40.333847 -32.712363 9
9.198974 39.666843 -33.541565 9
12.221638 39.082963 -34.429857 9
15.164733 38.432006 -35.264040 9
18.059596 37.754886 -36.075916 9
20.971489 37.149223 -36.937845 9
23.825987 36.500426 -37.765486 9
26.623676 35.804628 -38.557115 9
29.380296 35.082977 -39.328972 9
32.156431 34.435440 -40.152690 9
34.838488 33.667301 -40.890236 9
37.458390 32.825102 -41.576445 9
40.092719 32.042668 -42.305426 9
42.704143 31.252823 -43.030278 9
44.188298 28.313297 -42.293786 9
46.529285 26.998513 -42.679429 9
48.730427 25.404422 -42.885761 9
51.015935 23.977954 -43.214161 9
52.808727 21.487131 -42.851514 9
55.250473 20.374502 -43.408943 9
56.643068 16.882421 -42.433407 9
59.107185 15.784374 -43.025314 9
61.094336 13.548442 -42.899864 9
62.978496 11.002376 -42.597590 9
65.290587 9.482250 -42.958503 9
67.705334 8.223060 -43.492145 9
68.394860 2.245978 -41.137165 9
70.331657 -0.511789 -40.801005 9
70.368945 -8.917816 -37.081768 9
71.466345 -14.607688 -35.071832 5
69.360295 -30.633305 -26.992024 9
-101.513060 34.710066 13.327917 8
-94.686121 35.751859 10.436007 8
-88.604915 36.300830 8.056207 8
-82.761002 36.770513 5.789587 8
-77.366567 36.958094 3.819733 8
-66.951105 41.915591 -2.477842 9
-57.374928 46.395960 -8.236549 9
-50.734138 48.326506 -11.609973 9
-46.135190 48.414523 -13.290068 9
-41.965950 48.163721 -14.647570 9
-37.949756 47.834366 -15.918705 9
-34.038585 47.469098 -17.142945 9
-30.153455 47.148087 -18.390671 9
-26.460892 46.687805 -19.505162 9
-22.756517 46.306961 -20.674848 9
-19.142286 45.890851 -21.802500 9
-15.588950 45.469151 -22.914074 9
-12.080093 45.058921 -24.024268 9
-8.769067 44.469554 -24.977691 9
-5.366367 44.051639 -26.062425 9
-2.078320 43.548791 -27.069532 9
1.131967 43.001656 -28.033545 9
4.321664 42.482283 -29.012661 9
7.454642 41.940755 -29.967640 9
10.532937 41.376435 -30.898810 9
13.591379 40.836191 -31.843079 9
16.611773 40.292944 -32.779660 9
19.522467 39.635984 -33.625106 9
22.439858 39.036006 -34.510112 9
25.301216 38.395715 -35.361447 9
28.097268 37.695309 -36.165540 9
30.938303 37.112871 -37.054251 9
33.687214 36.420962 -37.860472 9
36.390366 35.690965 -38.637899 9
39.100440 35.013264 -39.452060 9
41.779161 34.319728 -40.254000 9
44.362880 33.486882 -40.957504 9
46.968085 32.728840 -41.714447 9
49.430712 31.722304 -42.300386 9
51.789933 30.525877 -42.760020 9
53.991758 29.008575 -43.007856 9
56.121346 27.327115 -43.155149 9
58.156100 25.416281 -43.161295 9
60.170726 23.427244 -43.130427 9
61.348355 19.419658 -41.790038 9
63.836064 18.445093 -42.462495 9
65.833963 16.262377 -42.359852 9
67.642986 13.536429 -41.927864 9
70.051917 12.325321 -42.480995 9
70.331766 5.238146 -39.347272 9
71.707019 0.891257 -37.993814 5
73.856228 -1.377525 -37.966371 5
75.935292 -3.927596 -37.786217 5
77.900950 -6.926396 -37.356426 5
79.639795 -10.795898 -36.430567 5
-100.862333 31.460363 20.206052 8
-92.595711 33.734711 16.021870 8
-85.829899 34.893661 12.977117 8
-79.515919 35.804338 10.219441 8
-68.892417 40.846429 3.632442 9
-57.933096 46.533312 -3.439639 9
-50.660466 49.011411 -7.433657 9
-45.903312 49.212230 -9.282198 9
-41.644057 49.013348 -10.741486 9
-37.500810 48.778364 -12.148216 9
-36.342683 45.476525 -10.809176 9
-29.601257 48.135925 -14.754040 9
-25.783665 47.782388 -16.004385 9
-22.023592 47.436194 -17.246273 9
-18.363332 47.046505 -18.436520 9
-14.782198 46.632180 -19.592761 9
-11.215765 46.266707 -20.778148 9
-7.761025 45.831529 -21.892949 9
-4.338964 45.419067 -23.015890 9
-1.011693 44.948538 -24.080522 9
2.236268 44.434086 -25.100087 9
5.498547 43.996915 -26.174012 9
8.654733 43.474033 -27.170393 9
11.746371 42.916027 -28.131637 9
14.856592 42.438797 -29.150281 9
17.877742 41.886621 -30.103292 9
20.838804 41.296116 -31.020929 9
23.805578 40.764986 -31.979456 9
26.725737 40.212419 -32.916425 9
29.534778 39.529607 -33.750280 9
32.366321 38.928728 -34.642975 9
35.142858 38.281298 -35.497696 9
37.862992 37.579575 -36.309899 9
40.624787 36.994911 -37.206217 9
43.293260 36.284637 -38.008751 9
45.910970 35.518080 -38.769936 9
48.500659 34.733628 -39.518429 9
50.900770 33.603796 -40.023186 9
53.205197 32.292255 -40.405393 9
55.415673 30.786267 -40.659613 9
57.506686 29.012568 -40.738932 9
59.598095 27.216499 -40.815916 9
61.642525 25.286095 -40.815184 9
63.686761 23.320388 -40.805738 9
65.791536 21.465125 -40.885407 9
67.776483 19.273519 -40.757265 9
69.781836 17.079689 -40.645983 9
70.314504 10.852495 -37.934584 9
72.042693 7.632309 -37.222454 5
74.353796 5.963879 -37.530352 5
76.628051 4.160504 -37.765655 5
78.881760 2.257462 -37.952875 5
81.063404 0.078103 -37.984063 5
83.208073 -2.292517 -37.916304 5
85.285010 -4.983054 -37.674365 5
87.213907 -8.320333 -37.065965 5
88.841522 -12.957149 -35.710578 5
-84.503790 32.115436 19.236988 8
-77.174617 33.955791 15.491649 8
-59.298103 45.921513 2.152082 9
-50.922122 49.379878 -2.907530 9
-45.979711 49.711660 -4.951503 9
-41.585285 49.602562 -6.554297 9
-40.357082 46.324685 -5.218350 9
-33.231093 49.197811 -9.520266 9
-29.216629 48.946000 -10.927866 9
-25.247736 48.723319 -12.342967 9
-21.477588 48.356536 -13.611813 9
-17.690152 48.081534 -14.946119 9
-14.009189 47.756334 -16.220550 9
-10.410966 47.403383 -17.456320 9
-6.937135 46.966914 -18.606842 9
-3.475640 46.579855 -19.787570 9
-0.067484 46.190469 -20.954359 9
3.271530 45.775404 -22.088273 9
6.557459 45.352244 -23.204947 9
9.768490 44.888033 -24.277962 9
12.902591 44.374781 -25.302134 9
16.033984 43.914458 -26.361298 9
19.071418 43.373421 -27.347737 9
22.066747 42.822592 -28.319833 9
25.070040 42.337376 -29.337558 9
27.967204 41.738539 -30.260003 9
30.883899 41.221370 -31.241009 9
33.737435 40.651462 -32.176112 9
36.566295 40.089185 -33.112645 9
39.303445 39.414901 -33.960455 9
42.030241 38.765571 -34.824534 9
44.706704 38.067122 -35.649709 9
47.384487 37.412718 -36.505772 9
49.904111 36.491111 -37.164980 9
52.300581 35.349141 -37.666442 9
54.581174 33.982003 -38.010983 9
56.752239 32.382898 -38.198065 9
58.846468 30.602638 -38.267908 9
60.940372 28.797681 -38.333366 9
63.048574 26.999508 -38.416836 9
65.155095 25.170031 -38.492126 9
67.237507 23.250438 -38.519810 9
69.293235 21.225222 -38.491109 9
70.384491 16.610535 -36.743440 9
71.919022 12.984636 -35.699134 5
74.324755 11.656343 -36.202955 5
76.679262 10.177605 -36.617128 5
79.020555 8.646092 -37.007610 5
81.329622 6.995692 -37.333055 5
83.622692 5.264896 -37.620115 5
85.892685 3.419871 -37.848977 5
88.124226 1.392547 -37.979200 5
90.308025 -0.873768 -37.978892 5
92.449375 -3.389468 -37.845807 5
94.501765 -6.371575 -37.452304 5
96.395907 -10.169997 -36.595488 5
97.663334 -16.930300 -34.008510 5
-63.111635 43.027369 10.098296 9
-51.809031 49.156867 2.260840 9
-46.370754 49.909410 -0.270864 9
-41.814266 49.908949 -2.043960 9
-37.442651 49.814976 -3.701487 9
-33.145657 49.733306 -5.345793 9
-29.003628 49.575162 -6.895279 9
-24.997879 49.352542 -8.363778 9
-21.051989 49.143766 -9.824996 9
-17.228736 48.874699 -11.212521 9
-13.243094 48.873350 -12.821835 9
-9.563965 48.591546 -14.161521 9
-5.998749 48.243724 -15.427243 9
-2.491615 47.892949 -16.676092 9
0.952046 47.529572 -17.900411 9
4.095984 46.838482 -18.831329 9
7.438867 46.467645 -20.026535 9
10.731476 46.093360 -21.207139 9
13.952590 45.683013 -22.346531 9
17.096300 45.223147 -23.434843 9
20.183601 44.739158 -24.494420 9
23.225286 44.243620 -25.536435 9
26.248790 43.776485 -26.593756 9
29.191028 43.236911 -27.585604 9
32.088294 42.676966 -28.555114 9
34.985507 42.168831 -29.559797 9
37.821956 41.609811 -30.518953 9
40.644238 41.076634 -31.493229 9
43.424707 40.519235 -32.444098 9
46.108778 39.831788 -33.291969 9
48.720599 39.048243 -34.065238 9
51.187188 38.014955 -34.651276 9
53.572270 36.838685 -35.134151 9
55.831508 35.413465 -35.438970 9
58.011462 33.816602 -35.626873 9
60.117771 32.044639 -35.698718 9
62.261669 30.334520 -35.827466 9
64.396229 28.581423 -35.937723 9
66.527243 26.794894 -36.037119 9
68.663617 24.993555 -36.139378 9
69.763508 20.491749 -34.387653 9
71.511323 17.504164 -33.719847 5
73.948853 16.301509 -34.292893 5
76.377586 15.081721 -34.861092 5
78.793150 13.828929 -35.414334 5
81.169109 12.457688 -35.896813 5
83.524134 11.012769 -36.340157 5
85.885144 9.573186 -36.797213 5
88.200967 7.963840 -37.155164 5
90.498975 6.260428 -37.465463 5
92.785602 4.474201 -37.737003 5
95.042381 2.522459 -37.919440 5
97.267309 0.374374 -37.996559 5
99.450796 -2.038154 -37.929848 5
101.584941 -4.788304 -37.679206 5
103.627799 -8.121169 -37.102121 5
105.348648 -13.253731 -35.478861 5
-53.589122 48.091966 8.367700 9
-47.185245 49.701965 4.886685 9
-42.355856 49.910194 2.834388 9
-37.853245 49.891919 1.034489 9
-33.399459 49.918719 -0.780494 9
-10.976327 69.297764 -20.943999 1
-9.835836 66.333084 -19.723392 1
-20.873395 49.656634 -5.743247 9
-16.646487 49.808745 -7.571676 9
-8.409048 54.768643 -13.777959 4
-4.525478 54.817812 -15.422830 4
-1.737981 53.607651 -15.912378 4
0.589717 51.846998 -15.909492 4
1.681949 48.495388 -14.507440 9
5.159405 48.216841 -15.831185 9
8.318453 47.580280 -16.829126 9
11.621425 47.197200 -18.036663 9
14.892326 46.834551 -19.249620 9
18.047470 46.369945 -20.364460 9
21.212322 45.980325 -21.532439 9
24.310134 45.552051 -22.657845 9
27.342138 45.081928 -23.739342 9
30.338784 44.613502 -24.813883 9
33.292006 44.131589 -25.869544 9
36.202265 43.633896 -26.905171 9
39.045606 43.075683 -27.885811 9
41.898273 42.585834 -28.914962 9
44.675736 42.013573 -29.873423 9
47.429869 41.447608 -30.832139 9
50.000000 40.576739 -31.551516 9
52.455050 39.510179 -32.121309 9
54.772870 38.184622 -32.497639 9
56.992486 36.658307 -32.729486 9
59.178505 35.052197 -32.910971 9
61.366668 33.437980 -33.096706 9
63.542894 31.782061 -33.262397 9
65.697079 30.056116 -33.388415 9
67.878237 28.372444 -33.557018 9
70.023348 26.576114 -33.657024 9
70.877702 21.395547 -31.376683 5
73.382112 20.386933 -32.076382 5
75.859603 19.325295 -32.743106 5
78.298995 18.171506 -33.351066 5
80.739526 17.031119 -33.974233 5
83.146348 15.796758 -34.539854 5
85.546282 14.542395 -35.099450 5
87.926023 13.220199 -35.621737 5
90.297986 11.863809 -36.130278 5
92.629622 10.350494 -36.545633 5
94.960812 8.808982 -36.954104 5
97.274166 7.166339 -37.309522 5
99.568980 5.404892 -37.602553 5
101.844882 3.505319 -37.823223 5
104.101928 1.446758 -37.961017 5
106.233337 -1.301989 -37.689961 5
108.137216 -5.360984 -36.641632 5
109.641845 -11.855468 -34.154597 5
-48.702216 48.821027 10.825839 9
-43.414756 49.404772 8.307992 9
-11.384926 77.433006 -21.373101 1
-10.270013 74.549542 -20.148836 1
-9.123565 71.650432 -18.936083 1
-7.978687 68.699345 -17.699987 1
-11.377196 60.607481 -11.579964 4
-5.938080 62.350307 -14.886835 4
-2.850034 61.505109 -15.711938 4
-6.898359 52.136716 -8.603489 4
1.801790 58.080658 -15.738728 4
3.761124 55.912681 -15.345464 4
5.516921 53.463403 -14.711598 4
8.046575 52.002511 -14.983233 4
9.574366 49.201415 -14.065885 4
12.414514 48.166320 -14.729756 9
15.680210 47.769892 -15.948792 9
18.974709 47.481093 -17.248752 9
22.159630 47.099367 -18.455493 9
25.284765 46.691381 -19.628399 9
28.333198 46.226342 -20.742562 9
31.397053 45.845796 -21.918170 9
34.360766 45.363552 -22.999365 9
37.336686 44.959670 -24.136900 9
40.217683 44.452126 -25.181077 9
43.077447 43.962006 -26.232403 9
45.901551 43.462319 -27.269267 9
48.607566 42.794951 -28.166558 9
51.133105 41.823002 -28.820162 9
53.597488 40.756544 -29.400694 9
55.891962 39.363105 -29.730207 9
58.133096 37.858689 -29.981345 9
60.390220 36.383188 -30.263018 9
62.546117 34.676096 -30.378130 9
64.761806 33.086825 -30.592911 9
66.981239 31.492579 -30.814094 9
69.146462 29.749887 -30.936357 9
70.374437 25.603801 -29.317651 9
72.293794 23.082128 -28.916431 5
74.970495 22.532050 -29.951072 5
77.620474 21.961020 -30.968658 5
80.110946 20.979076 -31.695070 5
82.556280 19.883500 -32.345782 5
85.008635 18.822939 -33.026016 5
87.425630 17.662557 -33.642797 5
89.827308 16.456639 -34.235068 5
92.225617 15.240208 -34.827461 5
94.593534 13.911738 -35.352495 5
96.960697 12.568432 -35.876748 5
99.300326 11.100189 -36.328374 5
101.632080 9.570395 -36.750998 5
103.959977 7.986582 -37.150727 5
106.189799 5.905929 -37.245717 5
108.269102 2.994780 -36.833531 5
110.166208 -1.046477 -35.740752 5
111.768960 -7.019355 -33.488791 5
112.899187 -16.295408 -29.266299 5
-20.540897 76.830978 -13.014246 1
-10.791132 82.446935 -20.510260 1
-9.608378 79.686009 -19.356736 1
-8.457471 76.847832 -18.150605 1
-13.638494 67.204486 -10.186226 1
-6.526625 70.620345 -15.272804 1
-2.904786 70.384364 -16.696567 1
-0.287429 69.073769 -17.057225 1
2.015021 67.417118 -17.084119 1
3.986196 65.368735 -16.743200 1
4.746338 61.818845 -14.997733 4
6.780664 59.785440 -14.707884 4
8.879355 57.821606 -14.494416 4
10.327329 54.988161 -13.493129 4
11.676148 51.966710 -12.345848 4
13.194832 49.116973 -11.381539 9
16.409249 48.620517 -12.547073 9
19.757845 48.381373 -13.928893 9
22.971314 48.014715 -15.183393 9
26.185293 47.715943 -16.484325 9
29.312643 47.351081 -17.714991 9
32.387545 46.967663 -18.918112 9
35.406798 46.556646 -20.086933 9
38.342402 46.066043 -21.178802 9
41.288495 45.651444 -22.325700 9
44.185236 45.209798 -23.441200 9
47.038011 44.746661 -24.530862 9
49.711507 44.002049 -25.384221 9
52.259238 43.054138 -26.070556 9
54.652493 41.826209 -26.533107 9
56.972182 40.459045 -26.889430 9
59.194084 38.887773 -27.091635 9
61.439307 37.357768 -27.335103 9
63.665079 35.775787 -27.547190 9
65.938376 34.291873 -27.843935 9
68.163501 32.685270 -28.056055 9
69.393642 28.599180 -26.413162 9
71.403627 26.325988 -26.164829 5
73.976912 25.479658 -26.990499 5
75.622496 22.129102 -25.981446 5
79.013317 23.578904 -28.493488 5
81.576654 22.800188 -29.372547 5
84.189687 22.210577 -30.387416 5
86.753745 21.517983 -31.328055 5
89.205531 20.500180 -32.040708 5
91.619504 19.370299 -32.679868 5
94.036296 18.257482 -33.336841 5
96.433748 17.080161 -33.955778 5
98.808606 15.815577 -34.522639 5
101.189535 14.566604 -35.108248 5
103.553755 13.237185 -35.648609 5
105.851359 11.590904 -35.989481 5
108.018014 9.274706 -35.906021 5
110.045240 6.136574 -35.311858 5
111.901468 1.871111 -34.025710 5
113.648994 -3.376629 -32.159705 5
115.286025 -9.799444 -29.609648 5
-19.701776 82.184275 -12.372271 1
-13.454445 84.240146 -16.338386 1
-8.178059 85.519045 -19.413141 1
-6.408960 83.381649 -18.874866 1
-5.485519 80.349012 -17.426819 1
-10.789593 70.626024 -9.176619 1
-11.299750 65.753112 -5.992437 4
-2.367797 71.277041 -13.292416 1
0.843149 70.616909 -14.321192 1
4.472624 70.501662 -15.872016 1
6.893712 69.018355 -16.066186 1
8.456655 66.494531 -15.257443 1
9.663796 63.484912 -14.004381 4
11.036177 60.625619 -12.922847 4
12.324628 57.599911 -11.711035 4
13.490199 54.343566 -10.313138 4
14.560833 50.879117 -8.755481 4
16.934798 49.180447 -8.849103 9
20.371144 49.032427 -10.355752 9
23.702350 48.807583 -11.775438 9
26.929117 48.498295 -13.103858 9
30.113123 48.192453 -14.421243 9
33.233083 47.853493 -15.696072 9
36.329488 47.543509 -16.983557 9
39.365724 47.200132 -18.229904 9
42.321364 46.782527 -19.401543 9
45.225347 46.334296 -20.537480 9
48.040034 45.781125 -21.576543 9
50.736639 45.057258 -22.466793 9
53.272302 44.062196 -23.129488 9
55.686192 42.849295 -23.614336 9
57.957658 41.355005 -23.874751 9
60.209022 39.813883 -24.105167 9
62.494094 38.339219 -24.396916 9
64.798819 36.904618 -24.727979 9
67.051584 35.345476 -24.968950 9
69.317445 33.806012 -25.234389 9
70.372524 29.232942 -23.176303 9
72.970264 28.422345 -24.035856 5
75.562811 27.635198 -24.912844 5
78.111634 26.765785 -25.727884 5
79.824465 23.535658 -24.790615 5
83.197775 25.091306 -27.408678 5
85.666845 24.077404 -28.121697 5
88.140605 23.097908 -28.863237 5
90.728361 22.519346 -29.895747 5
93.298278 21.932723 -30.921142 5
95.751198 20.976336 -31.684956 5
98.170560 19.914007 -32.378614 5
100.571497 18.789201 -33.034389 5
102.961021 17.620396 -33.666320 5
105.325087 16.338600 -34.228500 5
107.550530 14.408967 -34.362725 5
109.669799 11.882036 -34.114703 5
111.641633 8.447897 -33.290247 5
113.558661 4.444575 -32.127482 5
115.429853 -0.180334 -30.602586 5
117.534335 -3.850977 -29.741411 6
119.739320 -7.227477 -29.105784 6
121.689520 -12.718200 -27.168210 6
123.723717 -18.274243 -25.249161 6
-16.695159 85.593398 -11.556199 1
-11.611839 86.543369 -14.409914 1
-6.865702 87.295143 -16.995829 1
-3.722867 86.546110 -17.932717 1
-2.181214 84.186193 -17.152556 1
-0.465251 81.984185 -16.555621 1
-0.912627 77.407943 -13.513450 1
1.420749 75.795753 -13.574799 1
3.431298 73.823896 -13.273557 1
5.260731 71.630995 -12.759905 1
8.039755 70.554725 -13.374933 1
10.713286 69.382637 -13.889202 1
11.787442 66.227925 -12.457645 1
12.917123 63.073889 -11.058854 4
14.027772 59.823484 -9.599147 4
15.013635 56.327623 -7.938634 4
14.972323 51.316670 -4.884103 4
17.621766 49.968147 -5.320107 9
20.954721 49.637797 -6.700966 9
24.334128 49.449428 -8.196227 9
27.628518 49.209568 -9.626760 9
30.852409 48.934326 -11.009036 9
34.031718 48.660234 -12.377238 9
35.414717 45.471393 -11.143981 9
40.204609 48.016785 -14.986854 9
43.272956 47.768401 -16.336368 9
46.204111 47.345349 -17.521637 9
49.039883 46.807931 -18.598800 9
51.703169 45.996896 -19.435576 9
54.203436 44.904900 -20.032243 9
56.601230 43.627816 -20.475340 9
58.902384 42.159805 -20.764324 9
61.216925 40.718547 -21.082154 9
63.542658 39.300828 -21.425846 9
65.852654 37.846498 -21.746593 9
68.120615 36.289104 -21.992230 9
69.412365 32.343099 -20.353447 9
71.779882 30.931114 -20.747678 5
74.429165 30.249304 -21.717885 5
77.044375 29.522602 -22.650943 5
79.636827 28.775800 -23.567040 5
82.204411 27.998678 -24.459114 5
84.731341 27.138532 -25.288398 5
87.278280 26.372985 -26.189275 5
89.770558 25.469486 -26.988223 5
91.530392 22.121943 -25.998040 5
94.698578 23.548236 -28.509704 5
97.193353 22.733547 -29.380409 5
99.747230 22.179378 -30.438775 5
102.243479 21.451549 -31.372952 5
104.641908 20.353134 -32.048382 5
106.950272 18.860080 -32.455525 5
109.121963 16.691383 -32.408373 5
111.186036 13.877099 -31.940119 5
113.181611 10.508668 -31.124618 5
115.232227 7.166855 -30.361413 5
117.353917 3.952533 -29.717050 6
119.725199 2.010284 -29.942633 6
122.071666 -0.224542 -29.994746 6
124.402429 -2.754409 -29.877222 6
126.689705 -5.869780 -29.409550 6
128.877562 -10.202791 -28.201416 6
130.749536 -18.126118 -24.783950 6
-15.443456 87.339079 -8.960508 1
-7.057783 91.455993 -15.425353 3
-3.199532 91.393743 -17.150026 3
0.381390 91.135947 -18.628692 3
2.187279 89.114463 -18.172308 3
2.087646 85.059825 -15.549126 1
3.768261 82.827002 -14.912708 1
3.928870 78.880317 -12.490927 1
5.105931 75.985222 -11.213630 1
7.715475 74.707669 -11.632375 1
9.120895 72.013567 -10.601154 1
11.832651 70.874579 -11.167532 1
13.503760 68.458152 -10.448289 1
14.486196 65.120181 -8.832803 4
15.432497 61.653097 -7.125962 4
15.249590 56.568430 -3.879559 4
15.747319 52.257439 -1.446461 4
17.929309 50.213676 -1.235372 9
21.291132 49.879368 -2.657811 9
24.764514 49.786234 -4.289683 9
28.133751 49.618663 -5.831495 9
31.470463 49.480984 -7.382209 9
34.742747 49.321038 -8.894041 9
37.898265 49.046930 -10.284829 9
41.035401 48.815094 -11.698653 9
44.074935 48.486975 -13.011583 9
47.096151 48.195461 -14.343892 9
49.936290 47.637991 -15.430230 9
52.541038 46.684765 -16.164509 9
55.052125 45.578491 -16.765064 9
57.472872 44.310615 -17.228371 9
59.812039 42.883386 -17.560221 9
62.136839 41.426062 -17.872763 9
64.471129 39.988021 -18.207918 9
66.801765 38.539996 -18.541358 9
69.149170 37.128582 -18.911571 9
70.456103 33.161970 -17.218816 5
73.158407 32.559436 -18.269696 5
75.843898 31.966245 -19.323582 5
78.466086 31.254867 -20.279993 5
81.096885 30.612957 -21.288482 5
83.673601 29.863004 -22.210293 5
86.239995 29.123361 -23.138903 5
88.798638 28.401402 -24.080014 5
91.301997 27.541187 -24.915764 5
93.798628 26.689459 -25.759050 5
96.292390 25.859206 -26.619608 5
98.756704 24.952284 -27.425061 5
101.205136 24.008993 -28.206542 5
103.043095 20.592010 -27.203156 5
106.130701 22.310982 -29.914623 5
108.428989 20.764691 -30.277184 5
110.603193 18.581362 -30.202980 5
112.662792 15.699247 -29.661119 5
114.753705 12.770667 -29.115736 5
116.842094 9.596422 -28.431286 5
119.254246 8.097544 -28.916457 6
121.650731 6.436585 -29.304293 6
124.046023 4.675920 -29.639535 6
126.432246 2.731013 -29.868352 6
128.814414 0.593541 -29.988829 6
131.190685 -1.808201 -29.958141 6
133.544915 -4.714804 -29.626714 6
135.860579 -8.478606 -28.779644 6
137.772537 -17.919875 -24.394776 6
-11.689541 91.431452 -9.075700 3
-7.562519 91.487392 -11.043397 3
-3.665413 91.411166 -12.822764 3
0.815027 92.009185 -15.322483 3
4.566976 91.972551 -17.070942 3
5.721934 89.273233 -15.865678 3
6.313141 85.915907 -13.971821 1
7.907857 83.593670 -13.231415 1
6.881714 78.260168 -9.300407 1
8.097259 75.363113 -8.019560 1
10.879650 74.282768 -8.666148 1
11.922605 71.105289 -7.133985 1
15.281354 70.764875 -8.545249 1
16.511335 67.753795 -7.222130 1
20.090596 67.780040 -8.986622 1
15.813895 57.252914 -0.199668 4
15.595861 51.909605 3.297248 4
18.056028 50.198569 3.166760 9
21.477413 49.897654 1.662914 9
25.044208 49.892596 -0.106112 9
28.569595 49.916206 -1.878815 9
29.881545 46.526779 -0.405287 9
35.303564 49.732723 -5.139234 9
38.549752 49.569472 -6.673042 9
41.740713 49.392822 -8.176618 9
44.819757 49.098656 -9.556081 9
46.236252 45.854441 -8.256626 9
50.692047 48.198912 -11.993276 9
53.367265 47.342511 -12.834457 9
55.833662 46.110420 -13.341047 9
58.258433 44.808466 -13.788751 9
60.649547 43.445749 -14.187310 9
63.003283 42.007319 -14.525546 9
65.362914 40.581922 -14.880771 9
67.755828 39.233301 -15.306588 9
70.108446 37.792050 -15.660131 9
71.731801 34.543184 -14.524597 5
74.488070 34.064441 -15.694068 5
77.155929 33.414634 -16.717664 5
79.840491 32.861513 -17.815220 5
82.477920 32.231928 -18.846685 5
85.095395 31.595258 -19.868960 5
87.682413 30.916246 -20.854833 5
90.237224 30.182016 -21.795471 5
92.779591 29.449351 -22.736119 5
95.305530 28.702543 -23.665023 5
97.801935 27.890112 -24.543718 5
100.284539 27.060550 -25.410236 5
102.752588 26.206346 -26.259585 5
105.207883 25.329270 -27.093816 5
107.587726 24.149374 -27.708727 5
109.870818 22.517957 -28.002575 5
111.403614 17.178230 -25.642668 5
114.126718 17.472143 -27.357424 5
116.226839 14.532367 -26.776646 5
118.578768 12.816652 -27.082084 6
121.011637 11.515530 -27.689190 6
123.429681 10.079490 -28.212638 6
125.852582 8.616365 -28.728597 6
128.266991 7.013190 -29.161524 6
130.682870 5.314425 -29.543937 6
133.092797 3.420290 -29.811679 6
135.502539 1.324788 -29.964585 6
137.915831 -1.003533 -29.986062 6
140.326519 -3.742675 -29.765868 6
142.729103 -7.170713 -29.134212 6
145.052439 -12.955058 -27.049964 6
147.494788 -18.286071 -25.314581 6
-9.254811 98.061154 -10.386898 2
-8.785434 94.712811 -8.367150 3
-4.823656 94.635597 -10.218084 3
-0.834698 94.672937 -12.164175 3
3.505769 95.155736 -14.582271 3
5.388107 93.218802 -14.206923 3
7.442365 91.454664 -14.035104 3
8.594203 88.713622 -12.782391 3
10.015259 86.221282 -11.830931 1
11.272151 83.504763 -10.656662 1
9.880808 77.653950 -6.123779 1
11.217758 74.854124 -4.945200 1
13.101232 72.671031 -4.446771 1
15.148636 70.672267 -4.155910 1
19.020376 71.010338 -6.304387 1
21.126265 69.122796 -6.126530 1
15.104009 56.209603 5.288499 4
13.886003 49.391512 10.326487 9
17.671361 49.450088 8.379580 9
21.489217 49.655967 6.314843 9
25.192299 49.795964 4.344849 9
28.807390 49.902526 2.435218 9
32.316754 49.941301 0.617283 9
35.734994 49.927147 -1.125826 9
39.079774 49.882045 -2.817144 9
42.344877 49.789553 -4.442794 9
45.543751 49.666444 -6.020326 9
48.590172 49.349739 -7.400779 9
51.424177 48.706825 -8.468245 9
54.068815 47.750546 -9.242855 9
56.595580 46.592879 -9.833222 9
59.001386 45.207226 -10.220798 9
61.394665 43.800642 -10.594081 9
63.817318 42.461707 -11.031345 9
66.208550 41.058676 -11.416967 9
68.611754 39.685284 -11.833281 9
70.069543 36.034783 -10.313045 5
72.911009 35.680729 -11.618031 5
75.678462 35.208961 -12.814704 5
78.422712 34.740141 -14.006293 5
81.147174 34.281667 -15.199229 5
83.806179 33.700836 -16.285369 5
86.437938 33.095225 -17.346654 5
89.044660 32.466447 -18.385251 5
90.927003 29.545594 -17.598055 5
94.206000 31.195770 -20.442100 5
96.749826 30.510059 -21.426951 5
99.250777 29.714187 -22.324784 5
101.765607 29.009033 -23.292339 5
104.250428 28.228379 -24.201584 5
106.687710 27.284084 -24.987839 5
109.022588 25.903133 -25.450539 5
111.277355 24.116600 -25.621606 5
113.411304 21.650494 -25.307997 5
115.535221 18.966038 -24.858869 5
118.007516 18.034458 -25.700545 6
120.246085 15.721590 -25.558439 6
122.689520 14.544767 -26.242937 6
125.124993 13.292987 -26.882104 6
127.563728 12.029238 -27.521404 6
129.988893 10.610990 -28.063005 6
132.415963 9.129006 -28.572031 6
134.844222 7.553615 -29.029791 6
137.275256 5.867003 -29.426271 6
139.708363 4.014281 -29.727261 6
142.150462 2.017353 -29.950441 6
144.596237 -0.289950 -29.990298 6
147.055055 -2.913962 -29.848631 6
149.526108 -6.122330 -29.360183 6
-8.570848 102.983500 -9.840447 2
-5.021506 102.502218 -11.250531 2
-2.375602 101.247826 -11.692892 2
0.351468 100.099394 -12.252730 2
3.299524 99.200019 -13.096569 2
2.583615 94.671722 -9.662708 3
7.567997 95.863168 -12.947259 3
8.990097 93.451663 -12.022169 3
10.306457 90.892528 -10.949520 3
11.472005 88.125261 -9.665974 1
12.848856 85.545761 -8.620118 1
13.741298 82.359875 -6.927772 1
12.891355 77.021040 -2.915834 1
13.623823 73.434144 -0.884120 1
14.986819 70.544595 0.355717 1
18.856846 70.825022 -1.802874 1
21.828109 70.024403 -2.787342 1
22.232625 65.792230 -0.179257 1
12.734062 47.643816 16.754496 9
17.064372 48.378908 14.035261 9
21.110511 48.836134 11.641000 9
25.062473 49.274648 9.302152 9
28.801837 49.505466 7.205195 9
32.480437 49.748950 5.125929 9
36.028624 49.888598 3.177602 9
39.418876 49.865698 1.413379 9
42.800720 49.921585 -0.403596 9
46.069189 49.873092 -2.097797 9
49.167138 49.603074 -3.562204 9
52.009229 48.927617 -4.631230 9
54.679635 47.970900 -5.430635 9
57.234658 46.817730 -6.045700 9
59.630357 45.357176 -6.380646 9
62.068995 43.989823 -6.804552 9
64.566499 42.758761 -7.353978 9
67.008507 41.416266 -7.806427 9
69.419870 40.008187 -8.205069 9
71.122611 36.878713 -7.109707 5
73.987639 36.552565 -8.465812 5
76.821069 36.221078 -9.806480 5
79.625892 35.889071 -11.136386 5
82.349786 35.407186 -12.330403 5
85.050881 34.924608 -13.516616 5
87.741826 34.477034 -14.724931 5
90.386053 33.951104 -15.862131 5
92.968300 33.284337 -16.879545 5
95.565928 32.720700 -17.976881 5
98.129441 32.094765 -19.020309 5
100.678790 31.469992 -20.061655 5
102.602771 28.449380 -19.222178 5
105.695338 30.051275 -22.005111 5
108.102128 28.973320 -22.691399 5
109.837173 24.839367 -21.049000 5
112.586204 25.248563 -22.890131 5
114.735795 22.780777 -22.558301 5
116.908741 20.268425 -22.216812 5
119.523185 20.117822 -23.639430 6
122.014934 19.337860 -24.595645 6
124.468770 18.346645 -25.400684 6
126.746629 16.101733 -25.311363 6
129.192144 14.950257 -26.020242 6
131.630036 13.706716 -26.671467 6
134.067585 12.408104 -27.292837 6
136.505860 11.043926 -27.878354 6
138.943401 9.569236 -28.398678 6
141.387271 8.027894 -28.885871 6
143.836315 6.365747 -29.304964 6
146.294733 4.586523 -29.660901 6
148.761360 2.576327 -29.880888 6
-7.894710 104.206688 -6.778494 2
-3.741934 104.248172 -8.897151 2
-5.832502 98.592250 -3.894379 2
3.257578 103.379315 -11.825748 2
5.423412 101.748916 -11.789423 2
6.563717 99.100598 -10.530131 2
5.994251 94.655228 -7.159445 3
10.794258 95.716461 -10.344143 3
12.001673 93.050888 -9.121348 3
13.174039 90.299343 -7.826041 3
14.108366 87.226198 -6.191730 1
14.760111 83.756026 -4.143712 1
13.591483 78.026676 0.390223 1
12.325940 71.972432 5.191991 1
14.942782 70.566244 4.793277 1
18.643734 70.576399 2.857765 1
22.135236 70.404199 1.150855 1
5.161209 42.554400 28.993226 9
10.715595 44.684069 24.628662 9
15.591735 46.063692 21.124426 9
20.209315 47.241739 17.887673 9
24.471923 48.050362 15.083258 9
28.547556 48.714158 12.470508 9
32.402532 49.162554 10.115166 9
36.066113 49.420840 7.984762 9
39.669292 49.689635 5.874376 9
43.129101 49.822132 3.927327 9
46.476761 49.858441 2.100044 9
49.605608 49.590264 0.589823 9
52.497767 48.952871 -0.550217 9
55.172784 47.947699 -1.331557 9
57.720343 46.718823 -1.899159 9
60.224439 45.417871 -2.399972 9
62.714146 44.098861 -2.885882 9
65.182222 42.742678 -3.340180 9
67.674599 41.449508 -3.854744 9
70.191940 40.226146 -4.434444 9
72.072021 37.455897 -3.640113 5
75.002184 37.253890 -5.135933 5
77.873009 36.983668 -6.558543 5
80.689575 36.648525 -7.912879 5
83.503200 36.383502 -9.316854 5
86.247470 35.998626 -10.607661 5
88.939206 35.528024 -11.817223 5
91.623365 35.101642 -13.056539 5
94.285017 34.672888 -14.286408 5
96.898719 34.150388 -15.432185 5
99.446301 33.452601 -16.429849 5
102.031082 32.944773 -17.578431 5
104.567174 32.309918 -18.620503 5
107.063034 31.561261 -19.569574 5
109.436657 30.316094 -20.127366 5
111.700340 28.546493 -20.282704 5
113.874999 26.262361 -20.054266 5
116.056635 23.870659 -19.764380 5
118.489446 22.710158 -20.431489 6
121.003317 22.021129 -21.459231 6
123.495755 21.250042 -22.425646 6
125.976679 20.442543 -23.366379 6
128.447046 19.593186 -24.278431 6
130.905112 18.672949 -25.141823 6
133.215859 16.455931 -25.076533 6
135.662070 15.307109 -25.793623 6
138.108313 14.114143 -26.486897 6
140.550918 12.809321 -27.110045 6
142.999133 11.469928 -27.719020 6
145.450000 10.022277 -28.264070 6
147.907756 8.477972 -28.755362 6
-8.703327 104.128634 -1.992871 2
-6.607647 102.256533 -1.739185 2
0.250224 104.787847 -7.091347 2
3.538916 104.160030 -8.350442 2
6.829935 103.594851 -9.659676 2
8.267860 101.244879 -8.743040 2
9.440938 98.594267 -7.479787 2
9.428767 94.655546 -4.690770 3
13.341299 94.824837 -6.861882 3
14.913880 92.513278 -6.060503 3
16.097431 89.731953 -4.728299 3
15.613006 84.960351 -1.122506 1
7.176910 70.561491 13.436028 1
11.051437 70.543858 11.392945 1
11.849012 66.764668 13.610222 1
18.644448 70.603605 7.308800 1
20.097220 67.684225 8.567132 1
12.562364 41.510817 30.801995 9
18.249298 44.080320 25.952547 9
23.227696 45.827537 22.050222 9
27.671834 46.946540 18.866691 9
31.838316 47.787810 16.020746 9
35.790369 48.426184 13.426541 9
39.624552 49.002634 10.934416 9
43.291288 49.420954 8.637879 9
46.708500 49.515568 6.695929 9
50.006433 49.493869 4.894670 9
52.878848 48.758555 3.812730 9
46.087442 29.100421 21.032119 9
58.187938 46.564380 2.371301 9
60.716824 45.247391 1.863679 9
63.206171 43.857913 1.422892 9
65.717638 42.524927 0.926514 9
68.241749 41.231101 0.391671 9
69.778652 37.593221 2.002551 5
72.848420 37.587592 0.274761 5
75.882478 37.594631 -1.446177 5
78.827132 37.469872 -3.031683 5
81.713230 37.279977 -4.544406 5
84.548106 37.035175 -5.995377 5
87.371091 36.842902 -7.479738 5
90.107265 36.474413 -8.799743 5
92.816919 36.098990 -10.104400 5
95.492708 35.688081 -11.370135 5
98.157234 35.313623 -12.658511 5
100.759406 34.789412 -13.814270 5
103.364792 34.344229 -15.029685 5
105.909359 33.727166 -16.098375 5
108.350102 32.724470 -16.851266 5
110.690029 31.283741 -17.254839 5
112.932122 29.341926 -17.268453 5
115.132947 27.093067 -17.055893 5
117.350093 24.787611 -16.819499 5
119.908625 24.275648 -17.994236 6
122.432623 23.632765 -19.065142 6
124.948028 22.996586 -20.139981 6
127.433460 22.212641 -21.102362 6
129.922015 21.494706 -22.115412 6
132.390781 20.663386 -23.045132 6
134.862863 19.895188 -24.023681 6
137.067808 16.390649 -23.012753 6
139.765126 18.016180 -25.739640 6
142.109970 15.647597 -25.583258 6
144.561265 14.461953 -26.288023 6
147.015239 13.213430 -26.956953 6
149.472457 11.861257 -27.563141 6
-5.467583 107.606721 -1.831312 2
0.813920 109.531699 -6.561115 2
3.274691 108.133219 -6.850921 2
4.697532 105.775693 -5.896661 2
6.950904 104.194083 -5.951401 2
9.919833 103.334527 -6.914816 2
11.117376 100.716585 -5.664014 2
12.328054 98.067891 -4.402122 2
14.316163 96.207013 -4.129536 3
15.257311 93.188096 -2.464333 3
17.791446 91.901887 -2.907334 3
19.028263 89.136000 -1.591654 3
17.026621 82.462985 4.273347 1
14.300076 74.643052 11.348285 1
17.620735 74.081440 9.943071 1
18.957365 71.033168 11.389508 1
20.334524 67.970474 12.819688 1
19.684034 40.107942 32.957911 9
25.661245 43.396516 27.321663 9
30.648420 45.395362 23.141349 9
34.974994 46.526572 19.936144 9
39.181746 47.624840 16.816283 9
42.987667 48.190770 14.290725 9
46.775782 48.860662 11.697437 9
50.063080 48.743474 9.934004 9
53.074826 48.192460 8.625780 9
55.850924 47.242141 7.726137 9
58.426733 45.923600 7.193365 9
61.001929 44.618818 6.646912 9
63.560037 43.291970 6.121207 9
66.129179 42.002566 5.558665 9
68.737394 40.818241 4.896067 9
70.247244 37.012753 6.686135 5
73.442474 37.238263 4.695348 5
76.621946 37.547048 2.651210 5
79.646455 37.571552 0.889849 5
82.641990 37.625700 -0.879730 5
85.534156 37.494174 -2.464735 5
88.399858 37.382400 -4.052380 5
91.200789 37.169325 -5.536300 5
93.956691 36.903107 -6.961339 5
96.666249 36.568909 -8.316387 5
99.341947 36.198815 -9.630927 5
102.032430 35.966924 -11.054006 5
104.625394 35.448792 -12.225786 5
107.177711 34.832042 -13.309534 5
109.583860 33.637699 -13.911757 5
111.903739 32.041355 -14.189282 5
114.103456 29.804822 -13.957534 5
116.345519 27.649480 -13.811275 5
118.725045 26.115839 -14.180242 6
121.293926 25.638582 -15.395254 6
123.836268 25.082185 -16.543980 6
126.360247 24.479716 -17.654102 6
128.874025 23.875795 -18.761255 6
131.371471 23.216169 -19.824356 6
133.846900 22.429085 -20.790559 6
136.325553 21.716608 -21.814242 6
138.791979 20.930201 -22.783797 6
141.245243 20.021879 -23.665651 6
143.708624 19.266533 -24.663075 6
146.152752 18.235674 -25.463469 6
148.542887 15.999097 -25.406137 6
-3.494547 109.969219 -0.258451 2
0.595676 109.930065 -2.452804 2
4.427624 109.749095 -4.405153 2
6.345448 107.852494 -4.046387 2
7.241811 104.964597 -2.399938 2
10.296812 104.158462 -3.476635 2
12.737725 102.779537 -3.797791 2
12.889743 99.033258 -1.121129 2
12.510557 94.613896 2.339411 3
16.371707 94.713846 0.137221 3
18.710493 93.196408 -0.040849 3
20.731212 91.323093 0.214176 3
21.969816 88.512953 1.584921 3
18.182152 79.511787 10.271031 1
19.457582 76.462920 11.788100 1
20.801320 73.433478 13.248931 1
22.082669 31.134789 43.226310 9
25.438928 30.186834 42.005729 9
37.904814 44.806702 24.361750 9
42.219795 46.124968 20.951236 9
46.335833 47.269864 17.774997 9
49.907776 47.576401 15.509418 9
53.031409 47.144259 14.028043 9
55.906327 46.294540 12.985543 9
58.529270 44.977022 12.419920 9
61.140555 43.651567 11.862642 9
63.770138 42.381407 11.251076 9
66.392924 41.114001 10.637410 9
69.016544 39.865949 10.005345 9
70.332212 35.464066 12.385788 9
73.820072 36.308443 9.746283 5
77.103548 36.793955 7.478425 5
80.330280 37.274179 5.243544 5
83.412394 37.496856 3.273218 5
86.395403 37.559681 1.471146 5
89.326588 37.582941 -0.276137 5
92.213369 37.581421 -1.983460 5
95.033186 37.473244 -3.579153 5
97.775408 37.203219 -5.017604 5
100.513209 37.010866 -6.512471 5
103.183177 36.662454 -7.859912 5
105.847196 36.378599 -9.253444 5
108.358502 35.547032 -10.170771 5
110.749616 34.218188 -10.667157 5
113.032045 32.357356 -10.724929 5
115.263977 30.156543 -10.515240 5
117.551656 28.114443 -10.455512 5
120.081473 27.320761 -11.430080 6
122.642362 26.760015 -12.592207 6
125.202488 26.273851 -13.810480 6
127.747380 25.773979 -15.013614 6
130.284179 25.307262 -16.239076 6
132.784275 24.636606 -17.301750 6
135.287778 24.066956 -18.441711 6
137.774381 23.416633 -19.518110 6
140.247847 22.692318 -20.537973 6
142.715467 21.953219 -21.547608 6
145.177327 21.185773 -22.537485 6
147.629780 20.293866 -23.437501 6
148.240996 -25.119884 8.224280 6
-0.111627 109.904242 2.330993 2
3.990646 109.912994 0.033477 2
7.029095 109.022429 -0.992662 2
3.895013 102.240497 5.883573 2
9.896260 104.219804 1.024107 2
12.141300 102.593128 0.987954 2
10.776524 97.218886 5.799518 2
12.231910 94.666552 6.897286 3
15.404466 93.957709 5.638219 3
17.069667 91.610346 6.456671 3
22.156450 93.187917 2.393738 3
23.660987 90.693378 3.406506 3
20.153291 82.046038 11.862981 1
40.324826 42.046955 29.937780 9
45.154731 44.306705 25.456931 9
49.276704 45.492528 22.176846 9
52.664275 45.443255 20.231908 9
55.625280 44.647103 19.082669 9
58.326005 43.369162 18.436692 9
61.009812 42.076634 17.807628 9
63.694284 40.805100 17.159009 9
66.389743 39.578658 16.467077 9
69.061796 38.319322 15.809366 9
70.034833 32.924585 19.184814 9
73.423328 33.366263 16.848680 5
77.177566 34.919534 13.477739 5
80.651841 35.943809 10.656804 5
83.953500 36.674665 8.149728 5
87.103439 37.132352 5.929332 5
90.120472 37.335277 3.971002 5
93.113777 37.597346 1.980176 5
95.974877 37.557091 0.285855 5
98.817166 37.567627 -1.437688 5
101.594979 37.463747 -3.042423 5
104.316371 37.255528 -4.540510 5
106.997041 36.986896 -5.973398 5
109.483326 35.982781 -6.756406 5
111.858518 34.492943 -7.121921 5
114.099301 32.315696 -6.909075 5
116.378084 30.203479 -6.770242 5
118.785119 28.661948 -7.128169 5
121.376504 28.138596 -8.342354 6
123.979660 27.775587 -9.683714 6
126.566135 27.414107 -11.019397 6
129.118662 26.922551 -12.243198 6
131.660854 26.449541 -13.477538 6
134.191864 25.988014 -14.716745 6
136.692730 25.349260 -15.812162 6
139.197549 24.838664 -17.006425 6
141.683640 24.217245 -18.112125 6
144.162303 23.589302 -19.211910 6
146.630069 22.881745 -20.250630 6
149.004469 20.241186 -19.833619 6
1.224788 104.135229 10.488928 2
5.379461 104.180827 8.068294 2
9.341588 104.139906 5.821804 2
10.454708 101.315572 7.353159 2
7.927867 94.659421 13.923977 3
9.100749 91.686933 15.528388 3
13.110777 91.759786 13.154229 3
17.153003 91.973311 10.650439 3
21.106195 92.194694 8.189063 3
25.349276 92.869466 5.209573 3
26.634219 90.073452 6.598211 3
47.272623 40.791472 31.823701 9
51.500100 42.160013 28.271321 9
54.731180 41.732881 26.663576 9
57.631312 40.702614 25.704532 9
60.361179 39.348718 25.087625 9
63.108511 38.051497 24.414191 9
65.848819 36.759129 23.737914 9
68.608610 35.533441 22.996404 9
68.703083 27.758893 28.775866 9
70.291753 23.336643 31.133673 9
73.592355 23.243949 29.204885 5
80.294292 32.670218 18.075416 5
84.059914 34.543028 14.384639 5
87.504963 35.733096 11.396798 5
90.735583 36.476725 8.870483 5
93.857641 37.054072 6.531588 5
96.830558 37.298204 4.529849 5
99.771416 37.575646 2.519656 5
102.589879 37.547383 0.809809 5
105.383823 37.548346 -0.909944 5
108.040323 37.109014 -2.219473 5
110.520664 35.981045 -2.909511 5
112.845175 34.134503 -2.970274 5
115.137644 32.045937 -2.833834 5
117.453736 29.960150 -2.717272 5
119.959509 28.810442 -3.419445 6
122.628424 28.640691 -4.956544 6
125.274818 28.470223 -6.482214 6
127.887433 28.214275 -7.926254 6
130.465694 27.839729 -9.263611 6
133.032061 27.495152 -10.618941 6
135.576648 27.092070 -11.920154 6
138.094188 26.548092 -13.102605 6
140.608145 26.077294 -14.340343 6
143.105792 25.532253 -15.515644 6
145.594835 24.988316 -16.689414 6
148.072659 24.384886 -17.814912 6
148.713322 -21.838313 16.148048 6
1.953642 93.187037 23.301314 3
