ply
format ascii 1.0
element vertex 1368
property float x
property float y
property float z
property int scalar_Label
end_header
1.415619 -34.709527 -34.712586 9
-1.503639 -34.703779 -34.714343 9
-4.444790 -34.679702 -34.715224 9
-7.394814 -34.682434 -34.723070 9
-10.364309 -34.679013 -34.732191 9
-13.356642 -34.662103 -34.741341 9
-16.359063 -34.671593 -34.757452 9
-19.372283 -34.705126 -34.780137 9
-22.442619 -34.637497 -34.787764 9
-25.498034 -34.668346 -34.814896 9
-28.594486 -34.648757 -34.835809 9
-31.717556 -34.620602 -34.857781 9
-34.862190 -34.598735 -34.883411 9
-38.047409 -34.540029 -34.905294 9
-41.233753 -34.539468 -34.939852 9
-44.576496 -34.249125 -34.927188 9
-48.384911 -33.022370 -34.756208 9
-52.956515 -30.302251 -34.331656 9
-58.012063 -26.777262 -33.772590 9
-63.342830 -22.929543 -33.162282 9
-68.610898 -19.450431 -32.619552 8
-72.208169 -19.404343 -32.668939 8
-75.882934 -19.280437 -32.708206 8
-79.566198 -19.212591 -32.760327 8
-83.293498 -19.135636 -32.814213 8
-87.068562 -19.045881 -32.869309 8
-90.893223 -18.943287 -32.925687 8
-94.755948 -18.850299 -32.987239 8
-98.661780 -18.760355 -33.052923 8
-102.633389 -18.639246 -33.117026 8
-107.273447 -17.545116 -33.020569 8
-123.367917 1.038666 -29.979932 7
-128.298878 1.974012 -29.925033 7
-133.576754 3.303447 -29.808841 7
148.363764 -6.365662 -29.292120 6
145.180425 -6.722201 -29.237521 6
142.036654 -6.977754 -29.168034 6
138.909518 -7.232185 -29.101085 6
135.796819 -7.493858 -29.038109 6
132.701326 -7.744306 -28.975810 6
129.625715 -7.961147 -28.910175 6
126.555947 -8.225913 -28.855602 6
123.507056 -8.438868 -28.794374 6
120.479178 -8.582858 -28.723354 6
117.290581 -10.118608 -28.903030 5
113.777440 -14.859487 -29.658683 5
110.304790 -20.171818 -30.521690 5
107.226387 -22.427009 -30.841880 5
104.394345 -22.310740 -30.739660 5
101.546778 -22.430714 -30.681971 5
98.709547 -22.481607 -30.613996 5
95.872071 -22.612472 -30.562545 5
93.041695 -22.698324 -30.505087 5
90.212927 -22.845610 -30.460822 5
87.388148 -23.009878 -30.421728 5
84.568189 -23.134237 -30.377482 5
81.751406 -23.212446 -30.326909 5
78.936746 -23.417989 -30.301499 5
76.123804 -23.499034 -30.255490 5
73.313381 -23.660524 -30.226130 5
70.503234 -23.781832 -30.191455 5
67.694518 -23.927909 -30.163289 5
64.884526 -24.044002 -30.131628 5
62.238524 -26.765459 -30.578535 9
59.570658 -28.505931 -30.848666 9
56.934111 -30.260737 -31.123888 9
54.322551 -31.961662 -31.391657 9
51.740173 -33.669246 -31.663025 9
49.153569 -35.088167 -31.883701 9
46.528039 -36.007994 -32.014846 9
43.865852 -36.561303 -32.080625 9
41.153078 -36.730118 -32.077575 9
38.422982 -36.811856 -32.060342 9
35.674936 -36.821912 -32.031735 9
32.912911 -36.798919 -31.998856 9
30.148631 -36.815676 -31.975134 9
27.380251 -36.859163 -31.958181 9
24.591617 -36.848269 -31.933026 9
21.798547 -36.867834 -31.915340 9
18.996868 -36.897495 -31.901371 9
16.178078 -36.901889 -31.884591 9
13.344532 -36.896304 -31.867830 9
10.502270 -36.908111 -31.856162 9
7.648596 -36.927350 -31.847757 9
4.770400 -36.907644 -31.834041 9
1.894568 -36.949838 -31.833695 9
-1.009791 -36.944947 -31.826556 9
-3.926355 -36.953292 -31.823807 9
-6.862398 -36.952673 -31.821352 9
-9.829971 -36.909254 -31.812943 9
-12.797428 -36.922715 -31.817056 9
-15.791667 -36.912773 -31.818845 9
-18.798094 -36.924091 -31.826599 9
-21.831135 -36.917911 -31.833163 9
-24.882002 -36.920728 -31.843467 9
-27.961405 -36.906532 -31.852719 9
-31.052842 -36.919485 -31.869117 9
-34.181600 -36.898560 -31.881397 9
-37.369600 -36.797149 -31.880978 9
-40.525449 -36.831739 -31.907912 9
-43.783245 -36.696257 -31.905665 9
-47.340963 -35.977366 -31.798004 9
-51.572766 -33.931633 -31.447965 9
-56.389205 -30.843149 -30.908420 9
-61.371934 -27.630661 -30.349144 9
-67.524142 -22.341019 -29.410594 8
-71.080943 -22.329945 -29.447442 8
-74.671582 -22.321134 -29.487340 8
-78.314797 -22.282339 -29.524410 8
-82.019358 -22.202093 -29.556611 8
-85.733414 -22.175891 -29.601529 8
-89.507759 -22.115685 -29.643061 8
-93.297549 -22.100837 -29.695806 8
-97.161931 -22.034038 -29.742009 8
-101.063591 -21.980575 -29.793686 8
-115.578216 -5.385402 -26.831311 8
-116.871493 -9.821946 -27.711027 7
-120.361608 -10.853850 -27.972602 7
-124.680268 -10.701928 -28.022015 7
-129.063609 -10.540426 -28.073262 7
-133.485677 -10.409229 -28.133662 7
-137.998430 -10.237419 -28.190457 7
-142.569564 -10.073957 -28.252619 7
-147.208169 -9.909121 -28.318489 7
147.124252 -13.130278 -26.976119 6
144.049967 -13.253261 -26.891254 6
140.985957 -13.395687 -26.812311 6
137.923118 -13.604475 -26.748085 6
134.890560 -13.728230 -26.670141 6
131.864611 -13.885359 -26.600664 6
128.853614 -14.027147 -26.530465 6
125.854501 -14.166758 -26.461987 6
122.867217 -14.300023 -26.394410 6
119.896929 -14.382342 -26.319242 6
116.699504 -16.378251 -26.609535 5
113.211284 -21.345881 -27.468218 5
109.909908 -25.512298 -28.179006 5
106.911208 -27.377821 -28.454997 5
104.062644 -27.944086 -28.485580 5
101.265873 -28.015286 -28.423525 5
98.476393 -28.049936 -28.356262 5
95.687895 -28.135008 -28.300430 5
92.905178 -28.184519 -28.239535 5
90.125851 -28.222644 -28.178182 5
87.346785 -28.341305 -28.134051 5
84.572214 -28.383568 -28.076927 5
81.799104 -28.404071 -28.017289 5
79.026605 -28.469313 -27.967962 5
76.254722 -28.522270 -27.917931 5
73.483237 -28.589830 -27.872384 5
70.710522 -28.625943 -27.822393 5
67.938894 -28.716543 -27.784604 5
65.161963 -28.721258 -27.731774 5
62.410455 -29.174513 -27.767753 9
59.755475 -30.876220 -28.048442 9
57.119117 -32.446901 -28.305782 9
54.512661 -34.054698 -28.572453 9
51.937184 -35.703559 -28.849211 9
49.349480 -37.002203 -29.059644 9
46.732653 -37.901031 -29.193869 9
44.105681 -38.636782 -29.297985 9
41.392054 -38.709144 -29.273997 9
38.661457 -38.709373 -29.237413 9
35.932784 -38.770463 -29.214265 9
33.190870 -38.796859 -29.185838 9
30.434612 -38.791179 -29.152636 9
27.679944 -38.844059 -29.132441 9
24.900002 -38.816894 -29.098050 9
22.116443 -38.825510 -29.072203 9
19.333209 -38.885212 -29.057925 9
16.532854 -38.916979 -29.039690 9
13.702596 -38.874289 -29.008340 9
10.877398 -38.906174 -28.993203 9
8.031926 -38.910370 -28.974164 9
5.169085 -38.902827 -28.954365 9
2.304785 -38.942761 -28.945484 9
-0.590531 -38.927437 -28.927287 9
-3.492960 -38.942626 -28.916685 9
-6.419955 -38.932378 -28.902661 9
-9.357049 -38.945330 -28.894817 9
-12.303278 -38.984152 -28.893696 9
-15.287644 -38.965587 -28.882884 9
-18.288294 -38.957395 -28.875764 9
-21.299808 -38.975222 -28.875440 9
-24.329769 -38.999004 -28.877970 9
-27.389449 -39.001610 -28.878016 9
-30.478999 -38.986392 -28.876258 9
-33.605833 -38.938988 -28.869883 9
-36.719908 -38.980730 -28.882855 9
-39.883708 -38.964598 -28.886184 9
-43.074055 -38.948308 -28.891282 9
-46.553495 -38.367405 -28.786843 9
-50.519768 -36.850141 -28.499664 9
-55.168643 -34.066114 -27.964790 9
-60.031171 -31.049211 -27.386261 9
-66.202713 -25.678829 -26.346415 8
-69.732694 -25.665668 -26.364446 8
-73.320699 -25.609530 -26.376113 8
-76.929402 -25.583502 -26.395845 8
-80.549413 -25.604449 -26.426991 8
-84.256983 -25.538654 -26.443287 8
-87.980811 -25.515426 -26.470210 8
-91.747806 -25.489419 -26.498884 8
-95.548557 -25.478398 -26.532843 8
-99.399312 -25.457774 -26.567304 8
-103.344496 -25.361100 -26.589303 8
-108.598737 -23.339152 -26.236846 8
-117.090706 -16.627971 -24.970175 7
-121.269988 -16.588245 -25.012464 7
-125.541635 -16.493843 -25.046823 7
-129.864727 -16.408225 -25.085729 7
-134.211586 -16.371661 -25.137095 7
-138.655021 -16.285561 -25.181765 7
-143.145197 -16.221556 -25.233777 7
-147.704231 -16.152432 -25.287908 7
149.302160 -18.072125 -24.543105 6
146.264394 -18.155519 -24.458328 6
143.230574 -18.285586 -24.384735 6
140.223017 -18.356921 -24.301359 6
137.228816 -18.423630 -24.218900 6
134.245812 -18.493386 -24.138859 6
131.275192 -18.556443 -24.059262 6
128.314570 -18.622542 -23.982027 6
125.362486 -18.697983 -23.908396 6
122.420140 -18.772360 -23.836262 6
119.485857 -18.853705 -23.767215 6
116.341389 -20.701935 -24.055890 5
112.945624 -25.135067 -24.868821 5
109.731254 -28.724104 -25.515192 5
106.778384 -30.343358 -25.766460 5
109.724444 37.641827 -11.917950 5
101.187755 -30.812020 -25.714095 5
98.413893 -30.907683 -25.662105 5
95.646483 -30.975328 -25.605895 5
92.883423 -31.032053 -25.548909 5
90.123459 -31.090070 -25.493614 5
87.366077 -31.151215 -25.440371 5
84.611634 -31.165952 -25.379048 5
81.857677 -31.238046 -25.330823 5
79.105087 -31.293528 -25.280578 5
76.353594 -31.383925 -25.238850 5
73.601478 -31.414710 -25.186256 5
70.849583 -31.478075 -25.141683 5
68.095649 -31.511448 -25.092276 5
65.340405 -31.554527 -25.046178 5
62.555866 -31.167236 -24.912742 9
59.901207 -32.712784 -25.178917 9
57.271691 -34.242010 -25.443565 9
54.315802 -31.973129 -24.925636 9
52.095360 -37.358229 -25.990197 9
49.530015 -38.777962 -26.237548 9
46.933925 -39.764696 -26.396951 9
43.834842 -36.853659 -25.750324 9
41.601544 -40.478137 -26.459082 9
38.899415 -40.600359 -26.443464 9
36.175280 -40.621003 -26.407991 9
33.435466 -40.597554 -26.364561 9
30.698621 -40.642334 -26.336508 9
27.945344 -40.646813 -26.301279 9
25.179847 -40.640499 -26.265000 9
22.413136 -40.679184 -26.239291 9
19.631872 -40.699535 -26.210967 9
16.837507 -40.712644 -26.182337 9
14.029944 -40.721416 -26.154006 9
11.198556 -40.686986 -26.117862 9
8.368426 -40.711383 -26.095205 9
5.508340 -40.676862 -26.061452 9
2.666768 -40.761533 -26.053827 9
-0.221710 -40.734324 -26.024038 9
-3.119726 -40.730526 -26.000369 9
-6.032687 -40.732877 -25.979220 9
-8.952680 -40.766907 -25.965944 9
-11.903750 -40.760860 -25.945526 9
-14.878569 -40.741387 -25.923550 9
-17.849688 -40.787593 -25.916601 9
-20.876447 -40.736488 -25.890533 9
-23.886241 -40.787563 -25.887171 9
-26.947254 -40.761620 -25.868956 9
-29.997607 -40.819195 -25.869568 9
-33.093822 -40.820227 -25.859642 9
-36.214279 -40.821508 -25.851103 9
-39.362099 -40.817899 -25.842887 9
-42.537335 -40.811620 -25.835476 9
-45.931022 -40.393711 -25.743038 9
-49.794570 -39.069440 -25.461720 9
-54.263220 -36.631072 -24.947916 9
-58.943232 -33.948744 -24.384334 9
-65.735211 -27.338127 -22.997582 8
-68.767934 -28.257526 -23.193173 8
-72.290746 -28.287471 -23.203608 8
-75.855674 -28.304528 -23.212929 8
-79.468958 -28.300605 -23.219465 8
-83.122505 -28.293311 -23.226938 8
-86.801235 -28.310656 -23.241254 8
-90.535423 -28.302952 -23.252016 8
-94.295032 -28.322849 -23.270301 8
-98.109066 -28.324715 -23.286570 8
-101.972466 -28.319838 -23.303226 8
-106.387440 -27.545644 -23.160538 8
-117.752911 -16.504092 -20.869495 7
-120.853426 -18.069575 -21.221504 7
-125.056033 -18.070126 -21.247785 7
-129.295290 -18.096633 -21.281564 7
-133.621040 -18.081623 -21.308773 7
-138.018453 -18.050175 -21.334714 7
-142.437829 -18.071557 -21.373911 7
-147.056019 -17.916608 -21.378570 7
148.970093 -20.645842 -21.603458 6
145.944620 -20.750712 -21.532027 6
142.960154 -20.731881 -21.436117 6
139.968130 -20.804689 -21.360988 6
136.993319 -20.853244 -21.282230 6
134.022053 -20.944273 -21.213905 6
131.074351 -20.967059 -21.132582 6
128.129814 -21.029477 -21.061053 6
125.199515 -21.063825 -20.984953 6
122.268142 -21.166317 -20.924693 6
119.358179 -21.180636 -20.847033 6
116.069660 -24.295942 -21.431657 5
112.755349 -28.234300 -22.194887 5
109.595157 -31.502086 -22.818149 5
106.683125 -32.886547 -23.041387 5
103.886984 -33.280777 -23.054402 5
101.131788 -33.286288 -22.985408 5
98.373365 -33.397765 -22.940306 5
95.625937 -33.404773 -22.873928 5
92.879481 -33.449327 -22.816741 5
90.135449 -33.507565 -22.763620 5
87.395455 -33.512441 -22.700100 5
84.655349 -33.595780 -22.654591 5
81.917733 -33.624451 -22.598363 5
79.180752 -33.664188 -22.545587 5
76.444118 -33.706613 -22.494446 5
73.706282 -33.703845 -22.434550 5
70.969640 -33.782333 -22.393297 5
68.229545 -33.790917 -22.337899 5
65.489322 -33.840432 -22.292396 5
62.689911 -32.982631 -22.050493 9
60.038091 -34.429380 -22.311085 9
57.416266 -35.940914 -22.587325 9
54.819511 -37.448103 -22.864146 9
52.246146 -38.940049 -23.139143 9
49.672966 -40.218508 -23.368968 9
47.081661 -41.189601 -23.532954 9
44.440562 -41.687201 -23.594563 9
41.771502 -41.967388 -23.609627 9
39.070592 -42.050776 -23.582544 9
36.348419 -42.042097 -23.536187 9
33.622318 -42.060841 -23.496737 9
30.884651 -42.063672 -23.454683 9
28.149273 -42.127649 -23.426955 9
25.385882 -42.097278 -23.379370 9
22.625943 -42.136040 -23.347873 9
19.851807 -42.158141 -23.313592 9
17.054710 -42.130822 -23.269297 9
14.258829 -42.161598 -23.238681 9
11.444475 -42.168504 -23.203676 9
8.617341 -42.178086 -23.170134 9
5.775203 -42.184219 -23.136704 9
2.916837 -42.185208 -23.103008 9
0.059855 -42.242989 -23.082748 9
-2.836550 -42.221314 -23.045789 9
-5.732374 -42.255756 -23.022126 9
-8.661356 -42.240536 -22.988345 9
-11.595597 -42.264357 -22.964093 9
-14.547679 -42.289818 -22.941093 9
-17.535317 -42.269907 -22.908916 9
-20.539043 -42.262745 -22.880454 9
-23.547619 -42.298409 -22.862395 9
-26.594948 -42.289654 -22.835374 9
-29.657105 -42.300842 -22.813687 9
-32.747758 -42.299687 -22.790168 9
-35.864046 -42.295775 -22.766951 9
-38.985559 -42.337437 -22.754798 9
-42.122422 -42.400793 -22.748411 9
-45.506116 -41.989212 -22.637224 9
-49.233855 -40.936770 -22.384192 9
-53.590619 -38.711220 -21.870624 9
-58.182454 -36.185285 -21.290811 9
-62.985444 -33.430477 -20.660675 9
-67.949353 -30.562082 -20.005925 8
-71.484268 -30.540671 -19.986838 8
-75.031303 -30.563103 -19.978586 8
-78.633361 -30.552567 -19.964053 8
-82.262546 -30.561718 -19.954998 8
-85.931321 -30.570336 -19.946926 8
-89.616727 -30.618678 -19.948840 8
-93.376796 -30.612349 -19.939687 8
-97.179652 -30.607628 -19.932047 8
-101.009544 -30.631149 -19.931885 8
-105.139170 -30.269090 -19.846817 8
-113.259301 -24.056704 -18.456529 8
-119.225680 -21.311882 -17.841759 7
-123.384451 -21.334678 -17.846324 7
-127.641919 -21.295519 -17.838381 7
-131.931952 -21.291319 -17.839599 7
-136.296565 -21.266231 -17.837536 7
-140.697397 -21.274652 -17.844368 7
-145.172908 -21.267736 -17.849219 7
148.779027 -22.609214 -18.572477 6
145.776354 -22.661615 -18.498256 6
142.784716 -22.724618 -18.427573 6
139.815708 -22.740445 -18.347546 6
136.852431 -22.784953 -18.275027 6
133.890821 -22.881530 -18.215240 6
130.951584 -22.917699 -18.143066 6
128.505842 -20.026682 -17.416888 6
125.117408 -22.893505 -17.980255 6
122.204592 -22.935059 -17.912389 6
119.305692 -22.935464 -17.836290 6
115.903992 -27.013563 -18.678021 5
112.640907 -30.650174 -19.423417 5
110.035802 -28.769197 -18.928142 5
106.631224 -34.953592 -20.252441 5
103.846440 -35.359630 -20.275604 5
101.104548 -35.356937 -20.207400 5
98.361928 -35.418905 -20.154666 5
95.623671 -35.479217 -20.102407 5
92.890561 -35.508509 -20.043948 5
90.160145 -35.535562 -19.985789 5
87.431343 -35.580206 -19.932422 5
84.704513 -35.621232 -19.879022 5
81.979155 -35.641332 -19.821633 5
79.254384 -35.703372 -19.774558 5
76.529804 -35.723536 -19.718690 5
73.805228 -35.768001 -19.669106 5
71.080532 -35.826444 -19.623448 5
68.350354 -35.776662 -19.553756 5
65.620197 -35.792304 -19.499719 5
62.801221 -34.439452 -19.132678 9
60.151446 -35.824292 -19.393868 9
57.532972 -37.303552 -19.677965 9
54.931416 -38.696596 -19.943493 9
51.996224 -36.619134 -19.411906 9
49.800091 -41.517607 -20.486148 9
47.212272 -42.473660 -20.654519 9
44.584911 -43.035861 -20.733041 9
41.916987 -43.283370 -20.739750 9
39.210710 -43.296032 -20.692901 9
36.501817 -43.340011 -20.653884 9
33.780593 -43.356749 -20.609162 9
31.044951 -43.342327 -20.557807 9
28.305372 -43.358674 -20.514144 9
25.568876 -43.438348 -20.485735 9
22.809669 -43.454305 -20.443126 9
20.031903 -43.436358 -20.393202 9
17.249440 -43.450528 -20.351284 9
14.457341 -43.474988 -20.312306 9
11.646417 -43.474862 -20.268153 9
8.831282 -43.510257 -20.232807 9
5.990117 -43.500485 -20.187477 9
3.139369 -43.509991 -20.147165 9
0.272714 -43.517643 -20.106947 9
-2.612866 -43.515985 -20.065077 9
-5.509092 -43.533967 -20.028311 9
-8.418751 -43.563286 -19.994715 9
-11.352598 -43.573385 -19.957142 9
-14.299730 -43.599022 -19.923718 9
-17.265208 -43.626854 -19.891322 9
-20.271390 -43.598989 -19.846382 9
-23.294997 -43.582591 -19.804626 9
-26.307837 -43.649655 -19.782952 9
-29.346862 -43.704731 -19.758981 9
-32.426858 -43.715527 -19.725120 9
-35.508192 -43.779350 -19.704225 9
-38.640899 -43.781104 -19.669244 9
-41.844238 -43.685215 -19.611780 9
-45.158075 -43.415737 -19.513914 9
-51.094615 -37.743088 -18.143523 9
-53.083760 -40.446990 -18.746722 9
-57.673449 -37.913878 -18.115991 9
-62.319707 -35.453173 -17.502238 9
-67.504264 -32.151270 -16.689819 8
-70.943373 -32.294758 -16.690937 8
-74.499607 -32.284794 -16.656350 8
-78.072994 -32.310424 -16.630704 8
-81.693820 -32.319132 -16.601589 8
-85.351658 -32.331810 -16.573949 8
-89.036779 -32.366464 -16.552049 8
-92.789249 -32.359147 -16.520754 8
-96.570768 -32.375350 -16.495574 8
-100.405294 -32.378789 -16.467918 8
-104.379372 -32.241456 -16.407429 8
-110.436929 -29.090817 -15.632520 8
-118.095551 -23.817197 -14.353660 7
-122.288872 -23.765307 -14.314304 7
-126.486779 -23.785891 -14.292746 7
-130.749681 -23.794667 -14.268986 7
-135.084037 -23.786314 -14.241763 7
-139.461555 -23.801629 -14.220782 7
-143.934262 -23.775056 -14.190462 7
-148.423641 -23.810778 -14.175595 7
192.587454 140.740875 22.947112 0
148.655976 -24.276789 -15.501274 6
145.668092 -24.299214 -15.428185 6
142.688758 -24.340946 -15.360432 6
139.719952 -24.392279 -15.295734 6
136.781690 -24.349699 -15.209773 6
133.839644 -24.378835 -15.141393 6
130.911061 -24.390812 -15.069716 6
127.995830 -24.379613 -14.993295 6
125.081338 -24.417959 -14.929246 6
122.175075 -24.460832 -14.866961 6
119.281868 -24.469454 -14.797262 6
116.318721 -25.091817 -14.873425 5
112.577552 -32.607176 -16.583112 5
109.970173 -30.865436 -16.102291 5
106.609863 -36.686521 -17.416111 5
103.834210 -37.092267 -17.446758 5
101.101320 -37.093863 -17.382035 5
98.369956 -37.126882 -17.325325 5
95.640936 -37.184336 -17.274973 5
92.918981 -37.168363 -17.207643 5
90.196621 -37.211503 -17.154912 5
87.476908 -37.245109 -17.100405 5
84.759133 -37.264450 -17.042973 5
82.042254 -37.288351 -16.987100 5
79.325764 -37.276371 -16.923087 5
76.609784 -37.354558 -16.881133 5
73.892148 -37.336188 -16.816458 5
71.175617 -37.406138 -16.773412 5
68.456153 -37.421297 -16.717623 5
65.735249 -37.450065 -16.665510 5
62.897359 -35.656723 -16.174775 9
60.257731 -37.122919 -16.469693 9
57.633935 -38.476247 -16.738354 9
55.035146 -39.856786 -17.014509 9
52.468511 -41.330473 -17.314104 9
49.905796 -42.625947 -17.571515 9
47.312664 -43.510619 -17.730286 9
44.690545 -44.091768 -17.816155 9
42.029094 -44.364401 -17.827714 9
39.323296 -44.360004 -17.772410 9
36.615285 -44.391579 -17.726126 9
33.894295 -44.393772 -17.672980 9
31.178564 -44.473802 -17.639046 9
28.437522 -44.464407 -17.583614 9
25.682105 -44.435371 -17.523636 9
22.934654 -44.496412 -17.485864 9
20.170331 -44.527095 -17.440933 9
17.390152 -44.538227 -17.391457 9
14.601129 -44.563245 -17.345596 9
11.793215 -44.563555 -17.293902 9
8.976045 -44.580502 -17.246481 9
6.140607 -44.581924 -17.195449 9
3.303407 -44.629074 -17.155819 9
0.430506 -44.605537 -17.099023 9
-2.431771 -44.670540 -17.064142 9
-5.330320 -44.670760 -17.013510 9
-8.237939 -44.696783 -16.969378 9
-11.176352 -44.684683 -16.916008 9
-14.113292 -44.731419 -16.877269 9
-17.090966 -44.717762 -16.823776 9
-20.088200 -44.707483 -16.771229 9
-23.078848 -44.769887 -16.736744 9
-26.111774 -44.778002 -16.688962 9
-29.172857 -44.772791 -16.637979 9
-32.245291 -44.797226 -16.594420 9
-35.346705 -44.810140 -16.548092 9
-38.461274 -44.850007 -16.508522 9
-41.613631 -44.862698 -16.462283 9
-44.938478 -44.564533 -16.338900 9
-48.549728 -43.743635 -16.085533 9
-55.273065 -36.701902 -14.284655 9
-57.337475 -39.294653 -14.879268 9
-61.920380 -36.954099 -14.246028 9
-67.110916 -33.638584 -13.368905 8
-72.141474 -30.835861 -12.618479 8
-75.718288 -30.846816 -12.569420 8
-79.322015 -30.876006 -12.524901 8
-81.380452 -33.631686 -13.162012 8
-85.036389 -33.642907 -13.113453 8
-88.725326 -33.666930 -13.068055 8
-92.454341 -33.693748 -13.023308 8
-96.242260 -33.695745 -12.972276 8
-100.046633 -33.742279 -12.932340 8
-103.888000 -33.801834 -12.895599 8
-109.262740 -31.662686 -12.306231 8
-117.891418 -24.971717 -10.571200 7
-121.633896 -25.561707 -10.666008 7
-125.828451 -25.576262 -10.615962 7
-130.050567 -25.630463 -10.575758 7
-134.357548 -25.648085 -10.526179 7
-138.702692 -25.695021 -10.483824 7
-143.138938 -25.704394 -10.431801 7
-147.626591 -25.731038 -10.383938 7
217.413091 142.049729 28.146570 0
210.877805 136.300636 26.858113 0
205.933104 135.690418 26.823664 0
201.466812 136.713389 27.188233 0
196.722903 136.660062 27.288519 0
192.005587 136.619445 27.391112 0
148.633245 -25.516909 -12.346203 6
145.646681 -25.549383 -12.283269 6
142.675409 -25.571298 -12.218204 6
139.720484 -25.572990 -12.148601 6
136.771829 -25.599267 -12.085487 6
133.837181 -25.609570 -12.018847 6
130.913452 -25.615219 -11.951452 6
127.998272 -25.626060 -11.885723 6
125.088531 -25.659254 -11.825897 6
122.187078 -25.696066 -11.767333 6
119.298110 -25.702309 -11.701535 6
116.267895 -26.884046 -11.928076 5
112.559360 -34.163394 -13.671667 5
109.468924 -37.050555 -14.325777 5
106.601679 -38.271575 -14.566431 5
103.841195 -38.590499 -14.582969 5
101.114747 -38.599990 -14.522671 5
98.389441 -38.649081 -14.472501 5
95.676024 -38.558846 -14.387737 5
92.956499 -38.616860 -14.340240 5
90.242199 -38.619503 -14.279096 5
87.529171 -38.634720 -14.221290 5
84.817245 -38.665009 -14.167446 5
82.106465 -38.695987 -14.113950 5
79.396340 -38.724864 -14.060090 5
76.686101 -38.735839 -14.001878 5
73.975127 -38.746797 -13.943793 5
71.262432 -38.743123 -13.882142 5
68.551348 -38.824255 -13.841989 5
65.836879 -38.857412 -13.789852 5
62.976052 -36.597369 -13.158288 9
60.332017 -37.982582 -13.447813 9
57.713799 -39.394160 -13.744686 9
55.120060 -40.813991 -14.044323 9
52.554843 -42.283302 -14.357173 9
49.987803 -43.523736 -14.612605 9
47.403347 -44.468040 -14.793371 9
44.781544 -45.036938 -14.879110 9
42.122885 -45.316596 -14.891489 9
39.423099 -45.339686 -14.838627 9
36.716278 -45.365897 -14.786545 9
33.994228 -45.350564 -14.723836 9
31.266179 -45.353794 -14.665813 9
28.528977 -45.359238 -14.608296 9
25.784156 -45.376811 -14.553814 9
23.029139 -45.395395 -14.499515 9
20.267399 -45.432829 -14.449961 9
17.494741 -45.471270 -14.400576 9
14.698795 -45.462707 -14.339026 9
11.900401 -45.496490 -14.288222 9
9.082473 -45.505937 -14.231034 9
6.248925 -45.510169 -14.172355 9
3.409539 -45.545877 -14.121621 9
0.539216 -45.527964 -14.056901 9
-2.341218 -45.531322 -13.997471 9
-5.239004 -45.533353 -13.937497 9
-8.134824 -45.594475 -13.892582 9
-11.061812 -45.614416 -13.836810 9
-14.016366 -45.609222 -13.774297 9
-16.978741 -45.637291 -13.720145 9
-19.964962 -45.655068 -13.663065 9
-22.978007 -45.657757 -13.601791 9
-26.001790 -45.688930 -13.547620 9
-29.058998 -45.692919 -13.486079 9
-32.135977 -45.706256 -13.426644 9
-35.239630 -45.714246 -13.365475 9
-38.354270 -45.754481 -13.312360 9
-41.525806 -45.726055 -13.240961 9
-44.798495 -45.541883 -13.128456 9
-48.474307 -44.588495 -12.814258 9
-52.607870 -42.814287 -12.284275 9
-57.134521 -40.409554 -11.587741 9
-61.819141 -37.876400 -10.855857 9
-66.919574 -34.741947 -9.964344 8
-70.412509 -34.774397 -9.902980 8
-73.968741 -34.756475 -9.827834 8
-77.547795 -34.764840 -9.759033 8
-81.153233 -34.793791 -9.695072 8
-84.825435 -34.776344 -9.618271 8
-88.537310 -34.762240 -9.541707 8
-92.283889 -34.761505 -9.468007 8
-96.059422 -34.784593 -9.399924 8
-99.907569 -34.765113 -9.319865 8
-103.732727 -34.852066 -9.267276 8
-108.901925 -33.025236 -8.705976 8
-117.757522 -26.023473 -6.767794 7
-121.358527 -26.816019 -6.898112 7
-125.541154 -26.847421 -6.825317 7
-129.802996 -26.847905 -6.743382 7
-134.080303 -26.906745 -6.676071 7
-138.451616 -26.920758 -6.595833 7
-142.896797 -26.921034 -6.510907 7
-147.362715 -26.977700 -6.440019 7
230.610159 135.722500 31.789622 0
226.020164 136.651936 32.129655 0
221.157029 136.683346 32.239600 0
216.294902 136.628222 32.327033 0
211.477549 136.630525 32.428880 0
206.668224 136.570340 32.514384 0
201.905692 136.587297 32.619439 0
197.144554 136.520687 32.702744 0
192.427287 136.534013 32.806392 0
148.708684 -26.343889 -9.094771 6
145.721817 -26.374704 -9.039145 6
142.748868 -26.401429 -8.982581 6
139.796035 -26.390698 -8.916436 6
136.848767 -26.407000 -8.857362 6
133.916241 -26.402695 -8.793025 6
130.980305 -26.473053 -8.748094 6
128.072421 -26.440241 -8.676474 6
125.162550 -26.471571 -8.621525 6
122.263148 -26.491711 -8.563701 6
119.370187 -26.523413 -8.508901 6
115.789854 -32.034561 -9.880436 5
112.579735 -35.381576 -10.690578 5
109.981873 -33.676994 -10.184988 5
106.637492 -39.392735 -11.615069 5
103.885362 -39.651391 -11.622303 5
101.161430 -39.663420 -11.565120 5
98.440636 -39.685891 -11.510606 5
95.721990 -39.732774 -11.462413 5
93.008397 -39.746628 -11.405492 5
90.297504 -39.750843 -11.345946 5
87.587184 -39.795066 -11.296791 5
84.879869 -39.776308 -11.230981 5
82.172464 -39.797041 -11.175412 5
79.465580 -39.835855 -11.124463 5
76.758214 -39.812173 -11.056909 5
74.050348 -39.828761 -10.999791 5
71.342458 -39.878780 -10.951319 5
68.630814 -39.863500 -10.885431 5
65.753469 -36.760208 -10.003082 5
63.049757 -37.458902 -10.124937 9
60.404702 -38.820329 -10.422363 9
57.782097 -40.172353 -10.717682 9
55.185793 -41.564404 -11.023989 9
52.613838 -42.970089 -11.334297 9
50.056922 -44.307166 -11.626754 9
47.461749 -45.162619 -11.791463 9
44.859620 -45.884632 -11.920757 9
42.181160 -46.020375 -11.893887 9
39.488817 -46.096604 -11.850888 9
36.775458 -46.084031 -11.783888 9
34.055905 -46.086683 -11.720600 9
31.328667 -46.096904 -11.658974 9
28.591770 -46.106178 -11.596722 9
25.840655 -46.095129 -11.528640 9
23.095865 -46.164843 -11.481801 9
20.317536 -46.129941 -11.406501 9
17.549937 -46.194380 -11.357434 9
14.754238 -46.190367 -11.289544 9
11.948332 -46.198274 -11.224394 9
9.136580 -46.235289 -11.166608 9
6.298945 -46.228330 -11.096486 9
3.450974 -46.238275 -11.030409 9
0.587850 -46.249421 -10.964130 9
-2.282608 -46.288941 -10.904981 9
-5.187178 -46.272802 -10.830220 9
-8.096225 -46.297676 -10.765979 9
-11.017453 -46.339271 -10.705682 9
-13.975473 -46.328669 -10.630616 9
-16.944471 -46.343206 -10.561732 9
-19.933935 -46.357491 -10.492126 9
-22.938901 -46.386319 -10.425806 9
-25.980023 -46.378794 -10.348887 9
-29.038800 -46.384890 -10.274956 9
-32.093585 -46.456631 -10.218211 9
-35.200560 -46.461497 -10.142449 9
-38.338968 -46.453192 -10.062289 9
-41.528622 -46.391513 -9.966676 9
-44.783633 -46.252547 -9.848979 9
-48.445968 -45.335717 -9.516683 9
-52.586295 -43.557976 -8.946212 9
-57.142778 -41.106683 -8.188303 9
-61.803729 -38.633229 -7.421785 9
-66.928644 -35.467592 -6.461723 8
-70.430195 -35.491744 -6.379668 8
-73.976679 -35.499313 -6.291953 8
-77.554273 -35.517788 -6.206139 8
-81.157897 -35.557308 -6.125014 8
-84.877508 -35.468039 -6.006977 8
-88.561294 -35.509279 -5.923914 8
-92.321702 -35.494696 -5.824077 8
-96.088934 -35.539556 -5.739478 8
-99.917195 -35.559225 -5.646532 8
-103.747001 -35.646937 -5.571209 8
-109.087912 -33.581295 -4.892289 8
-117.851072 -26.747245 -2.875012 7
-121.527766 -27.441675 -2.962132 7
-125.760535 -27.416938 -2.846208 7
-130.033126 -27.417490 -2.735689 7
-134.354700 -27.432333 -2.627452 7
-138.730982 -27.455875 -2.519881 7
-143.191067 -27.453295 -2.403091 7
-147.696894 -27.476444 -2.291652 7
240.953443 135.344801 37.093103 0
236.357186 136.407610 37.462949 0
231.482665 136.620565 37.605426 0
226.543726 136.556800 37.673939 0
221.646106 136.526721 37.751743 0
216.786247 136.526100 37.837733 0
211.952227 136.521471 37.922936 0
207.143058 136.512836 38.007363 0
202.345261 136.454232 38.078642 0
197.582044 136.432414 38.160149 0
192.864353 136.499869 38.266083 0
148.805920 -27.080455 -5.818286 6
145.828699 -27.062245 -5.757156 6
142.867277 -27.027064 -5.691183 6
139.894496 -27.099174 -5.653977 6
136.954755 -27.069018 -5.588838 6
134.012674 -27.104148 -5.541108 6
131.090134 -27.089798 -5.479688 6
128.175228 -27.084207 -5.420348 6
125.264205 -27.109133 -5.368994 6
122.367562 -27.095904 -5.306966 6
119.469396 -27.147493 -5.262246 6
116.316224 -29.263496 -5.779272 5
112.647725 -36.189998 -7.607541 5
109.556814 -39.089715 -8.340359 5
106.699685 -40.239068 -8.596400 5
103.944770 -40.534449 -8.619354 5
101.219881 -40.571068 -8.571347 5
98.504183 -40.535572 -8.503258 5
95.787140 -40.565488 -8.452677 5
93.076174 -40.534160 -8.384936 5
90.363662 -40.583696 -8.338950 5
87.654970 -40.587083 -8.279908 5
84.947542 -40.583222 -8.218451 5
82.240164 -40.640040 -8.173233 5
79.533839 -40.644439 -8.113175 5
76.827655 -40.687825 -8.063392 5
74.120187 -40.678178 -7.998546 5
71.411579 -40.683926 -7.937459 5
68.701907 -40.707941 -7.880921 5
65.988204 -40.693106 -7.813156 5
63.104855 -38.023681 -7.010955 9
60.454821 -39.347728 -7.311967 9
57.835531 -40.770899 -7.640517 9
55.239679 -42.187155 -7.967280 9
52.662844 -43.559858 -8.282079 9
50.091561 -44.785361 -8.556098 9
47.508905 -45.765973 -8.762070 9
44.889527 -46.370613 -8.863339 9
42.229303 -46.653671 -8.874756 9
39.534852 -46.725422 -8.826795 9
36.833970 -46.798264 -8.778528 9
34.106169 -46.757385 -8.697883 9
31.378369 -46.770795 -8.631710 9
28.634643 -46.750939 -8.555541 9
25.883814 -46.748630 -8.483563 9
23.127324 -46.770700 -8.417685 9
20.362086 -46.802670 -8.353848 9
17.578124 -46.803514 -8.280521 9
14.764135 -46.733867 -8.186593 9
11.974924 -46.817588 -8.134978 9
9.152069 -46.820941 -8.059947 9
6.323915 -46.857023 -7.993302 9
3.464147 -46.833578 -7.909009 9
0.598221 -46.843905 -7.833357 9
-2.286571 -46.845824 -7.754423 9
-5.192987 -46.833749 -7.670595 9
-8.102135 -46.867845 -7.598891 9
-11.039571 -46.871529 -7.517597 9
-14.012496 -46.829446 -7.422298 9
-16.985015 -46.845695 -7.342531 9
-19.964573 -46.897400 -7.271813 9
-22.979769 -46.910029 -7.188904 9
-26.026805 -46.898378 -7.097962 9
-29.087424 -46.910728 -7.012728 9
-32.182140 -46.898743 -6.919369 9
-35.292373 -46.908985 -6.831166 9
-38.425607 -46.924980 -6.743385 9
-41.604323 -46.899357 -6.642399 9
-44.873106 -46.742790 -6.502451 9
-48.518455 -45.875178 -6.156388 9
-52.732342 -43.964522 -5.507704 9
-57.317184 -41.478110 -4.690025 9
-61.968296 -39.045409 -3.884517 9
-67.093409 -35.902509 -2.870127 8
-70.602813 -35.926651 -2.769299 8
-74.162817 -35.924547 -2.659238 8
-77.757740 -35.927536 -2.548969 8
-81.383616 -35.944244 -2.440961 8
-85.043479 -35.970907 -2.334084 8
-88.744492 -35.997400 -2.225346 8
-92.511131 -35.986885 -2.103928 8
-96.317652 -35.984267 -1.982868 8
-100.155507 -36.004450 -1.866488 8
-104.114457 -35.913952 -1.715577 8
-109.849142 -33.296575 -0.819573 8
-117.827686 -27.640532 0.975825 7
-122.045041 -27.580367 1.128450 7
-126.246963 -27.621442 1.253621 7
-130.595693 -27.541405 1.417060 7
-134.915675 -27.582273 1.547290 7
-139.337714 -27.570146 1.695844 7
-143.815203 -27.570103 1.843530 7
-148.368530 -27.558909 1.997343 7
241.943693 136.408648 43.032767 0
236.937722 136.377349 43.091013 0
231.982189 136.398625 43.164891 0
227.067645 136.452664 43.248861 0
222.170673 136.472630 43.324155 0
217.283091 136.431907 43.383275 0
212.425841 136.398767 43.445413 0
207.612069 136.424355 43.524982 0
202.816588 136.427457 43.599132 0
198.045070 136.431050 43.674337 0
193.303437 136.462910 43.758440 0
148.987875 -27.467413 -2.439398 6
145.998486 -27.479068 -2.393843 6
143.026866 -27.468089 -2.341294 6
140.071139 -27.437026 -2.282455 6
137.115246 -27.460032 -2.238293 6
134.176331 -27.452239 -2.184801 6
131.250685 -27.425642 -2.125353 6
128.323830 -27.459028 -2.082271 6
125.416521 -27.429466 -2.020704 6
122.508913 -27.453725 -1.973761 6
119.612020 -27.459876 -1.921029 6
115.952915 -33.473370 -3.575443 5
112.747770 -36.727044 -4.446429 5
109.650250 -39.647377 -5.223148 5
106.781501 -40.884509 -5.520866 5
104.020560 -41.230087 -5.564253 5
101.295701 -41.254030 -5.515354 5
98.575096 -41.276006 -5.465226 5
95.860521 -41.255144 -5.402181 5
93.144526 -41.310264 -5.360155 5
90.434075 -41.303049 -5.299609 5
87.725028 -41.297389 -5.238789 5
85.017802 -41.243071 -5.163295 5
82.309261 -41.295999 -5.117797 5
79.601741 -41.306221 -5.059315 5
76.893760 -41.298147 -4.994821 5
74.184750 -41.293495 -4.930534 5
71.475316 -41.323293 -4.875373 5
68.764144 -41.344298 -4.816895 5
66.050494 -41.357129 -4.755261 5
63.148714 -38.408314 -3.838516 9
60.500144 -39.808739 -4.175097 9
57.873460 -41.181916 -4.503645 9
55.274661 -42.606269 -4.846818 9
52.695278 -43.988784 -5.177731 9
50.129658 -45.294590 -5.486246 9
47.540367 -46.242271 -5.690693 9
44.913099 -46.809745 -5.784374 9
42.245867 -47.067386 -5.787419 9
39.550293 -47.155755 -5.740434 9
36.833074 -47.150595 -5.665312 9
34.107577 -47.148243 -5.590025 9
31.378116 -47.174586 -5.522106 9
28.634281 -47.174547 -5.445481 9
25.880877 -47.178284 -5.368922 9
23.118665 -47.191446 -5.294062 9
20.338734 -47.175931 -5.209733 9
17.562819 -47.229838 -5.144641 9
14.755546 -47.203749 -5.054984 9
11.939232 -47.196375 -4.969660 9
9.111526 -47.199083 -4.886124 9
6.267509 -47.195394 -4.799510 9
3.414512 -47.213511 -4.718098 9
0.547282 -47.235827 -4.636689 9
-2.354082 -47.200283 -4.536927 9
-5.253708 -47.225951 -4.453940 9
-8.178574 -47.228124 -4.362683 9
-11.138832 -47.181739 -4.255670 9
-14.101151 -47.186953 -4.162545 9
-17.090694 -47.172656 -4.062201 9
-20.072926 -47.233753 -3.982819 9
-23.099725 -47.232779 -3.883501 9
-26.154693 -47.217836 -3.778490 9
-29.230760 -47.209207 -3.673789 9
-32.320894 -47.224912 -3.574758 9
-35.451712 -47.204086 -3.463162 9
-38.596145 -47.211915 -3.358462 9
-41.739024 -47.281088 -3.270467 9
-45.089893 -46.965900 -3.065196 9
-48.828361 -45.927160 -2.639982 9
-53.071188 -43.986151 -1.939948 9
-57.711164 -41.421839 -1.048079 9
-62.396192 -38.956379 -0.181843 9
-67.474623 -35.935733 0.856826 8
-70.998792 -35.956754 0.977746 8
-74.562640 -35.971733 1.102680 8
-78.163077 -35.988638 1.229273 8
-81.823488 -35.969722 1.369085 8
-85.514063 -35.969227 1.505676 8
-89.270844 -35.929521 1.656705 8
-93.046289 -35.931180 1.797623 8
-96.880015 -35.912130 1.947483 8
-100.770175 -35.878860 2.104397 8
-104.725218 -35.822051 2.271334 8
-112.315314 -30.527807 4.056512 8
-118.740110 -27.195478 5.244339 7
-123.071336 -27.011178 5.464528 7
-127.337502 -27.001858 5.633842 7
-131.682448 -26.966200 5.814628 7
-136.077442 -26.946375 5.993906 7
-140.509922 -26.960431 6.166122 7
-145.044332 -26.927630 6.356561 7
242.573893 136.458336 48.739910 0
237.548389 136.421957 48.777967 0
232.558310 136.392624 48.819610 0
228.520282 139.164486 49.685071 0
222.718476 136.480801 48.950554 0
217.830384 136.491592 49.008530 0
212.961498 136.475347 49.060073 0
208.138779 136.527553 49.133249 0
203.329680 136.541672 49.196740 0
198.551303 136.582049 49.269472 0
193.783031 136.574751 49.329683 0
149.263377 -27.472858 1.065110 6
146.271667 -27.454192 1.112081 6
143.279279 -27.493870 1.142813 6
140.316300 -27.454968 1.197679 6
137.355243 -27.459125 1.240810 6
134.410883 -27.432494 1.294002 6
131.467174 -27.455565 1.333484 6
128.536847 -27.458813 1.379796 6
125.617871 -27.447398 1.431423 6
122.701742 -27.471399 1.473554 6
119.795718 -27.482194 1.520576 6
116.116792 -33.555351 -0.228237 5
112.886027 -36.945216 -1.182484 5
109.784982 -39.827399 -1.986354 5
106.896542 -41.194355 -2.340392 5
104.126955 -41.580635 -2.402580 5
101.400911 -41.562938 -2.343822 5
98.676252 -41.573549 -2.292492 5
95.955699 -41.571331 -2.236353 5
93.236492 -41.595063 -2.186941 5
90.519937 -41.617321 -2.136086 5
87.805594 -41.633951 -2.082539 5
85.093575 -41.600352 -2.012968 5
82.381446 -41.569563 -1.943178 5
79.668860 -41.576020 -1.883458 5
76.955877 -41.574849 -1.820391 5
74.243022 -41.622729 -1.770938 5
71.527779 -41.612028 -1.702854 5
68.810746 -41.610536 -1.636424 5
66.091930 -41.622881 -1.573030 5
63.173078 -38.480045 -0.560336 9
60.518752 -39.901354 -0.917638 9
57.886925 -41.296995 -1.266778 9
55.286061 -42.771462 -1.639222 9
52.702067 -44.168984 -1.988060 9
50.127002 -45.443953 -2.299466 9
47.538665 -46.450184 -2.529172 9
44.908292 -47.037081 -2.631410 9
42.236956 -47.304814 -2.636133 9
39.521305 -47.298570 -2.556740 9
36.807743 -47.355514 -2.495226 9
34.070975 -47.322703 -2.405196 9
31.337804 -47.363135 -2.336080 9
28.578400 -47.315300 -2.238793 9
25.823882 -47.346637 -2.164217 9
23.060949 -47.386835 -2.090970 9
20.266384 -47.334854 -1.988202 9
17.480979 -47.377396 -1.912834 9
14.667127 -47.353118 -1.815590 9
11.850348 -47.371353 -1.729850 9
9.007146 -47.342129 -1.628050 9
6.161576 -47.359089 -1.538851 9
3.306406 -47.394481 -1.453744 9
0.425224 -47.394125 -1.356051 9
-2.474048 -47.389260 -1.255323 9
-5.391815 -47.381246 -1.151941 9
-8.328151 -47.372289 -1.046548 9
-11.278384 -47.378087 -0.943959 9
-14.249280 -47.380389 -0.838507 9
-17.241729 -47.379152 -0.730135 9
-20.253490 -47.382640 -0.621364 9
-23.288547 -47.382291 -0.509500 9
-26.342988 -47.390166 -0.398248 9
-29.418459 -47.403615 -0.286750 9
-32.527767 -47.394147 -0.166075 9
-37.060471 -44.194111 0.953996 9
-38.818887 -47.386008 0.078214 9
-42.023781 -47.340810 0.216505 9
-45.374406 -47.049787 0.434257 9
-49.105562 -46.050918 0.877178 9
-53.571268 -43.689382 1.752628 9
-58.268406 -41.051622 2.720013 9
-63.082130 -38.380474 3.703149 9
-67.988874 -35.726174 4.686329 8
-71.561101 -35.689378 4.845155 8
-75.140026 -35.708443 4.989051 8
-80.517466 -32.669019 6.108785 8
-82.461805 -35.663695 5.311795 8
-86.196926 -35.620817 5.484206 8
-89.961060 -35.601754 5.652128 8
-93.788946 -35.552111 5.833034 8
-97.634632 -35.547623 6.002753 8
-101.536087 -35.530061 6.180024 8
-105.801595 -35.043811 6.511820 8
-115.253595 -27.094091 9.258224 8
-120.262026 -25.890071 9.835676 7
-124.568590 -25.794085 10.059273 7
-128.940589 -25.691426 10.289160 7
-133.395733 -25.561532 10.532171 7
-137.846325 -25.524067 10.749435 7
-142.416637 -25.416426 10.994080 7
-147.051987 -25.314668 11.241461 7
242.860774 135.550825 54.195141 0
238.145737 136.416634 54.490255 0
233.146607 136.410619 54.520771 0
228.193636 136.449430 54.567182 0
223.285518 136.537446 54.630826 0
218.395576 136.597120 54.687944 0
213.519449 136.614531 54.734253 0
208.659923 136.598587 54.772463 0
203.839517 136.631206 54.827677 0
199.040005 136.653606 54.881870 0
194.265570 136.685199 54.940990 0
149.608189 -27.201276 4.678357 6
146.600122 -27.199952 4.712795 6
143.594889 -27.243092 4.734896 6
140.622333 -27.193411 4.786841 6
137.656181 -27.163744 4.833966 6
134.681312 -27.233266 4.851907 6
131.737746 -27.194177 4.904581 6
128.797621 -27.186671 4.948864 6
125.863790 -27.195284 4.989509 6
122.939043 -27.200775 5.032442 6
120.022594 -27.203877 5.077440 6
116.343378 -33.160743 3.286582 5
113.086439 -36.648774 2.257273 5
109.950746 -39.730252 1.353649 5
107.039860 -41.224536 0.940824 5
104.565914 -38.188568 1.929893 5
101.526062 -41.625301 0.918253 5
98.795606 -41.613266 0.974579 5
96.066578 -41.627062 1.024212 5
93.340915 -41.631992 1.077903 5
90.617811 -41.628598 1.135499 5
87.897655 -41.575850 1.209754 5
85.176904 -41.558712 1.274310 5
82.456077 -41.582324 1.327557 5
79.735744 -41.573497 1.392251 5
77.014326 -41.525029 1.470672 5
74.292341 -41.537654 1.531465 5
71.567907 -41.511597 1.605719 5
68.843046 -41.534534 1.666110 5
66.112628 -41.490076 1.748974 5
63.188804 -38.411506 2.781935 9
60.529785 -39.888599 2.392437 9
57.892363 -41.314720 2.019598 9
55.284501 -42.797287 1.629780 9
52.690886 -44.175325 1.273437 9
50.115294 -45.514301 0.930093 9
47.523636 -46.551217 0.682446 9
44.885331 -47.129853 0.579918 9
42.204073 -47.377085 0.582973 9
39.473746 -47.322780 0.682516 9
36.743977 -47.328608 0.764722 9
33.993605 -47.266049 0.870154 9
31.251178 -47.303780 0.945567 9
28.495575 -47.320748 1.029204 9
25.719345 -47.286750 1.130685 9
22.943609 -47.309401 1.215948 9
20.150219 -47.303544 1.312009 9
17.350095 -47.321460 1.402302 9
14.535295 -47.330582 1.497200 9
11.698859 -47.307539 1.604192 9
8.856079 -47.315198 1.703287 9
5.990663 -47.294273 1.813423 9
3.128516 -47.339087 1.904497 9
0.223282 -47.291467 2.027127 9
-2.687359 -47.283526 2.139095 9
-5.591186 -47.351061 2.228894 9
-8.548519 -47.308952 2.355995 9
-11.500166 -47.340585 2.461532 9
-15.693103 -43.958292 3.670003 9
-17.459797 -47.407523 2.677939 9
-20.478261 -47.419119 2.796561 9
-23.513912 -47.442393 2.913714 9
-26.595096 -47.408189 3.051860 9
-29.701489 -47.372272 3.193020 9
-32.819516 -47.368595 3.326205 9
-35.970976 -47.346964 3.467777 9
-39.126063 -47.376886 3.595139 9
-42.372284 -47.267495 3.770653 9
-45.839222 -46.758970 4.079666 9
-49.686562 -45.556217 4.619673 9
-54.196042 -43.150019 5.559198 9
-59.009064 -40.330899 6.640275 9
-65.690536 -34.153646 8.834658 8
-68.826210 -34.922886 8.745492 8
-72.414437 -34.900923 8.920446 8
-76.053101 -34.857178 9.106005 8
-79.735749 -34.806573 9.297343 8
-83.431120 -34.804785 9.476037 8
-87.198694 -34.752394 9.675232 8
-91.023109 -34.679926 9.884930 8
-94.878171 -34.632544 10.090155 8
-98.777260 -34.590306 10.297652 8
-102.725616 -34.547370 10.509485 8
-107.602521 -33.201441 11.164484 8
-118.183049 -23.700588 14.579015 7
-122.588679 -23.454811 14.880653 7
-127.046156 -23.225947 15.181634 7
-131.494031 -23.099674 15.452943 7
-136.021381 -22.953596 15.736194 7
-140.688764 -22.712533 16.057272 7
-145.405578 -22.501431 16.373799 7
238.504348 135.723559 60.024394 0
233.742593 136.438675 60.266675 0
228.807895 136.584503 60.330244 0
223.874834 136.650946 60.371304 0
218.956038 136.674192 60.401371 0
213.911629 136.184300 60.270450 0
208.899998 135.678378 60.137097 0
150.813606 -23.419051 9.444986 6
147.753332 -23.428770 9.468685 6
144.715084 -23.399084 9.506696 6
140.999567 -26.607682 8.510833 6
138.014550 -26.595345 8.546367 6
135.040148 -26.583482 8.583437 6
132.074715 -26.577816 8.620208 6
129.118278 -26.575751 8.657507 6
126.176565 -26.538590 8.707732 6
123.239811 -26.520053 8.753677 6
120.314937 -26.470671 8.811199 6
116.619967 -32.394691 6.953871 5
113.342027 -35.904190 5.871429 5
110.161829 -39.230336 4.848378 5
107.225185 -40.841935 4.376782 5
104.425109 -41.344191 4.262910 5
101.674548 -41.403224 4.293052 5
99.180657 -37.811090 5.500038 5
96.192875 -41.433311 4.386467 5
93.459025 -41.402448 4.450404 5
90.724694 -41.423958 4.499103 5
87.993695 -41.401564 4.563611 5
85.263827 -41.354445 4.637769 5
82.533171 -41.360812 4.696335 5
79.802640 -41.312429 4.774282 5
77.071094 -41.296840 4.843333 5
74.338376 -41.285211 4.912813 5
71.603831 -41.269517 4.985336 5
68.867574 -41.267796 5.055069 5
66.126291 -41.218466 5.142005 5
63.181004 -37.963475 6.272186 9
60.513121 -39.492774 5.850308 9
57.872604 -41.027357 5.427670 9
55.264249 -42.622089 4.986386 9
52.664491 -44.034802 4.605341 9
50.085279 -45.424113 4.232930 9
47.481083 -46.430738 3.986518 9
44.830899 -46.988987 3.887938 9
42.143120 -47.256412 3.886065 9
39.414505 -47.273563 3.967915 9
36.678281 -47.292569 4.051078 9
33.925628 -47.265905 4.151180 9
31.172833 -47.292107 4.235912 9
28.403155 -47.280223 4.335169 9
25.629707 -47.302380 4.425267 9
22.849863 -47.344241 4.510924 9
20.023473 -47.229244 4.650437 9
17.212892 -47.242698 4.749723 9
14.386057 -47.241790 4.855923 9
11.542472 -47.228806 4.968334 9
8.661616 -47.131663 5.110919 9
5.795524 -47.147455 5.218356 9
2.908781 -47.144636 5.334294 9
0.001981 -47.129419 5.456728 9
-2.923638 -47.109251 5.583234 9
-5.850259 -47.141613 5.694668 9
-8.816603 -47.108311 5.830528 9
-11.793569 -47.101540 5.960080 9
-14.794527 -47.083659 6.095959 9
-17.805751 -47.094857 6.224734 9
-20.851809 -47.070235 6.368246 9
-23.929484 -47.023182 6.522095 9
-27.021675 -46.999933 6.670772 9
-30.129996 -46.996683 6.815584 9
-33.264904 -46.989424 6.964689 9
-36.457993 -46.908777 7.141684 9
-39.628864 -46.940363 7.283708 9
-42.896075 -46.822248 7.479766 9
-46.399821 -46.273892 7.825829 9
-50.440061 -44.716642 8.520376 9
-55.109716 -42.042819 9.602235 9
-60.172031 -38.798050 10.886662 9
-66.240614 -33.862767 12.759438 8
-69.842659 -33.797819 12.966708 8
-73.490911 -33.718839 13.182771 8
-77.197012 -33.608503 13.413741 8
-80.926038 -33.531600 13.637359 8
-84.686773 -33.473397 13.858774 8
-88.497176 -33.405357 14.087976 8
-92.415336 -33.236734 14.356715 8
-96.332374 -33.148452 14.602178 8
-100.330591 -33.010681 14.869735 8
-104.369645 -32.890078 15.136258 8
-117.899633 -18.807031 20.316424 7
-122.077577 -18.936998 20.516710 7
-126.655714 -18.573760 20.896443 7
-131.572354 -17.836291 21.414939 7
-136.226049 -17.568720 21.773703 7
-140.733229 -17.590530 22.035911 7
-145.302878 -17.614433 22.303470 7
150.570307 -25.578824 12.359683 6
147.532159 -25.550536 12.387961 6
144.498023 -25.559797 12.405849 6
141.481333 -25.546247 12.433387 6
138.484296 -25.492287 12.476423 6
135.486943 -25.491674 12.503788 6
132.497809 -25.503321 12.529128 6
129.519826 -25.508785 12.558568 6
126.562360 -25.445098 12.613065 6
123.603408 -25.439606 12.650242 6
120.659326 -25.384787 12.705889 6
116.995057 -30.891848 10.910337 5
114.476574 -27.875028 11.956672 5
110.410525 -38.404419 8.488228 5
107.437129 -40.207794 7.929996 5
104.601364 -40.941659 7.730149 5
101.860530 -40.724458 7.849648 5
99.102562 -40.744941 7.891739 5
96.351624 -40.708669 7.954748 5
93.600577 -40.715015 8.005470 5
90.852835 -40.696169 8.066586 5
88.213789 -36.955516 9.376395 5
85.360489 -40.669130 8.191199 5
82.615383 -40.622828 8.267494 5
79.869449 -40.583295 8.343542 5
77.122877 -40.594089 8.404720 5
74.374402 -40.550858 8.486083 5
71.623696 -40.511253 8.568291 5
68.872132 -40.517823 8.637034 5
66.116591 -40.493940 8.718110 5
63.169532 -37.453092 9.818589 9
60.494313 -39.065683 9.352480 9
57.841454 -40.601751 8.913429 9
55.217313 -42.159917 8.468147 9
52.612485 -43.646799 8.048196 9
50.019972 -45.023902 7.666666 9
47.404986 -46.040686 7.408588 9
44.747880 -46.636808 7.294790 9
42.040504 -46.849285 7.313128 9
39.311746 -46.945322 7.373155 9
36.556896 -46.921614 7.476143 9
33.800355 -46.941819 7.566481 9
31.011927 -46.839083 7.701071 9
28.228582 -46.824413 7.808020 9
25.428122 -46.779909 7.927573 9
22.628060 -46.793246 8.029787 9
19.811801 -46.786237 8.141424 9
16.976315 -46.751468 8.265091 9
14.133631 -46.743270 8.382194 9
11.278097 -46.739083 8.500501 9
8.395219 -46.687319 8.637818 9
5.495332 -46.632496 8.778899 9
2.599173 -46.648129 8.898400 9
-0.323587 -46.628994 9.032665 9
-3.273410 -46.579496 9.180267 9
-6.228679 -46.571280 9.316448 9
-9.203699 -46.559993 9.456607 9
-12.215021 -46.500564 9.616485 9
-15.220534 -46.516744 9.753092 9
-18.271133 -46.466563 9.915913 9
-22.726337 -42.804987 11.344335 9
-24.411844 -46.441420 10.224843 9
-27.521424 -46.418323 10.387877 9
-30.670313 -46.360236 10.566557 9
-33.838933 -46.317712 10.743227 9
-37.039068 -46.264893 10.927047 9
-40.263462 -46.220683 11.111439 9
-43.580381 -46.039914 11.347829 9
-47.167944 -45.362541 11.764205 9
-51.468571 -43.326131 12.667976 9
-56.456296 -40.086231 14.006726 9
-61.666378 -36.636343 15.428936 9
