ply
format ascii 1.0
element vertex 1384
property float x
property float y
property float z
property int scalar_Label
end_header
-6.236184 69.267724 22.532878 1
-25.875295 51.881849 9.161418 9
-14.875485 49.448340 16.697071 9
-7.629095 47.028714 21.678757 9
-2.233926 44.635153 25.404126 9
2.275992 42.286487 28.531921 9
6.005713 39.962543 31.133874 9
9.070253 37.648947 33.288552 9
11.840357 35.366886 35.248547 9
14.316807 33.106220 37.014430 9
18.060933 31.077688 39.647578 9
21.224639 29.041840 41.890740 9
23.211343 26.880627 43.339386 9
24.892469 24.706703 44.586104 9
26.431686 22.540019 45.742150 9
27.720525 20.353922 46.734169 9
28.885373 18.166135 47.648014 9
29.841818 15.953425 48.426763 9
30.664055 13.725650 49.120867 9
31.288947 11.462436 49.687957 9
31.791644 9.175933 50.179081 9
32.083345 6.837782 50.534729 9
32.210240 4.453230 50.786468 9
32.164456 2.013881 50.929456 9
31.986185 -0.474488 50.991149 9
31.551298 -3.056048 50.888844 9
30.929574 -5.717461 50.670030 9
30.063620 -8.485254 50.297048 9
28.845223 -11.406583 49.698640 9
27.282352 -14.491706 48.881411 9
25.310100 -17.777931 47.803577 9
22.657939 -21.385399 46.287315 9
19.117307 -25.422784 44.197215 9
11.966093 -31.043051 39.737383 9
0.213849 -38.799257 32.268434 9
-9.257982 77.608203 24.573049 1
-7.960318 74.765751 25.395733 1
-7.936887 72.003649 25.378468 1
-7.885425 69.242453 25.388104 1
-31.623777 51.764964 9.604166 9
-20.525051 49.297285 17.029912 9
-13.083973 46.851438 22.026273 9
-7.629981 44.425861 25.706022 9
-3.139225 42.039481 28.750904 9
0.732500 39.692447 31.390040 9
3.893626 37.353998 33.562696 9
6.784720 35.051777 35.561893 9
9.400063 32.775742 37.383839 9
13.346085 30.741370 40.094539 9
16.303882 28.642573 42.154329 9
18.312155 26.452034 43.589877 9
20.046805 24.254940 44.849889 9
21.531150 22.046112 45.950064 9
22.891603 19.841676 46.974255 9
24.007779 17.612143 47.843072 9
24.976062 15.370086 48.620479 9
25.751082 13.099725 49.276806 9
26.382472 10.806200 49.845091 9
26.797371 8.465804 50.277711 9
27.071895 6.090987 50.625162 9
27.178870 3.669062 50.869976 9
27.075408 1.181519 50.984520 9
26.764845 -1.378309 50.971594 9
26.258094 -4.014623 50.838987 9
25.483690 -6.757825 50.540758 9
24.419630 -9.625147 50.063518 9
23.067055 -12.626897 49.409086 9
21.265826 -15.831325 48.474646 9
18.893191 -19.300521 47.182407 9
15.849876 -23.093592 45.470448 9
11.552849 -27.465607 42.965113 9
-0.389304 -35.063324 35.552626 9
-37.503625 51.646027 10.081538 9
-26.353033 49.141234 17.366273 9
-18.754677 46.665599 22.348558 9
-13.220165 44.207980 25.996231 9
-8.652078 41.790664 29.022580 9
-4.699924 39.414282 31.655328 9
-1.438715 37.050234 33.845932 9
1.564468 34.725647 35.875419 9
4.435651 32.447775 37.825434 9
8.549321 30.402535 40.585981 9
11.280469 28.238200 42.456334 9
13.284864 26.013840 43.862163 9
15.052965 23.789308 45.121257 9
16.568892 21.553546 46.223582 9
17.895718 19.310123 47.210118 9
18.987746 17.043028 48.051654 9
19.927973 14.762117 48.801987 9
20.693953 12.456874 49.446929 9
21.274835 10.118524 49.979844 9
21.649289 7.735136 50.387444 9
21.851065 5.308242 50.691846 9
21.888828 2.834000 50.899050 9
21.735265 0.298658 50.992075 9
21.316311 -2.326722 50.924251 9
20.723862 -5.023324 50.754976 9
19.752877 -7.863225 50.354453 9
18.560194 -10.807997 49.823610 9
16.982128 -13.922099 49.059572 9
14.871764 -17.271769 47.970864 9
12.155901 -20.903219 46.513355 9
8.460507 -24.980227 44.453703 9
3.085967 -29.811677 41.355663 9
-11.346150 -38.428467 32.592048 9
-43.627293 51.520847 10.526819 9
-32.347267 48.981005 17.720675 9
-35.055341 45.844457 16.050739 9
-18.929158 43.987229 26.330105 9
-14.340641 41.533785 29.300494 9
-10.255324 39.131789 31.958664 9
-7.013112 36.729068 34.089456 9
-3.987484 34.369739 36.089742 9
-0.672557 32.110269 38.279332 9
3.514412 30.039989 41.025800 9
6.071297 27.816739 42.747705 9
8.057253 25.555027 44.115303 9
9.864621 23.302544 45.376598 9
11.377155 21.032049 46.458501 9
12.695708 18.752929 47.424850 9
13.794050 16.453140 48.259406 9
14.739980 14.139657 49.005093 9
15.437067 11.785320 49.601678 9
16.021551 9.413847 50.135021 9
16.364858 6.989211 50.524917 9
16.497714 4.510963 50.791153 9
16.446857 1.978923 50.950981 9
16.175249 -0.623947 50.981869 9
15.683783 -3.305256 50.885065 9
14.911277 -6.091584 50.623312 9
13.874817 -8.987570 50.208195 9
12.411100 -12.056371 49.539616 9
10.544923 -15.304820 48.634509 9
8.144981 -18.793584 47.413507 9
4.853584 -22.671751 45.658576 9
0.389436 -27.076636 43.200508 9
-12.281264 -34.768598 35.730823 9
-35.698797 -47.049868 21.727729 9
-38.500918 48.817130 18.103461 9
-30.858602 46.262742 22.880614 9
-24.850721 43.757189 26.653617 9
-20.174073 41.271710 29.610322 9
-16.017024 38.837545 32.252750 9
-12.718136 36.402654 34.371833 9
-9.660654 34.009101 36.348741 9
-5.958043 31.759490 38.730268 9
-1.663328 29.667566 41.482601 9
0.658647 27.376299 43.024772 9
2.688108 25.085695 44.393380 9
4.495008 22.797740 45.631694 9
6.028741 20.495813 46.708830 9
7.314816 18.175554 47.640787 9
8.382440 15.834449 48.445829 9
9.307102 13.481090 49.170538 9
10.006685 11.092111 49.764932 9
10.537141 8.672915 50.263654 9
10.812905 6.196542 50.614888 9
10.907374 3.673066 50.863992 9
10.785698 1.086751 50.990273 9
10.397812 -1.583999 50.963971 9
9.761927 -4.343218 50.796979 9
8.859050 -7.205422 50.478658 9
7.593692 -10.210030 49.952272 9
5.935433 -13.379731 49.200827 9
3.762207 -16.769521 48.152364 9
0.907561 -20.455527 46.708909 9
-2.962820 -24.581979 44.672721 9
-8.528937 -29.436902 41.640951 9
-23.614887 -38.071759 32.946781 9
-45.283661 48.627128 18.236832 9
-37.172098 46.053591 23.182861 9
-31.115791 43.509112 26.895982 9
-26.206083 41.000392 29.924756 9
-22.069220 38.524354 32.494781 9
-18.587011 36.067908 34.677489 9
-15.562645 33.631899 36.591639 9
-11.388387 31.400014 39.204569 9
-7.283216 29.245515 41.781717 9
-4.967218 26.916240 43.289594 9
-2.894491 24.595153 44.658271 9
-1.099721 22.268353 45.867132 9
0.416047 19.926395 46.915850 9
1.776441 17.583286 47.878765 9
2.812417 15.199983 48.655022 9
3.689936 12.800565 49.344280 9
4.386613 10.374625 49.933475 9
4.814548 7.895520 50.370641 9
5.061490 5.375478 50.708597 9
5.076284 2.795199 50.917442 9
4.794077 0.129447 50.959383 9
4.387583 -2.584196 50.937567 9
3.576409 -5.430957 50.686743 9
2.479918 -8.389073 50.278694 9
1.039431 -11.486761 49.679943 9
-0.912280 -14.789850 48.793534 9
-3.449972 -18.341029 47.577617 9
-6.856676 -22.258176 45.868876 9
-11.543495 -26.717718 43.430700 9
-25.037034 -34.525568 35.880080 9
-41.685087 -43.846840 26.540413 9
-54.156858 45.226615 17.341483 9
-37.398490 43.266150 27.262811 9
-32.477092 40.717013 30.227456 9
-28.264700 38.206226 32.782844 9
-24.732264 35.713871 34.946219 9
-21.621618 33.246823 36.869409 9
-16.973675 31.031043 39.701546 9
-13.124355 28.804919 42.071311 9
-10.736916 26.447339 43.590991 9
-8.674630 24.086723 44.927503 9
-6.898579 21.718835 46.103909 9
-5.332369 19.347682 47.165135 9
-4.020954 16.957879 48.085203 9
-2.970701 14.539701 48.860787 9
-2.127838 12.095652 49.523634 9
-1.477060 9.622102 50.083038 9
-1.131021 7.086613 50.474037 9
-0.903135 4.523931 50.805502 9
-1.005437 1.876475 50.955075 9
-1.359901 -0.846392 50.968774 9
-1.912762 -3.638584 50.878412 9
-2.876093 -6.567435 50.562593 9
-4.170615 -9.623473 50.068297 9
-5.855324 -12.836256 49.362950 9
-8.126221 -16.281635 48.335884 9
-11.189319 -20.047602 46.871725 9
-15.226071 -24.223163 44.870245 9
-21.139865 -29.159619 41.821588 9
-37.016771 -37.856734 33.143474 9
-44.113601 42.999918 27.515433 9
-38.643439 40.449168 30.724447 9
-34.697148 37.875078 33.068067 9
-31.016100 35.355059 35.267697 9
-27.680648 32.871632 37.277251 9
-22.690177 30.655917 40.240360 9
-19.131168 28.353857 42.391535 9
-16.728224 25.959012 43.889510 9
-14.620697 23.566012 45.226444 9
-12.837629 21.160498 46.386064 9
-11.293572 18.746794 47.417378 9
-9.996611 16.315549 48.316092 9
-8.947583 13.858466 49.082111 9
-8.161888 11.364176 49.707142 9
-7.571051 8.838823 50.230489 9
-7.197393 6.270781 50.639967 9
-7.155031 3.625538 50.871701 9
-7.363374 0.912160 50.972012 9
-7.841963 -1.882900 50.930666 9
-8.622975 -4.777512 50.730469 9
-9.676177 -7.773406 50.389425 9
-11.185210 -10.933695 49.805790 9
-13.216451 -14.293976 48.944195 9
-15.917556 -17.918461 47.724386 9
-19.445081 -21.880905 46.061993 9
-24.462373 -26.432928 43.592293 9
-38.636196 -34.293507 36.075720 9
-46.277413 40.073769 30.531587 9
-41.334481 37.534294 33.377201 9
-37.515172 34.984197 35.603691 9
-33.827746 32.496576 37.764561 9
-28.652003 30.261328 40.761919 9
-25.379540 27.882964 42.705966 9
-22.912406 25.456119 44.209423 9
-20.846772 23.016367 45.497549 9
-19.066846 20.569592 46.635041 9
-17.500150 18.119058 47.662402 9
-16.238733 15.640963 48.528930 9
-15.223738 13.136799 49.267671 9
-14.432258 10.603181 49.891720 9
-13.931972 8.018210 50.364217 9
-13.677174 5.382640 50.711005 9
-13.690135 2.683080 50.920476 9
-13.968386 -0.088743 50.994743 9
-14.560734 -2.954247 50.907888 9
-15.495452 -5.931490 50.645482 9
-16.798395 -9.039133 50.194616 9
-18.626630 -12.335062 49.471098 9
-21.002191 -15.843446 48.464945 9
-24.171753 -19.659530 47.044542 9
-28.483336 -23.922136 45.024736 9
-34.729192 -28.933650 41.982376 9
-102.365147 35.962691 4.154805 8
-85.006780 33.957333 13.696573 8
-44.407122 34.584422 35.865502 9
-40.142933 32.113172 38.290277 9
-34.825916 29.852002 41.293624 9
-31.895904 27.389647 43.009302 9
-29.437184 24.918739 44.477641 9
-27.304825 22.446111 45.777503 9
-25.513133 19.959084 46.901481 9
-23.962402 17.463819 47.903819 9
-22.693761 14.945107 48.762662 9
-21.746123 12.386418 49.457526 9
-21.051277 9.791209 50.025702 9
-20.607323 7.151668 50.468750 9
-20.407427 4.461134 50.790935 9
-20.546230 1.689484 50.942263 9
-20.923709 -1.149898 50.977135 9
-21.641102 -4.090736 50.842340 9
-22.828432 -7.178749 50.469816 9
-24.378466 -10.399738 49.918159 9
-26.493652 -13.823851 49.081461 9
-29.317336 -17.512414 47.886085 9
-33.102001 -21.566695 46.201611 9
-38.400175 -26.194789 43.741025 9
108.076715 141.563791 -216.516375 0
107.138260 146.550123 -214.519186 0
99.937735 140.070523 -207.379121 0
98.728088 145.119422 -205.268538 0
108.125188 145.657388 -209.468920 0
119.234374 145.689934 -214.630556 0
96.314968 136.717169 -201.108617 0
95.165677 141.745789 -199.067506 0
94.561576 146.465137 -197.376120 0
107.010534 145.649235 -203.239320 0
118.192876 145.614150 -208.309477 0
127.253989 146.648414 -212.115405 0
91.648060 138.429274 -192.995019 0
90.522033 143.380337 -191.033566 0
95.343854 145.681976 -192.465571 0
105.907093 145.644334 -197.109616 0
130.537170 140.077134 -209.550368 0
128.418193 145.672134 -207.008722 0
87.150780 140.078995 -185.174360 0
86.067485 144.946206 -183.300556 0
94.350183 145.673221 -186.610569 0
104.827703 145.636984 -191.083501 0
115.793210 145.616390 -195.770175 0
127.170139 145.657588 -200.625569 0
83.814455 136.832432 -179.426459 0
82.784545 141.683170 -177.613723 0
82.095336 146.310900 -176.013813 0
93.388603 145.657410 -180.856237 0
102.523548 146.155604 -184.492808 0
114.559823 145.643429 -189.621596 0
125.819600 145.692358 -194.282682 0
79.586308 138.448669 -172.059459 0
78.589363 143.222536 -170.324292 0
82.594852 145.679560 -171.239460 0
92.465926 145.631241 -175.202183 0
100.288032 146.655304 -178.057695 0
113.483194 145.613666 -183.643477 0
124.590484 145.686956 -188.096100 0
75.484949 140.017880 -164.932249 0
74.520876 144.716741 -163.271901 0
81.730814 145.665362 -165.804056 0
91.515167 145.623722 -169.610369 0
99.226361 146.664906 -172.328121 0
112.317946 145.627791 -177.703811 0
122.029704 146.224234 -181.336316 0
72.420814 136.856414 -159.638704 0
71.504785 141.542027 -158.032761 0
70.713815 146.102511 -156.514552 0
80.882575 145.649813 -160.448111 0
90.578757 145.616118 -164.100552 0
98.982101 146.332106 -167.076688 0
111.147770 145.651191 -171.844543 0
68.513836 138.415379 -152.879876 0
67.648153 143.019324 -151.353374 0
68.661755 146.683574 -150.760694 0
80.026614 145.643336 -155.157444 0
89.517047 145.669710 -158.603146 0
99.728155 145.579697 -162.348416 0
109.983099 145.679332 -166.068382 0
64.728391 139.926094 -146.334576 0
63.916106 144.448608 -144.885958 0
70.079143 145.653948 -146.737691 0
79.195799 145.630861 -149.945616 0
88.140900 145.868303 -153.033582 0
98.643134 145.615693 -156.800236 0
108.899534 145.680436 -160.407347 0
61.946004 136.820381 -141.446787 0
61.079040 141.380758 -140.001138 0
60.305368 145.830809 -138.620563 0
69.289967 145.656176 -141.708813 0
78.388173 145.613030 -144.808636 0
86.163784 146.339709 -147.274065 0
97.594256 145.642328 -151.341041 0
106.410971 146.276058 -154.196429 0
58.356278 138.309674 -135.231202 0
57.567585 142.777831 -133.871566 0
57.890890 146.647953 -133.027265 0
68.447672 145.688067 -136.717087 0
76.485243 146.099993 -139.252828 0
84.698581 146.591679 -141.832390 0
96.577261 145.661134 -145.965366 0
54.884315 139.749118 -129.205693 0
54.109117 144.158701 -127.900358 0
59.238689 145.658278 -129.158571 0
67.990288 145.543846 -131.950282 0
76.761198 145.597538 -134.713007 0
86.039457 145.600988 -137.653284 0
95.580143 145.677022 -140.664830 0
52.209651 136.765705 -124.599309 0
51.484335 141.161453 -123.343200 0
50.764248 145.492937 -122.108064 0
58.500260 145.676869 -124.416926 0
66.987458 145.660239 -127.005425 0
73.785339 146.588461 -128.864228 0
85.171012 145.596279 -132.571621 0
94.587952 145.696249 -135.430592 0
48.916688 138.182550 -118.862461 0
49.581762 141.819609 -118.221048 0
50.560306 145.275242 -117.716602 0
57.803447 145.679370 -119.745415 0
66.220173 145.670255 -122.215955 0
75.010475 145.657726 -124.800877 0
84.270022 145.610978 -127.535500 0
92.321573 146.275449 -129.759026 0
48.012472 142.313562 -113.314633 3
52.127308 144.178192 -114.056460 3
57.040585 145.717797 -115.098740 0
65.439366 145.690826 -117.474177 0
74.143672 145.690771 -119.933445 0
83.380638 145.625243 -122.561296 0
90.557005 146.643686 -124.372048 0
45.519517 139.369027 -108.981794 3
44.875879 143.614849 -107.883471 3
51.481251 144.184679 -109.545228 3
59.523295 144.180989 -111.722815 3
64.687129 145.701908 -112.794709 0
73.348439 145.695157 -115.146923 0
82.404880 145.682947 -117.610761 0
42.458659 140.686093 -103.650560 3
43.169550 144.190948 -103.092204 3
50.806405 144.208967 -105.069453 3
58.838047 144.185859 -107.160413 3
65.876650 144.794184 -108.863155 0
72.563140 145.699051 -110.414784 0
81.569015 145.682247 -112.765912 0
39.449006 141.983882 -98.448208 3
42.595387 144.190669 -98.774917 3
50.243807 144.180359 -100.678398 3
58.170835 144.185416 -102.650176 3
66.411717 144.197808 -104.700801 3
71.812295 145.690917 -105.743486 0
79.522493 146.232788 -107.558358 0
36.504414 143.254800 -93.375357 3
42.003412 144.202487 -94.492382 3
49.576323 144.207435 -96.292679 3
57.478661 144.200547 -98.175479 3
65.717967 144.188868 -100.141278 3
74.285544 144.187206 -102.185172 3
77.693031 146.691730 -102.503000 0
34.192938 140.416395 -89.351164 3
34.182393 144.203958 -88.611239 3
41.429895 144.207653 -90.255818 3
48.991627 144.195989 -91.976065 3
56.829740 144.197751 -93.757874 3
65.005407 144.192342 -95.619226 3
73.503365 144.197664 -97.553270 3
31.383886 141.672876 -84.487383 3
33.697913 144.186406 -84.513256 3
40.896193 144.194984 -86.069857 3
48.377007 144.202488 -87.688777 3
56.213047 144.182209 -89.390847 3
64.284503 144.203160 -91.137176 3
28.683180 142.877027 -79.753581 3
33.163999 144.197442 -80.434522 3
40.302983 144.215681 -81.901756 3
47.825084 144.180146 -83.458315 3
55.535028 144.199810 -85.044075 3
63.611878 144.194039 -86.710707 3
26.470366 140.120649 -75.910898 3
26.010034 144.072382 -75.120109 3
32.615603 144.218553 -76.385903 3
39.802715 144.190774 -77.796440 3
47.207057 144.193857 -79.244181 3
54.930764 144.183957 -80.756881 3
62.939130 144.188023 -82.322991 3
23.790583 141.367275 -71.330552 3
25.321079 144.192761 -71.129550 3
32.135311 144.205755 -72.389600 3
39.264119 144.188101 -73.712997 3
46.622672 144.193155 -75.074863 3
54.287129 144.190287 -76.494548 3
62.215699 144.209401 -77.959169 3
21.231001 142.552536 -66.871559 3
24.842330 144.200840 -67.230695 3
31.669448 144.187386 -68.427609 3
38.707038 144.197359 -69.656922 3
46.018747 144.204862 -70.934034 3
53.623665 144.209135 -72.262378 3
19.092579 139.882809 -63.182938 3
18.765055 143.690887 -62.520859 3
24.417989 144.181141 -63.374771 3
31.177609 144.184898 -64.488106 3
38.185950 144.190113 -65.641289 3
45.451016 144.200583 -66.834980 3
53.038507 144.191734 -68.083884 3
17.014845 137.210835 -59.533118 3
16.648808 141.052712 -58.886627 3
19.368305 143.114859 -58.990993 3
24.157255 144.073664 -59.584656 3
30.680392 144.187269 -60.575874 3
37.606260 144.215584 -61.641289 3
44.917324 144.181228 -62.774623 3
52.386386 144.210042 -63.921224 3
15.283019 130.674125 -56.526435 3
14.917055 134.582114 -55.899664 3
15.482008 137.889955 -55.495115 3
18.003197 140.047187 -55.542999 3
21.140116 141.883027 -55.726209 3
25.089585 143.313415 -56.085702 3
30.284229 144.137423 -56.713894 3
37.103675 144.202856 -57.688254 3
44.312955 144.200102 -58.727412 3
13.550255 124.084622 -53.491197 3
13.158639 128.079237 -52.879869 3
13.499194 131.566926 -52.437477 3
15.989726 133.726451 -52.472372 3
18.434559 135.935217 -52.492241 3
20.940217 138.130459 -52.520381 3
23.561281 140.284144 -52.568133 3
26.869833 142.086760 -52.756759 3
31.031323 143.475778 -53.117444 3
36.595800 144.194817 -53.760837 3
43.753135 144.198356 -54.718882 3
11.735872 117.489156 -50.405086 3
11.393249 121.526324 -49.827456 3
11.487201 125.224485 -49.348209 3
13.977322 127.371236 -49.377976 3
16.410533 129.574388 -49.390765 3
18.926309 131.747985 -49.415734 3
21.436685 133.947378 -49.434307 3
23.974849 136.153515 -49.453218 3
26.532420 138.372453 -49.470570 3
29.207121 140.551435 -49.505769 3
32.727046 142.303802 -49.702652 3
37.170382 143.620319 -50.072174 3
43.202225 144.194057 -50.739274 3
9.963036 110.801050 -47.290906 3
9.629478 114.910724 -46.739443 3
9.507815 118.816901 -46.236013 3
11.957736 120.980263 -46.253480 3
14.449936 123.135690 -46.274375 3
16.930610 125.319085 -46.287794 3
19.420037 127.517771 -46.297710 3
21.971984 129.699985 -46.314451 3
24.525954 131.904142 -46.326004 3
27.042526 134.153306 -46.324786 3
29.628731 136.385964 -46.331150 3
32.210934 138.645619 -46.330897 3
35.053446 140.790071 -46.373049 3
38.735771 142.524511 -46.562863 3
43.492289 143.759728 -46.938878 3
-53.332514 -1.565556 -47.587785 9
-54.179884 5.804003 -46.780849 9
-53.339025 10.597050 -46.438989 9
-51.835843 14.371835 -46.278428 9
-49.855353 17.436754 -46.245410 9
-47.150422 19.508620 -46.399565 9
-43.212420 19.990678 -46.864830 9
-36.683344 17.261241 -47.974695 9
7.817752 108.260008 -43.601015 3
7.524136 112.360145 -43.087945 3
9.983219 114.511440 -43.104268 3
12.438006 116.684035 -43.114689 3
14.947533 118.839247 -43.130235 3
17.417797 121.040172 -43.133113 3
19.937678 123.229483 -43.139823 3
22.479026 125.426848 -43.144924 3
25.032380 127.639115 -43.146540 3
27.650659 129.835788 -43.154037 3
30.209122 132.091681 -43.144888 3
32.830030 134.335716 -43.140837 3
35.451518 136.604680 -43.130734 3
38.134624 138.865925 -43.125062 3
41.131107 140.989358 -43.166575 3
-150.003924 0.176089 -29.905799 7
-110.364889 2.962440 -35.463856 8
-109.647930 8.534670 -35.132088 8
-107.943289 12.051401 -35.094137 8
-105.258297 13.665430 -35.337145 8
-100.640503 11.785398 -36.117032 8
-93.389321 5.409452 -37.608550 8
-63.061937 0.811157 -41.994882 9
-62.189894 5.697650 -41.698233 9
-61.213097 10.311545 -41.434431 9
-59.975772 14.446126 -41.240930 9
-57.920383 17.350666 -41.252405 9
-55.772856 20.092096 -41.286034 9
-49.572671 17.368604 -42.294975 9
-51.304116 25.260167 -41.391951 9
-48.729935 27.373997 -41.522905 9
-45.522572 28.686050 -41.798803 9
-40.967415 28.359454 -42.381013 9
-35.650189 27.203036 -43.126237 9
-30.135962 25.941173 -43.901157 9
-24.329164 24.472483 -44.726261 9
-18.263553 22.851870 -45.592383 9
-11.714478 20.840465 -46.547855 9
-4.390856 18.145150 -47.653795 9
4.864342 13.561160 -49.157229 9
6.018877 101.525131 -40.419491 3
5.717102 105.715151 -39.931990 3
7.967475 108.015315 -39.908387 3
10.469847 110.150115 -39.925316 3
12.930069 112.332686 -39.929425 3
15.425487 114.509562 -39.934427 3
17.955378 116.683018 -39.939972 3
20.473107 118.884836 -39.937800 3
23.042852 121.074323 -39.938868 3
25.619203 123.281904 -39.935190 3
28.201660 125.508413 -39.926589 3
30.784428 127.757784 -39.912015 3
33.446169 129.984819 -39.904350 3
36.084742 132.250563 -39.886514 3
38.744803 134.529692 -39.865764 3
-149.976005 -7.717901 -26.789580 7
-148.260861 -3.362529 -26.774778 7
-150.015370 9.943296 -25.692746 7
-149.146567 15.853747 -25.450555 7
-145.630579 14.913524 -26.017877 7
-142.019766 13.855767 -26.602926 7
-138.283450 12.620177 -27.213838 7
-134.355379 11.071308 -27.868587 7
-130.165643 9.079698 -28.585256 7
-124.843720 4.783395 -29.606093 7
-117.415801 -3.714142 -31.189863 8
-117.391653 3.632463 -30.708512 8
-103.675677 -17.033028 -33.950832 8
-115.017487 12.893181 -30.412994 8
-113.107476 15.905145 -30.466118 8
-111.391254 19.211091 -30.469942 8
-109.273701 21.693855 -30.579768 8
-106.564550 23.065935 -30.840487 8
-103.052727 23.029903 -31.300332 8
-97.891794 20.221249 -32.164453 8
-93.704317 19.244126 -32.770683 8
-89.355541 18.112814 -33.404931 8
-84.817285 16.794701 -34.073004 8
-80.078440 15.287261 -34.776371 8
-75.016182 13.415761 -35.542973 8
-69.348786 10.779717 -36.436991 8
-65.036168 10.338052 -36.998179 9
-64.348945 15.260388 -36.712655 9
-61.996276 17.690113 -36.812757 9
-59.769745 20.275904 -36.882102 9
-57.648895 22.980991 -36.925969 9
-55.409137 25.497801 -36.994727 9
-53.132738 27.945910 -37.069422 9
-50.563676 30.000320 -37.205457 9
-47.565941 31.513147 -37.430296 9
-44.075935 32.438383 -37.754906 9
-39.551098 32.153550 -38.291267 9
-34.817676 31.714020 -38.860021 9
-29.980187 31.253866 -39.438333 9
-25.092746 30.839583 -40.014559 9
-20.078114 30.385341 -40.604287 9
-14.957828 29.920676 -41.202549 9
-9.375304 29.064926 -41.880391 9
-3.495947 28.019452 -42.602541 9
2.642629 26.838479 -43.360124 9
9.045881 25.528814 -44.152964 9
15.868759 23.947872 -45.009804 9
23.045610 22.180710 -45.916019 9
30.909463 19.923436 -46.933284 9
39.911802 16.784403 -48.143399 9
4.107217 94.793909 -37.167198 3
3.850897 99.037288 -36.716781 3
6.011212 101.412951 -36.679012 3
8.441940 103.598238 -36.682322 3
10.950130 105.743670 -36.693309 3
13.446158 107.915817 -36.696784 3
15.979998 110.080151 -36.700908 3
18.495672 112.276253 -36.696388 3
21.062542 114.457967 -36.694375 3
23.625431 116.663305 -36.685809 3
26.184287 118.892423 -36.670640 3
28.810164 121.101519 -36.659907 3
31.409884 123.349906 -36.638855 3
34.020544 125.614860 -36.613213 3
36.715347 127.854694 -36.593970 3
-150.746668 -13.647892 -23.296336 7
-147.659773 -12.897875 -23.705790 7
-144.563970 -12.150055 -24.112703 7
-141.498669 -11.299064 -24.506018 7
-151.169575 22.043118 -21.407335 7
-147.908131 21.555984 -21.890359 7
-144.487308 20.770050 -22.407808 7
-141.070928 20.096189 -22.915116 7
-137.464935 19.084072 -23.462986 7
-133.796617 18.045913 -24.017127 7
-130.180009 17.234350 -24.548263 7
-126.529868 16.454570 -25.078457 7
-122.810052 15.632065 -25.616572 7
-118.957043 14.644202 -26.177775 7
-114.139197 11.865048 -26.962739 8
-114.472130 19.203940 -26.497832 8
-112.485609 21.907194 -26.594894 8
-110.435517 24.436992 -26.706444 8
-107.933162 26.106227 -26.922095 8
-104.786002 26.633850 -27.282703 8
-101.114487 26.303005 -27.756278 8
-97.348247 25.894201 -28.242493 8
-93.548241 25.515250 -28.727218 8
-89.652674 25.067180 -29.223979 8
-85.710542 24.634180 -29.721544 8
-81.700244 24.184557 -30.224399 8
-77.580390 23.659392 -30.741097 8
-73.382858 23.113267 -31.264294 8
-67.553406 20.294662 -32.120826 8
-64.890732 22.167662 -32.300365 9
-63.063589 25.205824 -32.303152 9
-60.651521 27.400758 -32.424711 9
-58.217391 29.556025 -32.547438 9
-55.721795 31.623014 -32.679055 9
-53.256073 33.725162 -32.800952 9
-50.686426 35.692552 -32.939641 9
-47.533470 36.941263 -33.188326 9
-43.637632 37.320678 -33.574860 9
-38.981413 36.862084 -34.098760 9
-34.023110 36.150743 -34.668846 9
-28.959455 35.429508 -35.246499 9
-23.987051 34.923081 -35.794454 9
-18.567815 34.030984 -36.413095 9
-13.041701 33.145767 -37.037761 9
-7.796274 32.681351 -37.597330 9
-2.467819 32.240281 -38.158960 9
2.932965 31.836020 -38.720390 9
8.487472 31.389138 -39.295782 9
14.175689 30.925744 -39.880938 9
19.975683 30.472095 -40.471454 9
25.877231 30.041646 -41.065087 9
32.227062 29.316850 -41.720874 9
39.098067 28.253072 -42.449216 9
1.953623 92.301280 -33.443096 3
3.891642 94.863797 -33.373464 3
6.493114 96.920403 -33.404056 3
8.949588 99.104579 -33.406313 3
11.439394 101.279839 -33.408258 3
13.969312 103.443165 -33.410728 3
16.512966 105.615147 -33.409506 3
19.043295 107.815295 -33.400421 3
21.637647 109.991275 -33.394946 3
24.177604 112.224162 -33.375347 3
26.782766 114.434766 -33.359203 3
29.409262 116.653782 -33.339852 3
32.009840 118.911583 -33.310396 3
34.688330 121.144522 -33.285562 3
-151.645749 -19.423073 -19.663043 7
-148.527323 -18.649643 -20.076284 7
-145.311261 -18.126461 -20.508995 7
-142.049238 -17.690977 -20.947355 7
-138.870794 -16.995267 -21.359137 7
-151.718379 24.441369 -17.877493 7
-149.042088 25.324963 -18.204413 7
-145.821734 24.911582 -18.655930 7
-142.589930 24.552129 -19.102859 7
-139.286723 24.107883 -19.559105 7
-135.920413 23.605956 -20.022323 7
-132.547189 23.174780 -20.479422 7
-129.072804 22.612121 -20.951585 7
-125.540353 22.018761 -21.428642 7
-121.902844 21.304614 -21.920618 7
-118.310986 20.777151 -22.394171 7
-115.345185 21.541440 -22.724853 8
-113.281377 24.029449 -22.857960 8
-111.229163 26.491534 -22.986904 8
-108.815853 28.260966 -23.189484 8
-106.003109 29.316682 -23.471364 8
-102.520043 29.241261 -23.885667 8
-98.858612 28.935621 -24.328633 8
-95.159862 28.648549 -24.770930 8
-91.361366 28.280833 -25.224855 8
-87.535202 27.953488 -25.675684 8
-83.707573 27.706918 -26.118198 8
-79.704117 27.275292 -26.586272 8
-75.667063 26.882898 -27.051696 8
-71.652603 26.611466 -27.503644 8
-67.467562 26.182054 -27.978774 8
-64.640988 27.734589 -28.189942 9
-62.903131 30.785481 -28.193915 9
-60.382761 32.745417 -28.340275 9
-57.829736 34.661523 -28.488379 9
-55.194087 36.473071 -28.647056 9
-52.587344 38.327611 -28.795867 9
-49.857030 40.035339 -28.962003 9
-46.629315 41.152997 -29.210737 9
-42.590657 41.343452 -29.594562 9
-37.893523 40.839565 -30.083405 9
-33.193746 40.433350 -30.561700 9
-28.397040 40.016895 -31.045521 9
-23.350727 39.426291 -31.560247 9
-18.322402 38.963553 -32.060022 9
-13.062646 38.361232 -32.586343 9
-7.752950 37.819343 -33.108378 9
-2.370438 37.315097 -33.629668 9
3.107062 36.828193 -34.153506 9
8.941254 36.105290 -34.721466 9
14.871526 35.414504 -35.290650 9
20.836949 34.816006 -35.851075 9
27.244247 33.932986 -36.466127 9
33.810775 33.042865 -37.090242 9
39.971449 32.654143 -37.636059 9
47.383512 31.296729 -38.357305 9
-0.171478 89.812377 -29.730410 3
0.493897 93.370727 -29.481723 3
5.589378 93.448777 -29.870602 3
9.296472 94.678996 -30.048727 3
11.997835 96.711926 -30.075683 3
14.529231 98.891333 -30.072510 3
17.053005 101.093666 -30.062356 3
19.631749 103.274982 -30.053801 3
22.180857 105.496171 -30.035043 3
24.790542 107.695492 -30.018308 3
27.401371 109.915012 -29.995357 3
30.023791 112.148312 -29.967505 3
32.658509 114.395701 -29.934736 3
-149.975874 -22.909195 -16.210850 7
-146.681592 -22.548489 -16.656862 7
-143.379162 -22.165191 -17.098618 7
-140.094343 -21.690157 -17.530514 7
-136.775468 -21.263579 -17.963741 7
-151.829805 25.714246 -14.501983 7
-149.726222 27.959133 -14.708238 7
-146.591301 27.670548 -15.126283 7
-143.423210 27.377769 -15.544698 7
-140.213421 27.063841 -15.965075 7
-136.981006 26.774785 -16.383382 7
-133.680831 26.413313 -16.808547 7
-130.364323 26.095360 -17.230078 7
-127.020751 25.797902 -17.650037 7
-123.588382 25.397603 -18.080308 7
-120.148010 25.062460 -18.504930 7
-116.732737 24.853713 -18.917598 7
-113.900736 25.810843 -19.213002 8
-111.786687 28.103978 -19.368822 8
-109.471488 29.999416 -19.559202 8
-106.702891 31.082054 -19.829548 8
-103.432574 31.322873 -20.186493 8
-99.839341 31.077304 -20.595327 8
-96.219707 30.864869 -21.001361 8
-92.533018 30.620499 -21.411737 8
-88.783280 30.354824 -21.825470 8
-85.028492 30.160857 -22.232153 8
-81.195689 29.926572 -22.644449 8
-77.321244 29.710592 -23.055777 8
-73.374608 29.470078 -23.471192 8
-69.396971 29.267450 -23.883429 8
-65.320931 29.009337 -24.303691 8
-64.697992 33.539704 -24.139927 9
-62.043883 35.254039 -24.312428 9
-59.516086 37.141419 -24.459281 9
-56.773231 38.754609 -24.636439 9
-54.239312 40.644147 -24.774647 9
-51.582398 42.385505 -24.927766 9
-48.556036 43.689935 -25.134349 9
-44.962020 44.348477 -25.424084 9
-40.728598 44.316277 -25.805925 9
-36.242058 44.076255 -26.217623 9
-31.588336 43.739439 -26.645012 9
-26.861470 43.417830 -27.073137 9
-22.009899 43.058292 -27.509490 9
-17.069784 42.704615 -27.948178 9
-12.022851 42.341019 -28.391564 9
-6.898130 42.001220 -28.834961 9
-1.580115 41.572247 -29.294909 9
3.867498 41.125359 -29.761456 9
9.405570 40.703197 -30.228485 9
14.952292 40.385630 -30.684010 9
20.811693 39.889741 -31.170812 9
26.754974 39.437551 -31.655748 9
32.843334 38.976695 -32.146951 9
39.334666 38.287213 -32.679243 9
46.519854 37.138002 -33.290669 9
-2.479895 91.601875 -25.684910 3
-0.120343 93.771608 -25.681166 3
5.460154 93.451660 -26.090387 3
10.892154 93.355141 -26.467116 3
14.823351 94.483097 -26.639435 3
17.650718 96.476997 -26.662882 3
20.198858 98.696734 -26.644547 3
22.800382 100.896702 -26.626581 3
25.445867 103.086002 -26.607572 3
28.040540 105.330716 -26.575793 3
30.672637 107.570718 -26.541972 3
-151.860310 -25.988942 -12.186881 7
-148.604794 -25.493935 -12.621666 7
-145.251895 -25.238026 -13.068922 7
-141.899596 -24.929002 -13.510011 7
-138.525913 -24.627924 -13.948984 7
-135.098923 -24.414799 -14.391570 7
-151.806025 26.636249 -11.184285 7
-150.077975 29.758709 -11.338377 7
-147.000101 29.548572 -11.730893 7
-143.916405 29.393283 -12.118602 7
-140.808862 29.249809 -12.504653 7
-137.624869 29.002978 -12.898112 7
-134.434388 28.813311 -13.286600 7
-131.183525 28.565353 -13.679337 7
-127.872256 28.265308 -14.076099 7
-124.586066 28.090354 -14.462230 7
-121.220154 27.828713 -14.855391 7
-117.815090 27.566069 -15.248538 7
-114.325225 27.219325 -15.649063 8
-112.146145 29.346896 -15.828006 8
-109.936931 31.390200 -16.008200 8
-107.241761 32.558578 -16.263077 8
-104.076730 32.937054 -16.588282 8
-100.579192 32.807527 -16.960277 8
-97.054240 32.703861 -17.329707 8
-93.446947 32.538559 -17.705076 8
-89.754507 32.313290 -18.086525 8
-86.040061 32.131138 -18.464000 8
-82.319601 32.015905 -18.834964 8
-78.454261 31.761027 -19.220507 8
-74.587133 31.584155 -19.598517 8
-70.651560 31.388698 -19.978962 8
-66.713785 31.270222 -20.351742 8
-63.287483 31.925659 -20.641003 9
-63.396432 37.345205 -20.405448 9
-60.748258 39.021885 -20.571692 9
-58.087080 40.691187 -20.734574 9
-55.454638 42.407103 -20.888039 9
-52.853009 44.170591 -21.031849 9
-49.950762 45.579168 -21.212791 9
-46.694520 46.590997 -21.437300 9
-42.841197 46.947407 -21.737908 9
-38.502350 46.815002 -22.097258 9
-33.988822 46.572140 -22.471263 9
-29.354888 46.287701 -22.851963 9
-24.682944 46.055999 -23.227853 9
-19.922943 45.824424 -23.605440 9
-15.041419 45.561586 -23.988821 9
-10.102984 45.338415 -24.369083 9
-5.074050 45.122672 -24.750361 9
0.159002 44.806258 -25.146962 9
5.406561 44.580776 -25.533925 9
10.845271 44.278455 -25.933541 9
16.431851 43.947625 -26.339690 9
22.075297 43.676623 -26.740491 9
27.879015 43.374307 -27.148464 9
6.740391 66.711849 -24.246090 1
7.163418 70.796565 -24.004859 1
7.010401 75.306911 -23.693077 1
-4.634249 89.211177 -22.012661 3
-4.553936 93.203462 -21.740839 3
-0.736488 94.174568 -21.905170 3
4.639883 93.991788 -22.241029 3
10.526697 93.524305 -22.622943 3
16.258916 93.290158 -22.973614 3
20.448874 94.296666 -23.137431 3
23.433396 96.233213 -23.156971 3
26.080630 98.436761 -23.131889 3
28.700562 100.679475 -23.097071 3
-150.867532 -27.480893 -8.486564 7
-147.492020 -27.306386 -8.932948 7
-144.074696 -27.194029 -9.379876 7
-140.698323 -26.909721 -9.814604 7
-137.285557 -26.671508 -10.248947 7
-133.787122 -26.600727 -10.690257 7
-130.332107 -26.357060 -11.118894 7
-150.199425 30.982191 -8.048325 7
-147.192262 30.897836 -8.415243 7
-144.123883 30.732743 -8.785933 7
-141.052960 30.627653 -9.151574 7
-137.932886 30.477327 -9.518976 7
-134.796456 30.357577 -9.883212 7
-131.622128 30.222989 -10.247346 7
-128.401808 30.060040 -10.612432 7
-125.175774 29.953287 -10.972547 7
-121.854428 29.725856 -11.340450 7
-118.512160 29.530038 -11.705316 7
-114.573643 28.292630 -12.148345 8
-112.388348 30.370198 -12.338023 8
-110.216450 32.443230 -12.521567 8
-107.583523 33.684976 -12.764867 8
-104.489004 34.148898 -13.066850 8
-99.150298 30.908602 -13.670923 8
-97.527817 33.945866 -13.758642 8
-93.960405 33.808772 -14.106542 8
-90.358942 33.690171 -14.452327 8
-86.707248 33.566326 -14.798038 8
-83.039915 33.491840 -15.138909 8
-79.262529 33.326926 -15.487337 8
-75.482582 33.234516 -15.828886 8
-71.614004 33.090914 -16.174732 8
-67.716882 32.984884 -16.516818 8
-65.091266 34.683624 -16.687700 9
-64.381944 38.942450 -16.608234 9
-61.739465 40.583382 -16.772145 9
-59.104474 42.243958 -16.929649 9
-56.473139 43.919310 -17.081212 9
-53.809689 45.565595 -17.231257 9
-51.023897 47.076541 -17.390798 9
-47.989978 48.311956 -17.574883 9
-40.795602 44.740118 -18.258578 9
-40.088958 48.781734 -18.145261 9
-35.732355 48.666331 -18.466980 9
-31.283605 48.534536 -18.790761 9
-26.691802 48.335450 -19.122293 9
-22.077950 48.203832 -19.446957 9
-17.323748 48.016460 -19.778360 9
-12.527350 47.879585 -20.104739 9
-7.653715 47.758786 -20.429907 9
-2.642162 47.597183 -20.760451 9
2.509928 47.398096 -21.096200 9
7.754068 47.213034 -21.431274 9
-10.976577 69.303613 -19.106978 1
-8.115948 71.064493 -19.181574 1
-3.615892 71.389778 -19.427452 1
1.427981 71.319516 -19.721950 1
5.115895 72.507062 -19.860894 1
5.514498 76.508892 -19.643973 1
-6.902806 91.017636 -18.083957 3
-4.653543 93.210312 -18.067367 3
-1.327627 94.558254 -18.155601 3
3.937058 94.441377 -18.433039 3
9.691599 94.051930 -18.747938 3
15.701529 93.585556 -19.075357 3
21.733181 93.222976 -19.391364 3
26.191143 94.109022 -19.540024 3
-149.989019 -28.618768 -4.738088 7
-146.578814 -28.526161 -5.178187 7
-143.195618 -28.297313 -5.609427 7
-139.751652 -28.181013 -6.042277 7
-136.256617 -28.139837 -6.475541 7
-132.760889 -28.035617 -6.903113 7
-151.791577 28.542291 -4.615562 7
-150.163532 31.813555 -4.807610 7
-147.154139 31.691393 -5.160910 7
-144.155195 31.656103 -5.508010 7
-141.099355 31.551250 -5.856933 7
-138.051769 31.527102 -6.199794 7
-134.917007 31.375072 -6.547947 7
-130.200302 27.978943 -7.079520 7
-128.638241 31.246436 -7.229623 7
-125.453356 31.184012 -7.567878 7
-122.220231 31.090436 -7.906416 7
-118.964962 31.019496 -8.242052 7
-114.708311 29.149143 -8.689878 8
-112.535980 31.216724 -8.886937 8
-110.310013 33.160684 -9.085440 8
-107.732685 34.471307 -9.319973 8
-104.715880 35.040016 -9.600276 8
-101.291468 34.968448 -9.922028 8
-97.805754 34.863944 -10.244782 8
-94.272323 34.752391 -10.566830 8
-90.727408 34.693094 -10.883906 8
-87.130422 34.622827 -11.200533 8
-83.587072 34.703175 -11.504633 8
-79.803337 34.494702 -11.829240 8
-76.025089 34.371404 -12.146417 8
-72.243897 34.318695 -12.457040 8
-68.390499 34.238860 -12.768687 8
-65.340886 35.325112 -12.984924 9
-65.072866 40.143881 -12.891180 9
-62.466957 41.797268 -13.048660 9
-59.753756 43.322391 -13.212085 9
-57.092114 44.927103 -13.364176 9
-54.484195 46.610657 -13.504773 9
-51.761817 48.166583 -13.651765 9
-48.859754 49.526006 -13.811742 9
-45.490625 50.367433 -14.014317 9
-41.323509 50.344540 -14.292783 9
-37.012301 50.239547 -14.577960 9
-32.599503 50.106533 -14.865104 9
-28.104206 49.970576 -15.151964 9
-23.560316 49.870710 -15.434850 9
-19.072698 49.916709 -15.703070 9
-14.288676 49.744893 -15.991676 9
-9.426982 49.588904 -16.278341 9
-4.500380 49.463782 -16.561538 9
-0.926579 50.733239 -16.703638 4
-14.230570 67.955866 -15.216005 1
-12.792885 70.989600 -15.152433 1
-8.245802 71.176166 -15.378145 1
-3.619579 71.374580 -15.601670 1
1.346812 71.359527 -15.846931 1
-4.553984 80.749288 -15.082673 1
-8.973018 88.631150 -14.461376 3
-9.137685 92.797551 -14.229463 3
-5.846471 94.101447 -14.304581 3
-1.960401 94.975472 -14.424540 3
3.239833 94.887262 -14.650672 3
8.850827 94.584704 -14.901060 3
14.802089 94.137385 -15.168424 3
20.960787 93.656011 -15.440434 3
129.155716 19.970820 -24.263581 6
137.635550 19.553694 -24.606549 6
146.600192 18.966554 -24.970404 6
-151.738765 -32.190310 -0.593453 7
-149.355424 -29.019069 -0.941934 7
-145.914915 -29.017378 -1.373100 7
-142.456771 -28.999443 -1.800540 7
-138.999182 -28.914999 -2.222609 7
-135.503824 -28.868479 -2.642604 7
-131.954603 -28.895793 -3.061967 7
-151.736160 29.364798 -1.370249 7
-149.927998 32.154290 -1.605120 7
-146.994792 32.192933 -1.936964 7
-144.017308 32.183576 -2.268236 7
-141.002196 32.146613 -2.598305 7
-137.956660 32.101742 -2.926465 7
-134.886010 32.062773 -3.252170 7
-131.797851 32.047041 -3.574648 7
-128.645439 31.959568 -3.898206 7
-125.479146 31.907493 -4.218072 7
-122.275264 31.844240 -4.536395 7
-119.050123 31.803534 -4.851565 7
-114.722815 29.778556 -5.265180 8
-112.532132 31.784417 -5.472499 8
-110.352742 33.784750 -5.673382 8
-107.780365 35.078043 -5.905858 8
-104.777206 35.646109 -6.173395 8
-101.400759 35.631896 -6.470427 8
-97.962439 35.581100 -6.767580 8
-94.502505 35.562286 -7.060975 8
-90.968702 35.493940 -7.355384 8
-87.397789 35.437469 -7.647255 8
-83.768814 35.362922 -7.938413 8
-80.144392 35.365579 -8.222934 8
-76.410826 35.279381 -8.511206 8
-72.690169 35.284078 -8.791833 8
-68.862908 35.211321 -9.075663 8
-65.331680 35.613968 -9.325825 9
-63.471140 38.294299 -9.417941 9
-62.962710 42.706362 -9.382756 9
-60.248916 44.201516 -9.541580 9
-57.644309 45.849160 -9.684672 9
-54.964629 47.415082 -9.828535 9
-52.304206 49.018837 -9.964692 9
-49.344367 50.282263 -10.121159 9
-46.054956 51.190844 -10.300076 9
-42.229559 51.531047 -10.518804 9
-37.988747 51.471633 -10.765993 9
-33.665995 51.403285 -11.012254 9
-29.291580 51.361952 -11.254763 9
-24.863215 51.346647 -11.493516 9
-20.321568 51.297437 -11.733291 9
-15.576989 51.128140 -11.981247 9
-11.949611 52.165600 -12.127632 4
-12.117456 56.966835 -11.954565 4
-12.262409 61.654984 -11.780459 4
-12.963309 66.780089 -11.558564 1
-12.810468 71.012000 -11.403011 1
-8.433781 71.340598 -11.579781 1
1.591484 66.716573 -12.192172 1
-9.528754 80.828697 -11.137780 1
-9.676691 85.097866 -10.944523 1
-11.145707 90.406174 -10.647539 3
-10.731875 94.050273 -10.492689 3
-8.642176 96.289912 -10.460232 3
-7.898154 99.602273 -10.321908 2
-7.499731 103.147988 -10.154322 2
-3.555492 103.943494 -10.241194 2
0.898809 104.419750 -10.355747 2
20.292783 94.013340 -11.522339 3
121.495589 25.282510 -18.402225 6
129.522856 25.057917 -18.641682 6
137.718189 24.870384 -18.875218 6
146.108059 24.706898 -19.103972 6
-151.806048 -30.430842 3.271215 7
-148.903351 -28.878756 2.873855 7
-145.454366 -28.920873 2.455266 7
-141.988673 -28.941805 2.040619 7
-138.501030 -28.955237 1.629678 7
-134.973612 -29.006352 1.221448 7
-131.451099 -28.975605 0.818517 7
-151.864752 30.639271 1.867311 7
-149.564368 32.182817 1.582007 7
-146.608131 32.155374 1.261257 7
-143.639756 32.157177 0.944036 7
-140.640456 32.145793 0.629193 7
-137.689548 32.297337 0.321987 7
-134.614583 32.234145 0.011107 7
-131.546202 32.245229 -0.294803 7
-128.450139 32.257614 -0.597964 7
-125.310760 32.242039 -0.899405 7
-122.102937 32.153575 -1.200850 7
-118.925408 32.186204 -1.495372 7
-114.639373 30.223699 -1.863238 8
-112.464759 32.234574 -2.077006 8
-110.223947 34.102227 -2.289594 8
-107.682301 35.429621 -2.517941 8
-104.658789 35.944830 -2.775350 8
-101.351125 36.028882 -3.047866 8
-97.970895 36.054625 -3.320264 8
-94.517386 36.026520 -3.592528 8
-90.939350 35.869984 -3.868296 8
-87.403888 35.850315 -4.135345 8
-83.834946 35.847571 -4.399083 8
-80.196999 35.810776 -4.661981 8
-76.526379 35.796385 -4.921285 8
-72.814802 35.793635 -5.177477 8
-69.026974 35.755347 -5.432993 8
-65.333935 35.917571 -5.675323 9
-63.698947 38.878451 -5.762734 9
-63.280792 43.382082 -5.756803 9
-60.565541 44.850785 -5.910521 9
-57.913656 46.415070 -6.053576 9
-55.267624 47.999972 -6.190083 9
-52.584698 49.553904 -6.323055 9
-49.762651 50.958852 -6.459655 9
-46.539815 51.920817 -6.618126 9
-42.749660 52.276594 -6.809670 9
-38.629450 52.327186 -7.017069 9
-34.347265 52.276385 -7.228198 9
-29.945333 52.178039 -7.439831 9
-25.497508 52.115664 -7.646634 9
-21.002049 52.088461 -7.848534 9
-16.377008 52.014242 -8.050867 9
-14.964213 55.231652 -8.029223 4
-15.024553 59.857399 -7.903988 4
-15.100073 64.412111 -7.773744 4
-15.090529 68.803567 -7.645174 1
-12.994810 71.188608 -7.648260 1
-10.558145 73.262217 -7.667153 1
-7.829616 75.086313 -7.698111 1
-12.483300 83.380382 -7.255134 1
-10.918251 86.121446 -7.203693 1
-13.324799 92.187533 -6.900358 3
-13.396946 96.187271 -6.739865 3
-9.920105 97.251831 -6.791635 2
-10.048692 101.226951 -6.618741 2
-8.831684 104.092882 -6.522580 2
-4.360597 104.455247 -6.612523 2
-3.773814 107.803857 -6.467455 2
-1.466324 109.853182 -6.416840 2
117.461278 27.992822 -12.959608 6
124.705501 28.246406 -13.085138 6
132.600737 28.181660 -13.230871 6
140.709021 28.120691 -13.371288 6
-151.803927 -28.897529 7.096513 7
-148.659445 -28.126317 6.691769 7
-145.202357 -28.229058 6.287369 7
-141.730225 -28.302813 5.886992 7
-138.210041 -28.436626 5.489924 7
-134.664520 -28.563723 5.096600 7
-131.154398 -28.527695 4.708783 7
-151.755577 31.316096 5.068749 7
-147.658311 28.490278 4.719370 7
-146.108418 31.852750 4.457923 7
-143.165274 31.909280 4.154832 7
-140.178689 31.921908 3.854276 7
-137.192593 31.991368 3.557918 7
-132.653107 28.811878 3.202425 7
-131.130391 32.101927 2.974456 7
-128.041242 32.121477 2.686806 7
-124.935616 32.165815 2.402854 7
-121.790992 32.191529 2.121651 7
-116.883740 28.942538 1.763241 7
-114.415545 30.407479 1.521740 8
-112.241853 32.401728 1.300417 8
-110.003131 34.255758 1.082348 8
-107.478181 35.596361 0.856376 8
-104.471873 36.126480 0.612140 8
-101.114547 36.114512 0.355432 8
-97.745414 36.146748 0.103150 8
-94.295923 36.113467 -0.148132 8
-90.835679 36.129115 -0.394768 8
-87.327628 36.136262 -0.638578 8
-83.755420 36.113067 -0.880342 8
-80.127817 36.076308 -1.119520 8
-76.481308 36.081368 -1.354077 8
-72.794218 36.097488 -1.585048 8
-69.046012 36.097912 -1.813418 8
-65.396170 36.301590 -2.030526 9
-63.789871 39.279691 -2.131780 9
-63.299525 43.666889 -2.166637 9
-60.630991 45.178221 -2.312186 9
-58.032459 46.791459 -2.447692 9
-55.364803 48.331091 -2.580606 9
-52.681753 49.867094 -2.708010 9
-49.894040 51.295326 -2.834643 9
-46.681414 52.251709 -2.977515 9
-42.966554 52.676173 -3.140489 9
-38.878319 52.744257 -3.316377 9
-34.631722 52.713813 -3.493478 9
-30.311073 52.683691 -3.667111 9
-25.908138 52.648040 -3.837502 9
-21.461074 52.649600 -4.002448 9
-16.895917 52.614155 -4.165578 9
-16.484163 56.805884 -4.107188 4
-16.497316 61.343330 -4.021703 4
-16.508882 65.796380 -3.931298 4
-16.150690 69.821146 -3.854601 1
-12.546088 70.779764 -3.934696 1
-12.446372 74.969657 -3.833785 1
-14.136176 80.684016 -3.640485 1
-14.147325 84.805193 -3.525660 1
-15.363487 89.891999 -3.348537 3
-14.647299 93.249327 -3.260155 3
-13.496165 96.208299 -3.187249 3
-12.061759 98.913737 -3.122114 2
-12.111752 102.783627 -2.983099 2
-9.170064 104.264959 -2.975793 2
-6.821935 106.232849 -2.934470 2
-6.290243 109.576943 -2.806089 2
-2.673656 110.618045 -2.807487 2
2.721253 110.431462 -2.876759 2
121.821547 30.075264 -7.743718 6
129.537984 30.077066 -7.812489 6
137.408226 30.118107 -7.871454 6
145.589368 30.098427 -7.926344 6
-151.835684 -27.274849 10.888797 7
-148.651604 -26.687859 10.490938 7
-145.186726 -26.870092 10.102958 7
-141.713203 -27.001591 9.718793 7
-138.207940 -27.146278 9.338788 7
-134.652304 -27.349343 8.962958 7
-131.121543 -27.412843 8.590981 7
-151.228814 30.957786 8.255871 7
-148.319904 30.997186 7.957435 7
-145.414652 31.098101 7.662830 7
-142.496095 31.218919 7.372086 7
-139.534053 31.292707 7.084924 7
-136.545685 31.361928 6.801440 7
-133.521666 31.408918 6.521488 7
-130.485854 31.486423 6.245419 7
-127.428192 31.573781 5.973136 7
-124.326326 31.627962 5.704234 7
-121.199007 31.689216 5.439058 7
-118.026914 31.722451 5.177209 7
-114.108180 30.436649 4.901808 8
-111.950718 32.445344 4.673533 8
-109.732416 34.320830 4.450631 8
-107.111881 35.482538 4.223473 8
-104.082311 35.965039 3.990625 8
-100.720335 35.939109 3.753237 8
-97.381176 36.013830 3.521245 8
-93.947456 35.998677 3.291238 8
-90.484906 36.003336 3.065227 8
-86.956197 35.971797 2.842107 8
-83.413059 35.985542 2.623603 8
-79.821477 35.994235 2.408713 8
-76.167337 35.980076 2.197039 8
-72.494966 36.008900 1.990166 8
-68.776160 36.041547 1.787249 8
-65.351848 36.540764 1.600309 9
-63.613896 39.326370 1.478848 9
-63.142869 43.723157 1.409433 9
-60.550980 45.319581 1.271697 9
-57.926724 46.886357 1.139279 9
-55.309160 48.474146 1.013592 9
-52.666982 50.045172 0.893527 9
-49.870942 51.448839 0.774410 9
-46.629908 52.358362 0.645661 9
-43.010328 52.878378 0.509714 9
-38.818620 52.816526 0.359627 9
-34.655396 52.865211 0.217411 9
-30.391798 52.882579 0.078555 9
-26.024028 52.869129 -0.056889 9
-21.588275 52.866890 -0.187409 9
-17.180723 52.975898 -0.309354 9
-17.026776 57.405069 -0.271693 4
-17.029319 61.908306 -0.222308 4
-16.631055 65.944899 -0.181111 4
-16.814050 70.464648 -0.113555 1
-13.258907 71.445061 -0.170332 1
-12.490680 75.003844 -0.123452 1
-14.836819 81.290325 0.035699 1
-14.872159 85.409685 0.120534 1
-17.481137 91.668185 0.296583 3
-14.947157 93.451315 0.305767 3
-14.077418 96.627304 0.376256 3
-13.520805 100.024132 0.462458 2
-12.616352 103.103651 0.542911 2
-9.515565 104.442870 0.560153 2
-7.373282 106.552727 0.614598 2
-6.571250 109.676769 0.716481 2
-2.807880 110.595368 0.735501 2
2.235354 110.648857 0.725622 2
120.383650 30.885629 -2.523411 6
128.039368 30.892769 -2.521856 6
135.915259 30.892425 -2.510841 6
143.986392 30.908341 -2.488993 6
-151.758524 -25.993072 14.654100 7
-148.903020 -24.504535 14.247281 7
-145.449904 -24.732078 13.877707 7
-141.950025 -25.011821 13.513268 7
-138.444858 -25.226221 13.152065 7
-134.916389 -25.425131 12.794986 7
-151.720670 25.842982 11.803659 7
-150.333815 29.696879 11.464861 7
-147.440421 29.795085 11.176849 7
-144.558437 29.969840 10.892308 7
-141.625890 30.076040 10.612657 7
-138.671850 30.185009 10.337165 7
-135.682950 30.269336 10.066008 7
-132.680758 30.378137 9.798856 7
-129.660808 30.502227 9.535823 7
