ply
format ascii 1.0
element vertex 1397
property float x
property float y
property float z
property int scalar_Label
end_header
143.320788 -21.258747 20.530754 6
139.997000 -21.373468 20.406419 6
136.688998 -21.483195 20.292349 6
133.410929 -21.505438 20.230087 6
130.137445 -21.567118 20.155541 6
126.881614 -21.590518 20.107858 6
123.627288 -21.670263 20.039290 6
120.398504 -21.642010 20.032632 6
117.173083 -21.645745 20.017291 6
113.862553 -22.433362 19.614375 5
110.040880 -28.194158 16.712903 5
106.497768 -32.403965 14.600019 5
103.297074 -33.740643 13.941855 5
100.225893 -33.800922 13.933927 5
97.163798 -33.801740 13.962998 5
94.105781 -33.788850 14.006007 5
91.049814 -33.784331 14.051822 5
87.996090 -33.771899 14.108657 5
84.943891 -33.745058 14.179801 5
81.892051 -33.711402 14.261438 5
78.839685 -33.697975 14.339923 5
75.786432 -33.659739 14.438024 5
72.731445 -33.625718 14.541103 5
69.673328 -33.565106 14.664773 5
65.910818 -16.055425 23.633641 5
63.850508 -39.449607 11.889540 9
60.961124 -41.309955 11.058040 9
58.109629 -43.205910 10.213992 9
55.290939 -45.068468 9.392312 9
52.482968 -46.677236 8.705039 9
49.683286 -48.091672 8.122184 9
46.417038 -45.218350 9.730062 9
43.968601 -49.431566 7.732880 9
40.525385 -45.708512 9.791461 9
38.107828 -49.588289 7.974078 9
35.150544 -49.561216 8.159351 9
32.179272 -49.510382 8.364150 9
29.200915 -49.482314 8.564719 9
26.206486 -49.429225 8.785650 9
23.202200 -49.389482 9.007333 9
20.177609 -49.314864 9.254684 9
17.154344 -49.310776 9.473459 9
14.110774 -49.277684 9.715053 9
11.043604 -49.208967 9.983068 9
7.969508 -49.177235 10.240032 9
4.848514 -49.031049 10.564666 9
1.728330 -48.958288 10.859584 9
-1.410063 -48.887440 11.162008 9
-4.560594 -48.841057 11.460275 9
-7.750625 -48.731547 11.800315 9
-10.938055 -48.697979 12.109494 9
-14.170515 -48.593233 12.465073 9
-17.401466 -48.560812 12.791825 9
-20.675428 -48.472229 13.157515 9
-23.965320 -48.408207 13.519781 9
-27.299769 -48.294186 13.918263 9
-30.676897 -48.141895 14.347094 9
-34.056402 -48.056082 14.750776 9
-37.483622 -47.925356 15.188776 9
-40.908847 -47.871023 15.596492 9
-44.497951 -47.515879 16.176451 9
-48.541849 -46.250494 17.258445 9
-53.640216 -42.874218 19.495317 9
-60.090240 -36.941982 23.138214 9
-67.937155 -28.566936 28.138377 8
-72.526164 -27.100301 29.413642 8
-77.095282 -25.819083 30.605179 8
110.843669 -22.475597 23.823666 5
106.942380 -29.605542 20.135866 5
103.658426 -31.435094 19.200771 5
100.541865 -31.639715 19.114807 5
97.450772 -31.583499 19.171475 5
94.359515 -31.569865 19.213593 5
91.271454 -31.539561 19.271861 5
88.185169 -31.500301 19.342290 5
85.099282 -31.472093 19.414509 5
82.013748 -31.437061 19.497803 5
78.927704 -31.403969 19.587638 5
75.840349 -31.344176 19.698911 5
72.750269 -31.260776 19.830061 5
69.656440 -31.165753 19.974904 5
66.053055 -18.443587 26.699986 5
63.801181 -37.811113 16.727214 9
60.898116 -39.890474 15.758986 9
58.029347 -41.889624 14.838367 9
55.197936 -43.883040 13.926451 9
52.400070 -45.837244 13.040629 9
49.595699 -47.383151 12.373948 9
46.739355 -48.242161 12.072866 9
43.849069 -48.738830 11.968322 9
40.885849 -48.676305 12.164269 9
37.920663 -48.665614 12.340681 9
34.936573 -48.592628 12.557578 9
31.948047 -48.559175 12.761512 9
28.930324 -48.423578 13.027222 9
25.913714 -48.366349 13.259658 9
22.895760 -48.365882 13.470166 9
19.854062 -48.310973 13.717625 9
16.797569 -48.252913 13.975046 9
13.736044 -48.236863 14.218537 9
10.646564 -48.166639 14.499303 9
7.543455 -48.108006 14.782532 9
4.399099 -47.959205 15.122674 9
1.244229 -47.844035 15.453860 9
-1.918754 -47.769545 15.772348 9
-5.103440 -47.688786 16.103376 9
-8.312934 -47.595159 16.450663 9
-11.556661 -47.463617 16.827912 9
-14.832284 -47.307596 17.228150 9
-18.126195 -47.171159 17.627761 9
-21.480520 -46.938015 18.089996 9
-24.837410 -46.775354 18.524412 9
-28.223134 -46.610766 18.970440 9
-31.630773 -46.464384 19.417280 9
-35.067120 -46.320445 19.873711 9
-38.579545 -46.068637 20.400568 9
-42.121312 -45.828563 20.932635 9
-45.851018 -45.245928 21.665865 9
-50.366882 -43.046162 23.308253 9
-57.290546 -35.919907 27.706406 9
107.705308 -23.615982 27.496620 5
104.160170 -27.574609 25.399658 5
100.967713 -28.099896 25.137718 5
97.828139 -28.056531 25.186445 5
94.690812 -28.018219 25.240529 5
91.557700 -27.930409 25.329018 5
88.425333 -27.829732 25.432426 5
85.291781 -27.753306 25.530989 5
82.157573 -27.671128 25.640705 5
79.022052 -27.517853 25.796451 5
75.882741 -27.345616 25.970485 5
72.739135 -27.193987 26.141727 5
69.592096 -27.092048 26.294657 5
66.193718 -20.797082 29.767103 5
63.703695 -35.203167 22.176220 9
60.790235 -37.728258 20.943831 9
57.911006 -40.038784 19.832250 9
55.072584 -42.303984 18.750833 9
52.263733 -44.424198 17.753007 9
49.437390 -45.995627 17.055870 9
46.581572 -47.072057 16.631274 9
43.645458 -47.379384 16.627633 9
40.668620 -47.395244 16.788804 9
37.682533 -47.402452 16.962719 9
34.673170 -47.317942 17.194364 9
31.657730 -47.265353 17.417091 9
28.626978 -47.191146 17.659935 9
25.572727 -47.059625 17.942406 9
22.506253 -46.939567 18.227356 9
19.421047 -46.801881 18.530701 9
16.331042 -46.714716 18.815443 9
13.209640 -46.560690 19.145662 9
10.077317 -46.435196 19.469484 9
6.931850 -46.328815 19.792119 9
3.777282 -46.257069 20.105124 9
0.561304 -46.031609 20.512109 9
-2.650884 -45.897126 20.878880 9
-5.897186 -45.720831 21.278610 9
-9.162761 -45.557238 21.681443 9
-12.456743 -45.379632 22.102316 9
-15.773785 -45.207946 22.530380 9
-19.170190 -44.883055 23.054398 9
-22.567881 -44.638753 23.544676 9
-25.994128 -44.396903 24.044821 9
-29.453467 -44.148110 24.560308 9
-32.940899 -43.908174 25.082509 9
-36.479040 -43.623683 25.641721 9
-40.086622 -43.256723 26.259802 9
-43.754632 -42.837729 26.920142 9
-48.121798 -40.944617 28.431073 9
63.509296 -30.650239 28.816890 9
60.585383 -33.966191 27.118358 9
57.718108 -37.143129 25.501938 9
54.872878 -39.821271 24.165741 9
52.054439 -42.228830 22.984495 9
49.229329 -44.132110 22.087413 9
46.343361 -45.204525 21.655616 9
43.376643 -45.505827 21.657454 9
40.369012 -45.516185 21.828521 9
37.340848 -45.442772 22.054602 9
34.297277 -45.339482 22.306035 9
31.241200 -45.233268 22.567992 9
28.156870 -45.040890 22.886899 9
25.057175 -44.848422 23.215091 9
21.947730 -44.687229 23.535176 9
18.815116 -44.492831 23.883238 9
15.669952 -44.320851 24.228343 9
12.518634 -44.198486 24.555309 9
9.332391 -44.005316 24.931773 9
6.107573 -43.739461 25.359140 9
2.871700 -43.515364 25.773262 9
-0.404377 -43.226955 26.234082 9
-3.688004 -42.996533 26.672763 9
-6.993561 -42.772975 27.118278 9
-10.348258 -42.471941 27.618708 9
-13.736345 -42.152689 28.140776 9
-17.187415 -41.732456 28.731986 9
-23.436348 -33.417437 33.850897 9
-24.162148 -40.960707 29.911205 9
-27.708701 -40.549117 30.534025 9
-31.285398 -40.150274 31.162190 9
-34.992897 -39.513176 31.940868 9
-38.710944 -38.954677 32.687927 9
-42.510597 -38.302859 33.503126 9
-46.866703 -36.478546 35.015445 9
60.116109 -25.849279 35.910163 9
57.351499 -31.816451 32.678841 9
54.538942 -35.707554 30.624527 9
51.729648 -38.794901 29.030058 9
48.889848 -41.007488 27.936696 9
45.960331 -42.079979 27.496212 9
42.998641 -42.769493 27.280826 9
39.904555 -42.436740 27.654566 9
36.817930 -42.262091 27.947939 9
33.715313 -42.068978 28.261305 9
30.594033 -41.849298 28.599432 9
27.455644 -41.620467 28.952542 9
24.295262 -41.362292 29.332328 9
21.119855 -41.117679 29.714406 9
17.906585 -40.780974 30.159502 9
14.663570 -40.405472 30.637376 9
11.415493 -40.104787 31.082886 9
5.611448 -29.543208 37.456689 9
4.837834 -39.444506 32.040278 9
1.464896 -38.935244 32.639247 9
-1.908419 -38.528185 33.190647 9
-5.283070 -38.211110 33.701432 9
-8.795916 -37.526862 34.437670 9
-12.275751 -37.061017 35.059240 9
-15.898586 -36.255915 35.891654 9
-19.510466 -35.603545 36.648149 9
-23.233837 -34.742947 37.540418 9
-27.078601 -33.670453 38.571765 9
-31.083368 -32.306723 39.790238 9
51.124518 -32.353663 36.974630 9
48.323858 -35.709212 35.192926 9
45.373619 -37.188744 34.508324 9
42.320966 -37.657244 34.420376 9
39.147564 -37.226292 34.865998 9
35.958127 -36.810083 35.313400 9
32.736714 -36.309534 35.820599 9
29.487610 -35.770699 36.360968 9
26.215600 -35.231349 36.912609 9
19.356898 -16.084733 48.398747 9
19.665462 -34.475896 37.859399 9
16.290423 -33.780197 38.536705 9
12.816208 -32.774886 39.408564 9
9.270385 -31.624606 40.378836 9
-149.998668 -2.760396 -29.848738 7
-146.156849 -5.954269 -29.387904 7
-142.951309 -9.629349 -28.397043 7
-140.902381 -14.233998 -26.398350 7
-147.650640 6.511046 -29.276712 7
-142.798840 4.105061 -29.711464 7
-138.208933 1.551382 -29.961249 7
-133.927686 -1.199365 -29.976262 7
-130.028088 -4.221211 -29.680815 7
-126.553505 -7.570300 -29.022416 7
-123.843654 -11.552337 -27.673640 7
-122.891288 -17.053714 -24.682243 7
-105.957102 -8.798053 -36.717371 8
-102.733316 -12.168083 -35.992370 8
-100.630145 -16.564469 -34.189022 8
-99.767342 -22.170673 -31.146040 8
-95.483325 -24.638034 -31.447506 8
-147.848533 13.866610 -26.600596 7
-142.399727 11.864117 -27.559695 7
-137.185724 9.760387 -28.369255 7
-132.211378 7.540766 -29.017706 7
-127.437586 5.223591 -29.532757 7
-122.895076 2.774668 -29.879762 7
-116.859351 1.570189 -31.649500 8
-106.691143 3.870996 -37.373988 8
-102.099455 1.730558 -37.970813 8
-98.179144 -0.940504 -37.962818 8
-94.435444 -3.745029 -37.807887 8
-90.993044 -6.806867 -37.375741 8
-87.911484 -10.200671 -36.594552 8
-85.354425 -14.105879 -35.283020 8
-83.870236 -19.090859 -32.854130 8
-81.571909 -23.358081 -31.230656 8
-149.723073 20.059646 -22.516316 7
-143.888001 18.259881 -23.805549 7
-138.157264 16.469364 -25.068166 7
-132.668047 14.584454 -26.178073 7
-127.361307 12.638088 -27.181611 7
-122.266787 10.599190 -28.045708 7
-115.049569 10.283871 -30.945475 8
-105.760922 11.771609 -35.909719 8
-100.997035 9.775602 -36.692191 8
-96.511642 7.602412 -37.251245 8
-92.273761 5.263046 -37.607246 8
-88.172924 2.840310 -37.861040 8
-84.228622 0.308502 -37.987672 8
-80.496865 -2.393810 -37.923528 8
-77.015906 -5.316668 -37.620069 8
-73.832414 -8.522359 -37.017366 8
-71.045904 -12.130637 -35.995967 8
-61.653223 -9.072573 -42.108721 9
-53.662056 -7.180492 -46.875744 9
-47.519435 -7.023524 -49.740830 9
-43.712483 -9.265028 -50.071472 9
-40.751649 -12.423789 -49.460368 9
-38.170933 -16.036151 -48.406080 9
-36.034551 -20.210528 -46.812506 9
-34.708444 -25.425946 -44.217396 9
-146.809149 23.720668 -18.808697 7
-140.600268 22.170153 -20.481327 7
-134.587973 20.577579 -22.051098 7
-128.832489 18.891205 -23.457025 7
-123.360602 17.079512 -24.666227 7
-116.222406 16.609889 -27.506037 8
-106.527022 18.269251 -32.887812 8
-101.279426 16.624239 -34.139196 8
-96.459576 14.705476 -35.031431 8
-91.793303 12.718520 -35.820851 8
-87.312434 10.628067 -36.470067 8
-82.961012 8.472779 -37.029176 8
-78.759724 6.226775 -37.471972 8
-74.710969 3.878862 -37.790032 8
-70.813078 1.421041 -37.978868 8
-63.823713 1.968609 -41.516018 9
-56.315817 3.197209 -45.736375 9
-49.394689 4.032149 -49.445861 9
-44.746423 2.691724 -50.732335 9
-41.053990 0.407747 -50.986934 9
-37.647488 -2.164043 -50.935932 9
-34.372618 -4.874604 -50.745362 9
-31.221795 -7.726589 -50.417074 9
-28.302725 -10.857080 -49.814275 9
-25.581063 -14.246251 -48.965591 9
-23.211057 -18.102718 -47.667503 9
-21.388414 -22.707228 -45.651797 9
-20.972465 -29.222232 -41.784632 9
-144.838961 26.742323 -14.283404 7
-138.201701 25.459077 -16.393000 7
-131.882462 24.064558 -18.294552 7
-125.870571 22.552335 -19.988232 7
-119.992502 21.036197 -21.628964 7
-106.488480 25.370199 -30.672247 8
-102.641342 22.610398 -30.575359 8
-97.543457 20.864211 -31.736844 8
-92.559862 19.095880 -32.840977 8
-87.741711 17.257599 -33.832292 8
-83.040997 15.381691 -34.754175 8
-78.520535 13.407358 -35.537213 8
-74.112279 11.385196 -36.246199 8
-69.854018 9.274328 -36.836516 8
-61.721945 10.839883 -41.657997 9
-54.769819 11.492108 -45.338298 9
-48.304660 11.837726 -48.598821 9
-43.734981 10.427512 -49.830718 9
-39.866775 8.359859 -50.312421 9
-36.172214 6.141869 -50.623157 9
-32.581814 3.835833 -50.836240 9
-29.078710 1.452301 -50.966479 9
-25.677139 -1.032178 -50.991890 9
-22.404065 -3.657924 -50.873548 9
-19.286271 -6.468689 -50.570432 9
-16.305071 -9.456420 -50.096734 9
-13.508255 -12.695177 -49.381931 9
-10.958301 -16.284894 -48.331878 9
-8.824262 -20.475737 -46.704757 9
-7.467706 -25.803358 -43.983022 9
-143.978181 29.029048 -8.735276 7
-136.768063 28.088298 -11.419842 7
-130.024229 26.954281 -13.764932 7
-123.587708 25.719181 -15.907498 7
-112.058740 28.323658 -23.067089 8
-103.453593 29.032567 -27.572914 8
-97.938725 27.562836 -29.152986 8
-92.730743 25.937529 -30.492168 8
-88.682156 23.452045 -30.709949 8
-84.182982 21.371484 -31.424121 8
-79.342810 19.630715 -32.538657 8
-74.659192 17.819623 -33.540412 8
-70.069671 15.985274 -34.490664 8
-61.308436 18.014316 -40.037355 9
-55.017059 17.980888 -43.027646 9
-48.396067 18.404013 -46.490284 9
-43.615582 17.182203 -47.977212 9
-39.603803 15.264953 -48.638142 9
-35.687219 13.291096 -49.223738 9
-31.862534 11.257643 -49.733531 9
-28.140156 9.146783 -50.150583 9
-24.480793 6.994332 -50.517684 9
-20.943668 4.728065 -50.758137 9
-17.483643 2.390309 -50.921929 9
-14.105047 -0.030996 -50.998972 9
-10.868722 -2.618048 -50.905275 9
-7.709768 -5.303207 -50.717269 9
-4.716631 -8.208847 -50.311040 9
-1.838692 -11.285918 -49.743840 9
0.783405 -14.738828 -48.812303 9
3.134852 -18.617847 -47.476407 9
4.977397 -23.296409 -45.374122 9
5.484591 -30.048373 -41.263505 9
-144.774891 30.237371 -1.586568 7
-136.696227 29.804585 -5.128894 7
-129.225969 29.112091 -8.207983 7
-122.338796 28.149737 -10.828446 7
-116.461786 26.578868 -12.548491 7
-101.082777 32.189641 -23.852213 8
-95.417680 30.822342 -25.630069 8
-89.952810 29.390759 -27.275277 8
-84.682301 27.890073 -28.787126 8
-79.616334 26.302317 -30.148055 8
-75.229907 24.215872 -30.842862 8
-71.271276 21.807523 -31.115853 8
-63.402890 22.896683 -35.711428 9
-55.667117 24.068527 -40.307019 9
-49.391785 24.084148 -43.402050 9
-44.259698 23.151754 -45.294548 9
-39.991410 21.467939 -46.256237 9
-35.892367 19.668711 -47.063496 9
-31.896436 17.810633 -47.787451 9
-27.981438 15.910163 -48.450204 9
-24.148003 13.961107 -49.047166 9
-20.405903 11.946785 -49.562112 9
-16.741743 9.875386 -50.007216 9
-13.136595 7.762679 -50.402552 9
-9.640934 5.543496 -50.678843 9
-6.209150 3.263794 -50.889933 9
-2.876803 0.872777 -50.983759 9
0.358622 -1.636330 -50.957058 9
3.488430 -4.285425 -50.790783 9
6.531184 -7.061343 -50.503203 9
9.418644 -10.069883 -49.989003 9
12.138416 -13.347929 -49.217367 9
14.605324 -17.042424 -48.047044 9
16.721733 -21.334259 -46.307936 9
18.020544 -26.995030 -43.248094 9
-150.000069 28.584299 9.911974 7
-138.668234 30.171966 3.220900 7
-129.853341 30.302693 -1.201561 7
-122.135032 29.851316 -4.677915 7
-105.352320 36.109617 -17.410119 8
-99.195642 34.984480 -19.653473 8
-93.252523 33.806296 -21.761649 8
-87.683540 32.440263 -23.559314 8
-82.211698 31.088291 -25.326635 8
-76.920536 29.678316 -26.970972 8
-71.801422 28.208673 -28.495279 8
-66.864327 26.662010 -29.882202 8
-58.490002 28.224268 -35.180990 9
-50.772192 29.420486 -39.901165 9
-45.538560 28.517678 -41.910662 9
-40.987309 27.062997 -43.198080 9
-36.717219 25.401635 -44.206652 9
-32.544720 23.698197 -45.143785 9
-28.466133 21.950437 -46.009692 9
-24.446355 20.189197 -46.843532 9
-20.543003 18.348830 -47.570392 9
-16.713708 16.467658 -48.238346 9
-12.938593 14.562818 -48.869338 9
-9.264786 12.575578 -49.398648 9
-5.630976 10.570601 -49.902265 9
-2.112986 8.451907 -50.275107 9
1.364515 6.303316 -50.613586 9
4.744370 4.047287 -50.834955 9
8.062821 1.721685 -50.983924 9
11.265253 -0.754457 -50.976769 9
14.407171 -3.317126 -50.886128 9
17.440645 -6.042853 -50.634841 9
20.351157 -8.967109 -50.191226 9
23.114073 -12.144021 -49.505652 9
25.699349 -15.641513 -48.516331 9
28.009406 -19.642082 -47.048276 9
29.789741 -24.605349 -44.656097 9
30.757556 -31.089928 -40.812744 9
-135.036375 28.412564 10.476180 7
-124.149038 30.018820 3.798398 7
-104.366441 38.283482 -12.227639 8
-97.856384 37.376818 -14.878971 8
-91.717372 36.312609 -17.235241 8
-85.842350 35.155451 -19.397398 8
-80.137443 33.967172 -21.457707 8
-74.716650 32.647175 -23.285289 8
-69.414255 31.318942 -25.053570 8
-62.581245 31.391172 -28.619087 9
-54.215780 32.967887 -34.056977 9
-47.322728 33.447692 -37.958930 9
-44.749310 30.105184 -36.909611 9
-37.903564 30.786290 -40.944298 9
-33.711895 29.065324 -41.901074 9
-29.455046 27.461976 -42.981977 9
-25.312603 25.798905 -43.967668 9
-21.245407 24.109675 -44.902252 9
-17.244232 22.399470 -45.794130 9
-13.314748 20.657810 -46.632858 9
-9.473658 18.860854 -47.392794 9
-5.733877 16.986917 -48.051821 9
-2.030537 15.104984 -48.692563 9
1.604445 13.173346 -49.268837 9
5.158149 11.169857 -49.758243 9
8.645102 9.105606 -50.176216 9
12.070971 6.981472 -50.526359 9
15.407129 4.752155 -50.761781 9
18.690569 2.459167 -50.931171 9
21.881377 0.038824 -50.968835 9
25.015906 -2.467120 -50.923316 9
28.046410 -5.139004 -50.713186 9
30.983619 -7.974984 -50.345549 9
33.819237 -11.002902 -49.796700 9
36.460577 -14.392063 -48.899417 9
38.919151 -18.154531 -47.651738 9
40.968712 -22.716862 -45.636390 9
42.088498 -29.083590 -41.877298 9
-104.285269 39.822361 -6.052564 8
-97.357709 39.160503 -9.182097 8
-90.740679 38.404048 -12.086652 8
-84.515972 37.475525 -14.666158 8
-78.564355 36.449260 -17.037517 8
-72.918133 35.285526 -19.154417 8
-67.365206 34.144644 -21.245689 8
-59.075340 35.438765 -26.566855 9
-50.500012 37.204834 -32.389818 9
-44.618190 36.794809 -35.207876 9
-39.834019 35.500353 -36.806741 9
-35.289188 34.058331 -38.177551 9
-30.809024 32.622760 -39.524881 9
-26.442548 31.141980 -40.785058 9
-22.421934 29.372448 -41.657777 9
-18.260519 27.797547 -42.752604 9
-14.214506 26.154955 -43.742839 9
-10.204810 24.523597 -44.727747 9
-6.307198 22.816108 -45.603615 9
-2.470782 21.082869 -46.434017 9
1.286846 19.298493 -47.191170 9
4.967484 17.458783 -47.872985 9
8.613889 15.610720 -48.536234 9
12.198479 13.716072 -49.138550 9
15.688004 11.725107 -49.626277 9
19.129172 9.691495 -50.063154 9
22.504692 7.585900 -50.418804 9
25.826208 5.417430 -50.706074 9
29.066369 3.139049 -50.876514 9
32.266834 0.803214 -50.990280 9
35.374073 -1.679540 -50.954436 9
38.420903 -4.270373 -50.814646 9
41.364074 -7.050873 -50.489275 9
44.137916 -10.149921 -49.850863 9
46.557405 -13.919749 -48.547971 9
48.517708 -18.609734 -46.346485 9
49.857303 -24.602956 -42.886586 9
49.928361 -33.257733 -36.850165 9
-106.116077 40.026460 2.250572 8
-97.921223 40.186931 -2.267633 8
-90.673495 39.826831 -5.892771 8
-83.965463 39.207886 -9.039947 8
-77.629820 38.433515 -11.876477 8
-71.601627 37.537041 -14.462095 8
-65.884991 36.499234 -16.780025 8
-56.012681 39.097695 -24.064246 9
-47.959919 40.403565 -29.405701 9
-42.430946 39.673681 -31.869094 9
-37.656773 38.362562 -33.496222 9
-32.982648 37.035939 -35.063103 9
-28.422480 35.675274 -36.548305 9
-23.966734 34.283609 -37.959180 9
-19.591611 32.879138 -39.322092 9
-15.328290 31.424915 -40.592591 9
-11.400250 29.674485 -41.466250 9
-7.344341 28.110231 -42.552820 9
-3.377246 26.500028 -43.562183 9
0.510401 24.848288 -44.502682 9
4.354979 23.192292 -45.421712 9
8.103459 21.464492 -46.240360 9
11.794696 19.705336 -47.009733 9
15.434895 17.917988 -47.735546 9
18.990544 16.053667 -48.363483 9
22.528880 14.195271 -48.991477 9
25.974008 12.235418 -49.498851 9
29.373480 10.231938 -49.954294 9
32.727959 8.180403 -50.354942 9
36.012084 6.036607 -50.654425 9
39.253645 3.834443 -50.892981 9
42.404314 1.489825 -50.982404 9
45.358251 -1.186081 -50.726178 9
48.016703 -4.392026 -49.924678 9
50.378011 -8.179372 -48.539950 9
52.400295 -12.676827 -46.455414 9
54.090269 -17.936750 -43.637327 9
55.538377 -23.855062 -40.212561 9
54.170381 -35.597817 -30.989862 9
-100.864891 39.520125 7.391124 8
-92.023962 40.217565 1.976915 8
-84.394621 40.208599 -2.233990 8
-77.469250 39.823132 -5.773893 8
-71.016887 39.207996 -8.882415 8
-64.081274 39.125148 -12.669849 9
-53.525182 42.261894 -20.921854 9
-45.870837 43.206614 -25.900518 9
-40.647983 42.190909 -28.043107 9
-35.735007 40.989707 -29.877556 9
-30.967610 39.737699 -31.597442 9
-26.177991 38.588146 -33.412356 9
-21.717665 37.197933 -34.866227 9
-17.273047 35.861857 -36.357198 9
-12.931830 34.489461 -37.767767 9
-8.666895 33.103323 -39.130094 9
-4.506162 31.668390 -40.402016 9
-0.640676 29.962447 -41.308789 9
3.287510 28.374434 -42.344410 9
7.190303 26.806796 -43.385849 9
11.001574 25.177909 -44.334458 9
14.744328 23.508952 -45.219086 9
18.453469 21.839073 -46.088781 9
22.070023 20.087867 -46.849900 9
25.659832 18.335723 -47.599907 9
29.172657 16.510248 -48.256135 9
32.644728 14.655172 -48.871837 9
36.031913 12.700823 -49.369888 9
39.387130 10.717188 -49.832646 9
42.705252 8.692010 -50.248056 9
45.787803 6.300410 -50.260863 9
48.614265 3.474111 -49.808678 9
51.152851 0.118566 -48.803209 9
53.505353 -3.635778 -47.399982 9
55.679726 -7.810969 -45.587438 9
57.690545 -12.418233 -43.365899 9
59.759710 -17.068541 -41.151724 9
60.824810 -23.882196 -36.762418 9
-98.395029 36.942407 15.731693 8
-87.030320 39.563647 7.239870 8
-78.604604 40.223667 1.937937 8
-71.336347 40.171022 -2.157120 8
-63.699295 40.588776 -6.832369 9
-51.518053 45.018345 -17.213681 9
-44.398702 45.476272 -21.634567 9
-39.050294 44.545504 -23.973742 9
-33.986809 43.459333 -26.034482 9
-29.131221 42.272248 -27.902862 9
-24.317659 41.130697 -29.786874 9
-19.728219 39.854779 -31.443213 9
-15.074802 38.720783 -33.250136 9
-10.736143 37.343173 -34.692989 9
-6.396785 36.034581 -36.193755 9
-2.181382 34.660746 -37.577341 9
1.974946 33.285858 -38.930400 9
6.045431 31.875696 -40.211149 9
9.887233 30.254836 -41.202461 9
13.689227 28.633061 -42.174339 9
17.505463 27.075383 -43.207820 9
21.267453 25.496498 -44.197873 9
24.929470 23.831578 -45.068358 9
28.553224 22.154776 -45.911761 9
32.125457 20.444240 -46.703662 9
35.627397 18.667838 -47.408592 9
39.110433 16.893750 -48.108479 9
42.508223 15.019145 -48.686243 9
45.719304 12.874101 -48.953254 9
48.700575 10.363064 -48.811674 9
51.385740 7.341347 -48.112798 9
53.914842 4.001431 -47.085146 9
56.356689 0.435430 -45.839192 9
58.725863 -3.350798 -44.388079 9
60.998833 -7.421633 -42.669298 9
63.304473 -11.553312 -40.928489 9
64.385898 -18.270049 -36.513076 9
56.919544 -43.003126 -13.422023 9
-84.254824 37.167390 15.201714 8
-73.555506 39.649160 6.987854 8
-65.578421 40.225184 1.868527 8
-50.454395 46.985778 -12.326139 9
-46.777779 44.440730 -12.470605 9
-37.872964 46.532447 -19.343555 9
-32.592776 45.609948 -21.716880 9
-27.522899 44.595703 -23.898480 9
-22.625723 43.513166 -25.928828 9
-17.892659 42.360520 -27.811451 9
-13.231639 41.220446 -29.665490 9
-8.701442 40.028952 -31.405936 9
-4.283462 38.797562 -33.052739 9
0.014068 37.510171 -34.588329 9
4.197204 36.165311 -36.015073 9
8.339885 34.840013 -37.437012 9
12.369751 33.446898 -38.742819 9
16.357167 32.062750 -40.034236 9
20.156520 30.503079 -41.080560 9
23.862211 28.871559 -42.018846 9
27.598265 27.323529 -43.044101 9
31.284413 25.754486 -44.026958 9
34.888523 24.115121 -44.909792 9
38.481086 22.498361 -45.807041 9
41.977167 20.778026 -46.569697 9
45.328632 18.869211 -47.102903 9
48.401735 16.542826 -47.148469 9
51.243034 13.834672 -46.762187 9
53.909673 10.804043 -46.024473 9
56.485884 7.565443 -45.074883 9
59.063666 4.262578 -44.080293 9
61.552087 0.723362 -42.852615 9
63.957220 -3.063111 -41.387160 9
65.109069 -9.402799 -37.192459 9
67.535048 -13.454830 -35.542378 5
69.834403 -17.900565 -33.515386 5
71.568383 -23.725419 -30.084194 5
-70.472549 37.454308 14.547195 8
-50.469673 48.063893 -6.014971 9
-42.764953 48.908975 -11.325485 9
-37.055128 48.210563 -14.197502 9
-31.590099 47.412315 -16.845463 9
-26.352099 46.516607 -19.281868 9
-21.216936 45.628220 -21.665659 9
-16.331239 44.599175 -23.789478 9
-11.549247 43.559445 -25.845529 9
-6.917365 42.455694 -27.762923 9
-2.432938 41.281077 -29.537712 9
1.960081 40.086694 -31.244671 9
6.280727 38.888339 -32.907911 9
10.481812 37.627615 -34.452051 9
14.572280 36.306250 -35.883849 9
18.612852 34.989565 -37.292317 9
22.555829 33.615059 -38.598511 9
26.457557 32.247098 -39.888032 9
30.219424 30.752785 -40.994800 9
33.829792 29.102412 -41.888016 9
37.487410 27.558047 -42.897681 9
41.086842 25.974673 -43.843915 9
44.591754 24.292400 -44.656830 9
47.817370 22.217546 -44.989804 9
50.773606 19.727954 -44.831327 9
53.563415 16.951181 -44.345895 9
56.283242 14.021152 -43.699076 9
58.962721 10.974304 -42.938034 9
61.732282 8.031658 -42.318321 9
64.220981 4.521762 -41.079328 9
65.868896 -0.673804 -37.989956 5
68.954971 -3.253434 -37.862979 5
71.937120 -6.074233 -37.484253 5
74.836282 -9.117988 -36.881187 5
77.582073 -12.561358 -35.870576 5
80.043378 -16.742135 -34.104273 5
81.795457 -22.730593 -30.473375 5
-53.244025 46.875934 3.983486 9
-42.901547 49.830066 -4.817826 9
-36.677115 49.514411 -8.397234 9
-30.943643 48.902922 -11.433845 9
-25.460799 48.186015 -14.232170 9
-20.140336 47.432558 -16.903109 9
-15.100768 46.518270 -19.271451 9
-10.140836 45.626016 -21.611417 9
-5.355620 44.654790 -23.781379 9
-0.775216 43.561331 -25.727227 9
3.748323 42.491812 -27.660167 9
8.140929 41.361267 -29.464735 9
12.396619 40.153585 -31.124001 9
16.590617 38.947268 -32.748757 9
20.724384 37.740583 -34.338450 9
24.719679 36.432155 -35.761653 9
28.657650 35.114102 -37.143970 9
32.515686 33.752480 -38.443609 9
36.342753 32.407039 -39.739745 9
40.059521 30.965038 -40.891039 9
43.563062 29.266390 -41.702891 9
46.944049 27.420092 -42.320640 9
50.045184 25.169622 -42.437296 9
52.991735 22.673657 -42.260278 9
55.804101 19.941390 -41.809858 9
58.619725 17.180484 -41.340896 9
61.403934 14.327817 -40.780413 9
64.352449 11.724014 -40.527757 9
65.974760 6.642212 -37.434244 5
69.236323 4.490161 -37.750269 5
72.452703 2.247474 -37.967083 5
75.587589 -0.170695 -37.993077 5
78.672626 -2.717285 -37.886350 5
81.697728 -5.429103 -37.610762 5
84.613080 -8.437840 -37.028304 5
87.409262 -11.799290 -36.087939 5
90.031561 -15.687172 -34.614624 5
92.141741 -21.019426 -31.652106 5
-44.015157 49.943605 3.121174 9
-37.089314 50.145002 -1.426892 9
-30.887769 49.876785 -5.125767 9
-24.991470 49.476464 -8.523179 9
-19.488074 48.842950 -11.478924 9
-14.105842 48.214095 -14.364085 9
-9.043735 47.385665 -16.881673 9
-4.099433 46.542889 -19.314783 9
0.703640 45.654700 -21.622534 9
5.314670 44.657160 -23.719201 9
9.799798 43.610092 -25.696703 9
14.183015 42.532448 -27.586057 9
18.479036 41.434831 -29.405427 9
22.625165 40.235406 -31.046630 9
26.713964 39.037151 -32.654410 9
30.740561 37.830343 -34.217526 9
34.646738 36.533706 -35.631131 9
38.494762 35.220720 -36.996099 9
42.281181 33.881923 -38.302326 9
45.914646 32.379917 -39.377119 9
49.183942 30.382412 -39.809092 9
52.267264 28.114657 -39.899494 9
55.176922 25.569307 -39.650108 9
58.042287 22.930147 -39.296497 9
60.932909 20.304644 -38.972504 9
63.808335 17.623299 -38.594495 9
65.541843 12.858138 -35.756206 5
68.920781 10.969275 -36.363327 5
72.265702 9.031943 -36.910482 5
75.551486 6.989447 -37.334503 5
78.799843 4.873484 -37.675639 5
81.996205 2.643628 -37.891010 5
85.143601 0.292643 -37.976582 5
88.250330 -2.175302 -37.941173 5
91.283002 -4.853704 -37.685829 5
94.245575 -7.758185 -37.200201 5
97.108610 -10.991515 -36.380238 5
99.805123 -14.772299 -35.001787 5
102.182702 -19.591377 -32.560234 5
-38.906922 49.580114 7.636905 9
-31.718138 50.078283 2.548825 9
-25.226836 50.134385 -1.710687 9
-19.238933 49.884404 -5.383688 9
-10.332666 52.607353 -13.492261 4
-5.211363 51.874794 -16.193721 4
-1.439759 49.872658 -16.936144 4
2.046418 47.607862 -17.270507 9
6.624323 46.546792 -19.343242 9
11.287970 45.670316 -21.630761 9
15.751612 44.662544 -23.677746 9
20.130283 43.643097 -25.661014 9
24.389988 42.565476 -27.518768 9
28.549537 41.443953 -29.275392 9
32.622459 40.288146 -30.947872 9
36.639066 39.131398 -32.584335 9
40.566779 37.925637 -34.122584 9
44.386323 36.635862 -35.520231 9
47.837610 34.874745 -36.277890 9
51.064712 32.810575 -36.632821 9
54.069307 30.415505 -36.562438 9
57.060136 27.987801 -36.456812 9
59.988355 25.443447 -36.212586 9
62.895156 22.839829 -35.905490 9
64.871968 18.585706 -33.588774 9
68.214989 16.654162 -34.141324 5
71.665884 14.938186 -34.949142 5
75.065785 13.151995 -35.665416 5
78.425146 11.306851 -36.306559 5
81.728953 9.363384 -36.829304 5
85.000764 7.359317 -37.281127 5
88.233637 5.270733 -37.637182 5
91.422194 3.073994 -37.873889 5
94.563575 0.748205 -37.971655 5
97.669137 -1.695079 -37.947761 5
100.716129 -4.330043 -37.724356 5
103.722799 -7.132400 -37.334064 5
106.459121 -10.769330 -36.059959 5
108.691675 -16.034198 -33.076023 5
-34.599834 48.486216 13.346140 9
-26.728879 49.656209 7.091731 9
-8.511653 60.767312 -14.715592 4
-4.045383 59.414590 -16.507281 4
-0.469818 57.254990 -17.003769 4
2.182349 54.181540 -16.090032 4
5.074564 51.335011 -15.534839 4
7.907545 48.411573 -14.874152 9
12.447908 47.368037 -16.989481 9
17.078337 46.517617 -19.333995 9
21.611715 45.652496 -21.601986 9
25.948843 44.646420 -23.617369 9
30.209210 43.631454 -25.574772 9
34.386575 42.594627 -27.458721 9
38.445069 41.482437 -29.198706 9
42.482220 40.417146 -30.966182 9
46.174485 38.944636 -32.150065 9
49.580011 37.107808 -32.826485 9
52.733463 34.921577 -33.031560 9
55.807159 32.616374 -33.080799 9
58.811742 30.196343 -32.984919 9
61.831110 27.786895 -32.909037 9
64.818105 25.308189 -32.752218 9
67.160231 21.679992 -31.165909 5
70.712480 20.142489 -32.207043 5
74.212671 18.548957 -33.165570 5
77.667961 16.904793 -34.050961 5
81.070569 15.186524 -34.837612 5
84.437451 13.418965 -35.558430 5
87.757767 11.571092 -36.179205 5
91.045132 9.662126 -36.725751 5
94.309242 7.705518 -37.216248 5
97.519712 5.620533 -37.560223 5
100.701203 3.451695 -37.812873 5
103.860541 1.204856 -37.983863 5
106.814698 -1.629106 -37.508437 5
109.420918 -5.533099 -35.871646 5
111.579784 -10.945610 -32.626222 5
110.983711 -25.229814 -19.832562 5
-14.979134 66.791289 -8.575317 1
-6.979451 68.500687 -15.549317 1
0.522801 70.004476 -22.001532 1
3.493291 67.395147 -21.702688 1
2.976646 61.336968 -15.956297 4
5.739521 58.415135 -15.238320 4
8.194668 55.153391 -14.008249 4
10.457810 51.646299 -12.429171 4
13.344318 48.777381 -11.843568 9
18.172351 48.109616 -14.541594 9
22.798009 47.316494 -16.990351 9
27.349054 46.536296 -19.400043 9
31.729211 45.645244 -21.594832 9
35.947765 44.640472 -23.578495 9
40.131177 43.674632 -25.573144 9
44.142568 42.560426 -27.318715 9
47.823950 41.057754 -28.493761 9
51.191594 39.150145 -29.094725 9
54.308333 36.890444 -29.211503 9
57.427231 34.633712 -29.332705 9
60.506783 32.312767 -29.370232 9
63.565097 29.949809 -29.356196 9
65.100944 24.986581 -25.989994 9
68.456972 23.035215 -26.545966 5
73.183148 23.589682 -30.266711 5
76.763648 22.177322 -31.456007 5
80.086790 20.312953 -32.067826 5
83.547032 18.740527 -33.033240 5
86.961834 17.108461 -33.914879 5
90.351146 15.450773 -34.756625 5
93.676577 13.675665 -35.450612 5
96.989441 11.887012 -36.124272 5
100.247524 9.978362 -36.654102 5
103.497493 8.050939 -37.161997 5
106.591196 5.709779 -37.195519 5
109.386370 2.508244 -36.260313 5
111.839172 -1.795076 -34.111780 5
113.900008 -7.499536 -30.449880 5
114.124164 -19.343897 -20.073856 5
-20.474569 68.473713 1.004443 1
-8.542922 73.372214 -11.783334 1
-3.743639 72.278566 -14.140908 1
0.856470 71.094565 -16.276893 1
6.593866 71.086826 -20.276406 1
9.398052 68.342191 -19.738411 1
8.831054 62.167340 -13.726555 4
10.962227 58.597882 -11.967839 4
12.950571 54.817056 -9.916828 4
14.125118 50.064154 -6.413173 9
18.960694 49.356835 -9.144812 9
23.805055 48.772687 -11.994304 9
28.476034 48.097083 -14.639265 9
32.985180 47.330625 -17.088307 9
37.404378 46.552198 -19.463376 9
41.653287 45.649473 -21.606211 9
45.639256 44.479681 -23.322265 9
49.295244 42.918991 -24.452086 9
52.571239 40.853972 -24.857563 9
55.750108 38.657478 -25.075327 9
58.919527 36.450665 -25.276795 9
62.052938 34.188589 -25.402540 9
64.086939 30.108518 -23.106558 9
67.740660 28.666265 -24.340710 5
71.500067 27.461900 -25.864784 5
75.208536 26.231179 -27.329044 5
78.885967 25.005512 -28.775961 5
82.477918 23.675533 -30.068023 5
86.054250 22.368261 -31.369568 5
89.347208 20.519698 -31.980495 5
92.753082 18.930672 -32.906108 5
96.140797 17.331901 -33.809888 5
99.482899 15.654899 -34.610350 5
102.791767 13.917956 -35.332771 5
106.012018 11.969595 -35.800633 5
108.966924 9.309386 -35.435119 5
111.591293 5.660249 -33.938479 5
114.088390 1.478607 -31.867922 5
114.190549 -10.210829 -21.291698 5
119.750217 -5.438215 -29.508053 6
122.755437 -8.558173 -28.757235 6
125.627028 -12.284721 -27.360568 6
128.152418 -17.505024 -24.362003 6
-11.378278 82.449497 -10.959394 1
-5.121304 82.515925 -15.501917 1
-4.925784 77.453184 -10.942585 1
-0.623859 75.942976 -12.619887 1
3.157303 74.020745 -13.540910 1
5.546620 70.814802 -12.272832 1
11.574106 71.148051 -16.893923 1
14.016590 68.031377 -15.744842 1
13.330980 61.623326 -9.299643 4
14.952024 57.458945 -6.587655 4
16.060079 52.632650 -2.892748 4
13.262371 43.224455 7.853792 9
24.410488 49.761243 -6.187571 9
29.308408 49.303991 -9.259602 9
34.021561 48.743602 -12.102786 9
38.546630 48.060433 -14.696509 9
42.949682 47.325068 -17.153621 9
46.994057 46.204207 -18.995127 9
50.529542 44.444592 -19.878182 9
53.853262 42.413120 -20.356207 9
57.046010 40.202199 -20.572835 9
60.253304 38.017973 -20.823731 9
63.497589 35.897544 -21.159438 9
65.039572 30.964977 -17.662367 9
69.502126 30.848920 -20.730836 5
73.386836 29.853939 -22.568128 5
77.151682 28.721688 -24.191262 5
80.873231 27.578986 -25.772908 5
84.524579 26.368103 -27.240137 5
88.127642 25.122642 -28.639863 5
91.682784 23.836040 -29.966238 5
95.194199 22.509439 -31.223316 5
98.476477 20.710838 -31.876562 5
101.848693 19.139139 -32.804349 5
105.166593 17.462863 -33.595111 5
108.253728 15.210344 -33.683663 5
111.047729 12.135726 -32.796398 5
113.468276 7.900989 -30.560973 5
114.198208 -1.534386 -22.273471 5
119.551599 2.575371 -29.901365 6
122.736692 0.253282 -29.989722 6
125.893934 -2.216426 -29.919623 6
129.005872 -4.921346 -29.596945 6
132.053227 -7.974660 -28.902383 6
135.022165 -11.492836 -27.717406 6
137.752149 -16.241432 -25.213731 6
-13.785154 91.762026 -10.729111 3
-9.411829 90.183323 -12.447681 3
-5.121462 88.607784 -14.106645 3
-1.148296 86.833593 -15.342850 1
2.177035 84.551139 -15.620239 1
5.068288 81.902397 -15.230262 1
6.096601 77.534470 -11.841994 1
8.218362 74.099839 -10.139078 1
10.875407 71.140113 -9.277439 1
16.569577 71.221529 -13.525747 1
19.353280 68.442288 -12.924909 1
16.170635 59.263973 -1.877353 4
15.343048 52.277870 5.365948 4
18.745348 49.830566 5.203846 9
24.478255 50.124906 0.733356 9
29.773842 50.070845 -3.084542 9
34.700428 49.712985 -6.342244 9
39.449654 49.261931 -9.380104 9
44.000008 48.674253 -12.141141 9
48.030982 47.493008 -13.956624 9
51.609594 45.750173 -14.905904 9
54.893723 43.617096 -15.267262 9
58.204542 41.535930 -15.695885 9
61.494601 39.436299 -16.090171 9
64.758690 37.306098 -16.434793 9
67.068595 33.597995 -14.579442 5
71.090790 32.730605 -16.676146 5
75.060842 31.864813 -18.734854 5
78.922383 30.892552 -20.611560 5
82.716228 29.875871 -22.395126 5
86.434788 28.790763 -24.057158 5
90.087298 27.644552 -25.611369 5
93.690293 26.461712 -27.093130 5
97.240191 25.226369 -28.484704 5
100.758464 23.978184 -29.839536 5
104.175621 22.545315 -30.943198 5
107.326307 20.487325 -31.255290 5
109.981084 17.121300 -29.957368 5
112.677710 13.737074 -28.670713 5
114.271942 7.071179 -23.449489 5
118.892344 8.985089 -28.613301 6
122.166962 7.054063 -29.128355 6
125.421551 5.045198 -29.552936 6
128.649473 2.920970 -29.846373 6
131.845254 0.640324 -29.965445 6
135.024085 -1.766804 -29.949719 6
138.163242 -4.417553 -29.670762 6
141.261933 -7.362397 -29.079692 6
144.296417 -10.769983 -27.998043 6
147.188909 -15.121541 -25.909362 6
-9.484203 96.197745 -10.921076 3
-3.959291 95.572608 -14.479931 3
-0.487239 93.404888 -14.998928 3
4.431844 92.482545 -17.809527 3
8.544738 90.968728 -19.438851 3
12.568320 89.442117 -20.986339 3
11.594480 83.390989 -14.392843 1
14.157432 80.472341 -13.489545 1
17.469286 78.263053 -13.833942 1
19.562481 74.850942 -12.094908 1
20.846400 70.547379 -8.881614 1
22.145339 66.151138 -5.587288 1
16.250829 47.373651 17.067435 9
16.519304 41.106034 22.958660 9
29.494630 49.943477 4.663194 9
34.908292 50.098448 0.466916 9
40.012988 50.027916 -3.276743 9
44.723649 49.589977 -6.366243 9
48.837366 48.464653 -8.338708 9
52.426742 46.681424 -9.277048 9
55.782687 44.595515 -9.744188 9
59.174246 42.579611 -10.303755 9
62.506792 40.491347 -10.746524 9
64.635134 36.475752 -8.411567 9
68.365459 35.009467 -9.752153 5
71.296989 32.219970 -9.205714 5
76.608350 33.643380 -14.536197 5
80.540320 32.775189 -16.603405 5
84.428712 31.917714 -18.646493 5
88.211101 30.943398 -20.494627 5
91.952588 29.969097 -22.310240 5
95.594915 28.865499 -23.923854 5
99.189560 27.728078 -25.466910 5
102.751009 26.582585 -26.975320 5
106.060202 24.893396 -27.763391 5
108.964710 22.201562 -27.269592 5
111.672017 18.919434 -26.050433 5
114.166862 14.924167 -23.974370 5
117.938830 14.417762 -26.252272 6
121.290996 12.771445 -27.102765 6
124.615836 11.056275 -27.863480 6
127.921186 9.284810 -28.552480 6
131.189297 7.382602 -29.083784 6
134.438553 5.393271 -29.513621 6
137.665055 3.283640 -29.806603 6
140.876807 1.062617 -29.977315 6
144.068000 -1.319352 -29.972899 6
147.238920 -3.895701 -29.760753 6
149.997249 -8.706616 -27.053161 6
151.122855 -22.948410 -13.900022 6
-9.772145 102.015680 -9.072692 2
-5.497591 100.371739 -10.757140 2
-1.329266 98.712801 -12.341646 2
0.350209 95.105021 -10.077202 3
6.119063 94.850795 -14.278420 3
3.985774 87.950043 -5.812546 1
15.267834 92.678384 -19.184689 3
21.441418 93.194395 -24.450605 3
25.285094 91.703670 -25.933260 3
19.277382 80.704869 -10.415795 1
21.104995 77.022215 -8.170263 1
22.377454 72.695786 -4.856812 1
27.367792 47.595593 16.252589 9
34.176653 49.318542 9.331862 9
39.929830 49.964857 4.292643 9
45.023689 49.943483 0.424884 9
49.263563 48.913602 -1.783504 9
52.911765 47.139083 -2.795584 9
56.389365 45.155984 -3.466658 9
59.813648 43.117504 -4.038838 9
63.279075 41.163199 -4.723245 9
65.114784 36.599171 -1.560816 9
69.338253 35.869303 -4.037516 5
73.699199 35.488015 -6.963708 5
77.915092 34.980907 -9.651151 5
81.991486 34.338700 -12.094847 5
86.003390 33.685663 -14.475915 5
89.848359 32.810163 -16.505212 5
93.668930 31.978093 -18.556591 5
97.371943 30.988456 -20.358547 5
101.053757 30.034640 -22.177469 5
104.552608 28.737290 -23.511473 5
107.704627 26.647255 -23.787132 5
110.529094 23.706219 -22.960484 5
113.373352 20.724604 -22.105083 5
116.674644 18.917927 -22.768244 6
120.137579 17.590483 -24.030483 6
123.566950 16.211335 -25.212769 6
126.929363 14.661053 -26.170245 6
130.255300 13.012350 -26.998719 6
133.564624 11.316853 -27.764877 6
136.852352 9.544421 -28.434728 6
140.119864 7.683591 -28.997783 6
143.377396 5.758345 -29.485758 6
146.603434 3.654819 -29.768199 6
149.825062 1.464746 -29.957432 6
148.244882 -25.987769 -1.179484 6
-8.334224 104.267582 -5.027454 2
-1.922299 104.215471 -10.060660 2
2.796882 103.014450 -12.591188 2
5.450911 100.246677 -11.903094 2
7.523468 96.989123 -10.257058 2
11.134628 95.008294 -11.112868 3
13.609507 92.065608 -10.095428 3
26.174187 98.279528 -26.297268 3
29.754573 96.616058 -27.438681 3
20.189779 82.282749 -5.388829 1
22.439760 78.990570 -3.825448 1
38.395961 48.041177 15.106469 9
44.529598 49.243167 9.091035 9
49.142983 48.610527 6.136002 9
52.923883 46.922079 4.910683 9
56.477341 44.950247 4.155547 9
60.068019 43.063297 3.288652 9
63.618780 41.146752 2.486864 9
64.986024 35.719853 6.971914 9
69.877093 35.986616 2.905782 5
74.526448 36.019745 -0.730176 5
78.988377 35.883877 -4.044263 5
83.237920 35.506480 -6.943035 5
87.349881 34.998829 -9.598354 5
91.345132 34.382056 -12.048070 5
95.245298 33.683083 -14.336531 5
99.038163 32.860084 -16.411507 5
102.769894 31.997599 -18.395305 5
106.181801 30.473185 -19.450397 5
109.174372 27.950006 -19.154620 5
112.009149 24.966463 -18.261434 5
114.213477 20.181886 -15.031470 5
118.722434 21.641977 -19.978358 6
122.210380 20.401102 -21.364868 6
125.660592 19.103557 -22.660688 6
129.079512 17.757519 -23.879162 6
132.489622 16.428867 -25.105217 6
135.831285 14.898674 -26.068199 6
139.143277 13.277191 -26.911072 6
142.437674 11.593420 -27.672866 6
145.716757 9.841650 -28.349427 6
148.977957 7.992351 -28.908388 6
146.038715 -25.024999 7.338470 6
149.990422 -25.626337 4.979800 6
-3.115400 109.276019 -6.833684 2
1.019292 107.568725 -8.443333 2
3.082212 104.322239 -6.781085 2
8.055179 103.363918 -9.833675 2
10.080516 100.085334 -8.098959 2
10.070341 95.034297 -2.881557 3
14.784628 93.974155 -5.605949 3
30.751304 103.200520 -28.058396 3
32.341579 99.750442 -25.777044 3
31.376750 93.771443 -18.810993 3
47.701851 46.493227 17.237754 9
52.073623 45.475889 14.813753 9
55.765902 43.562745 13.871275 9
59.444592 41.665358 12.927862 9
63.141700 39.832805 11.906730 9
56.398588 21.062019 36.897983 9
66.491413 29.471077 20.095007 5
74.753067 35.482687 7.257944 5
79.624107 35.975459 2.890449 5
84.157184 36.041099 -0.757661 5
88.462644 35.837466 -3.939191 5
92.638151 35.523946 -6.898504 5
96.647378 35.004131 -9.505899 5
100.555355 34.389487 -11.929678 5
104.293368 33.504939 -13.932002 5
107.600459 31.686178 -14.609915 5
110.486619 28.829204 -13.861883 5
113.466751 26.133959 -13.353125 5
117.065011 25.055901 -15.024998 6
120.669185 24.074825 -16.799243 6
124.204395 22.975499 -18.390864 6
127.679457 21.762699 -19.811792 6
131.135205 20.549799 -21.213294 6
134.558472 19.286098 -22.531723 6
137.945159 17.943035 -23.733810 6
141.321977 16.607348 -24.931753 6
144.646491 15.097615 -25.901323 6
147.954081 13.533117 -26.795741 6
144.133397 -22.317122 14.008620 6
148.052698 -23.289902 12.028099 6
2.768005 110.026004 -4.943196 2
4.585187 106.587151 -2.845982 2
7.876876 104.269255 -3.150714 2
12.378905 102.966135 -5.525690 2
13.113068 98.564980 -1.498507 2
31.565939 109.511110 -28.368899 3
35.204541 107.987448 -29.778879 3
34.948083 102.898597 -24.188625 3
33.981814 96.953115 -17.099908 3
79.212022 34.131431 12.944369 5
84.521447 35.500166 7.191805 5
89.227341 35.967005 2.899997 5
93.650408 36.068557 -0.766215 5
97.831074 35.837679 -3.874830 5
101.908786 35.534480 -6.817797 5
105.608658 34.507353 -8.673433 5
108.789169 32.312600 -8.850657 5
111.660572 29.317898 -7.913691 5
114.151435 25.221121 -5.479754 5
118.813401 26.927459 -11.029357 6
122.467582 26.066114 -13.001607 6
126.065521 25.137005 -14.850947 6
129.622439 24.173069 -16.625078 6
133.115525 23.085988 -18.210585 6
136.565925 21.925298 -19.677762 6
139.979440 20.694911 -21.035457 6
143.377404 19.463127 -22.374375 6
146.737153 18.127205 -23.565572 6
150.068482 16.705600 -24.636732 6
145.943793 -21.612880 20.082180 6
150.189528 -20.990075 16.092769 6
1.169405 110.017461 4.104943 2
6.100293 108.869860 1.118096 2
7.371407 104.943319 4.250351 2
12.170662 103.806590 1.376469 2
35.988556 114.181872 -30.096946 3
38.312223 111.546655 -29.229572 3
37.480510 105.973697 -22.502469 3
36.615060 100.157867 -15.478621 3
35.697887 94.066369 -8.106927 3
89.050028 34.197590 12.799705 5
94.144469 35.513028 7.166372 5
98.700237 35.964757 2.932970 5
102.977071 36.012381 -0.620293 5
106.640440 34.813346 -2.290492 5
109.727351 32.282438 -2.013896 5
112.615220 29.194034 -0.953364 5
116.496860 28.656706 -3.514285 6
120.385662 28.278987 -6.251503 6
124.145158 27.676786 -8.629661 6
127.836190 26.996820 -10.860461 6
131.432025 26.132812 -12.804747 6
134.994745 25.262020 -14.708977 6
138.512231 24.333274 -16.506775 6
141.954609 23.214002 -18.027262 6
145.374000 22.077150 -19.504047 6
148.764710 20.888641 -20.894821 6
144.801740 -15.104149 22.212560 6
148.613243 -16.677408 20.925554 6
40.290904 118.725523 -31.778711 3
40.813271 114.555293 -27.633424 3
40.020640 109.052055 -20.864255 3
39.224183 103.335606 -13.849796 3
38.372618 97.343206 -6.475636 3
98.738782 34.250577 12.713897 5
103.602464 35.447813 7.295589 5
107.305391 34.204276 5.612909 5
110.265192 31.203024 6.544886 5
113.162205 27.947291 7.824063 5
117.554452 28.618122 3.421743 6
121.713525 28.893191 -0.332047 6
124.714393 25.934455 0.545143 6
129.440522 28.299381 -6.033576 6
133.132898 27.698731 -8.388578 6
136.765300 27.029063 -10.609270 6
140.321849 26.211833 -12.593509 6
143.837322 25.350483 -14.487401 6
147.319550 24.463080 -16.317958 6
150.728002 23.353658 -17.829350 6
147.238875 -11.357221 24.504044 6
150.998444 -13.131992 23.478709 6
41.030623 124.699465 -32.075397 3
43.968886 122.710881 -32.466937 3
43.277992 117.527599 -26.001498 3
42.562099 112.127754 -19.262330 3
41.797331 106.475428 -12.187091 3
41.031283 100.600595 -4.851662 3
106.838553 30.828395 17.942115 5
109.575273 26.974018 20.086652 5
110.103141 17.176561 31.010470 5
122.404110 27.602990 8.499159 6
126.787821 28.615698 3.628413 6
130.835779 28.877207 -0.078436 6
134.688351 28.722397 -3.129187 6
138.419047 28.331143 -5.795034 6
142.059606 27.771861 -8.182348 6
145.630157 27.085547 -10.355817 6
149.147150 26.309947 -12.373244 6
146.123967 -4.888517 26.526620 6
149.773358 -7.091093 26.079792 6
45.173202 129.001352 -33.682891 3
46.372841 125.593335 -30.858743 3
45.721409 120.477391 -24.358239 3
45.070080 115.169080 -17.628055 3
44.397906 109.637593 -10.612916 3
43.664239 103.829341 -3.213126 3
131.687819 27.598836 8.723252 6
135.945472 28.641206 3.837404 6
139.882435 28.866220 0.209834 6
143.665431 28.753815 -2.875095 6
147.328896 28.368606 -5.524075 6
150.406948 25.559011 -4.769826 6
148.820347 0.126524 26.997147 6
45.868367 134.766733 -33.945359 3
49.211299 133.194389 -35.252263 3
48.780021 128.474875 -29.283830 3
48.190900 123.446566 -22.794253 3
47.584807 118.213018 -16.037849 3
46.956543 112.756685 -8.988452 3
140.862244 27.480386 9.161451 6
142.315367 17.816957 19.742974 6
148.859080 28.841156 0.563960 6
148.271339 8.968350 25.448533 6
49.870015 138.851726 -35.494033 3
51.670233 136.081026 -33.903947 3
51.168149 131.336763 -27.697995 3
50.621744 126.378387 -21.181792 3
50.079815 121.235646 -14.437837 3
49.494942 115.853568 -7.353325 3
149.978860 27.365821 9.645921 6
53.791959 142.850805 -37.041330 3
56.994410 141.274772 -38.286519 3
60.164056 139.717845 -39.513219 3
53.062294 129.315390 -19.615123 3
52.556574 124.238627 -12.828115 3
52.039899 118.953454 -5.761727 3
59.523708 144.190730 -37.267875 3
63.843636 143.606161 -40.934027 3
66.927231 142.074813 -42.133800 3
69.978354 140.558949 -43.310162 3
58.401657 144.199770 -28.716800 3
63.557482 144.207324 -34.124825 3
68.496457 144.195271 -39.269587 3
73.274962 144.200818 -44.258829 3
76.435603 142.877223 -45.824717 3
79.372350 141.395277 -46.941095 3
82.319613 139.964894 -48.125103 3
62.495449 144.202779 -25.428102 3
