ply
format ascii 1.0
element vertex 1424
property float x
property float y
property float z
property int scalar_Label
end_header
81.139819 13.941216 35.341894 5
81.852734 12.005483 36.068670 5
82.421291 10.042794 36.659364 5
82.864738 8.052471 37.132509 5
83.180352 6.028205 37.485620 5
83.451968 3.990934 37.798962 5
83.574614 1.903743 37.972298 5
83.548897 -0.239755 38.006391 5
83.398370 -2.437732 37.923924 5
83.109951 -4.700760 37.712599 5
82.626253 -7.057359 37.317898 5
82.010345 -9.491028 36.800255 5
81.136333 -12.060307 36.039957 5
79.949834 -14.800289 34.985654 5
78.398537 -17.748420 33.588108 5
76.276496 -21.015887 31.652072 5
76.130604 -23.422061 31.600158 5
76.450864 -25.618343 31.994357 5
71.723748 -30.358934 27.597993 5
65.325923 -36.120139 21.624793 9
59.078686 -42.008031 15.805553 9
-0.987110 104.223144 -38.358710 3
2.986958 100.228243 -34.698479 3
6.859869 96.366858 -31.127010 3
21.279950 90.736473 -17.663328 3
17.852120 88.439563 -20.923250 3
48.311560 48.724597 7.397402 9
52.986456 46.408464 11.792324 9
55.961452 44.136083 14.594073 9
58.586967 41.919959 17.070376 9
60.909851 39.749380 19.265152 9
63.111899 37.627639 21.348981 9
65.057579 35.536303 23.194616 9
66.762023 33.466642 24.816254 9
68.385069 31.428821 26.363862 5
70.503073 29.499074 28.377996 5
72.508663 27.604761 30.288746 5
73.762710 25.635807 31.496855 5
73.075880 23.350048 30.887889 5
73.648445 21.282543 31.462201 5
74.905528 19.365593 32.680314 5
75.998734 17.441193 33.747054 5
76.926417 15.502121 34.660973 5
77.759464 13.558824 35.488534 5
78.460173 11.597449 36.194520 5
78.979873 9.599092 36.733516 5
79.438403 7.590349 37.217752 5
79.792582 5.555476 37.606933 5
79.979475 3.470151 37.842382 5
80.054257 1.345188 37.975835 5
79.998142 -0.830821 37.989918 5
79.785704 -3.072722 37.861108 5
79.430100 -5.382607 37.601925 5
78.896939 -7.780091 37.180565 5
78.144620 -10.289645 36.558597 5
77.169334 -12.922649 35.732882 5
75.829790 -15.749232 34.572394 5
74.043462 -18.821888 33.001099 5
72.054476 -22.049859 31.246772 5
72.627377 -24.148959 31.877470 5
71.365901 -27.129968 30.808337 5
63.763932 -33.313457 23.863609 5
63.683123 -35.885419 23.903174 9
58.584479 -41.117491 19.299426 9
19.416795 93.486800 -14.850335 3
20.177119 90.493309 -14.208264 3
13.723518 88.701784 -20.175668 3
46.510141 48.731478 9.621821 9
51.671955 46.434016 14.367957 9
54.667575 44.171272 17.128130 9
57.139802 41.954527 19.410681 9
59.350282 39.781760 21.455771 9
61.415418 37.652295 23.370197 9
63.303552 35.557081 25.124848 9
65.001648 33.487477 26.707737 9
66.583816 31.444934 28.186854 9
66.954678 29.274834 28.557465 5
69.044998 27.368522 30.507819 5
70.091961 25.343060 31.503804 5
69.231580 23.004851 30.754137 5
70.198383 20.985323 31.682278 5
71.419151 19.037801 32.845646 5
72.541492 17.096057 33.921276 5
73.475527 15.135339 34.826928 5
74.308391 13.169005 35.642486 5
74.976982 11.176602 36.310299 5
75.539200 9.166847 36.883469 5
75.945131 7.121059 37.316480 5
76.263252 5.052894 37.672079 5
76.427498 2.938010 37.890050 5
76.450475 0.773876 37.982115 5
76.345014 -1.441326 37.960196 5
76.089431 -3.720863 37.804741 5
75.655449 -6.081646 37.490247 5
75.070612 -8.521102 37.042133 5
74.206758 -11.096247 36.344054 5
73.055174 -13.822822 35.388637 5
71.548108 -16.741977 34.114896 5
69.487485 -19.955387 32.343656 5
68.271317 -22.860740 31.345262 5
69.056846 -24.887771 32.168047 5
66.562906 -28.469090 30.020754 9
65.531232 -31.417742 29.205282 9
62.200013 -35.573376 26.314006 9
57.539653 -40.532474 22.229765 9
19.109781 93.079106 -10.707856 3
19.084317 90.252887 -10.790045 3
9.475179 88.976421 -19.459501 3
12.844263 82.637057 -16.539103 1
11.946795 79.855810 -17.387594 1
11.837818 76.969340 -17.524502 1
11.889070 74.068368 -17.513260 1
11.883605 71.176775 -17.548537 1
11.906797 68.285885 -17.553730 1
50.017073 46.448223 16.614892 9
53.156788 44.196135 19.444749 9
55.602441 41.983378 21.654591 9
57.669868 39.805203 23.527968 9
59.649854 37.671013 25.325883 9
61.515399 35.574546 27.024029 9
63.164767 33.499976 28.531064 9
64.672465 31.447776 29.913845 9
66.050123 29.413759 31.182801 9
66.592977 27.288182 31.705967 9
66.429902 25.059040 31.599395 5
67.150034 22.975264 32.287834 9
67.276571 20.794556 32.447438 9
67.881656 18.708085 33.038984 5
68.998208 16.741332 34.091507 5
69.972393 14.766050 35.019289 5
70.760229 12.765834 35.783086 5
71.447166 10.754658 36.459490 5
71.947912 8.705547 36.972354 5
72.367393 6.640115 37.415644 5
72.638142 4.535060 37.729214 5
72.736842 2.376964 37.892459 5
72.754853 0.187749 37.987143 5
72.630657 -2.056697 37.958566 5
72.296458 -4.386024 37.746572 5
71.787683 -6.796448 37.383102 5
71.079601 -9.304814 36.846503 5
70.109311 -11.944190 36.081261 5
68.769332 -14.769078 34.992428 5
67.271323 -17.707586 33.768799 9
67.304655 -20.042344 33.910052 9
65.243876 -23.315755 32.198284 9
66.425389 -25.177895 33.366334 9
65.993220 -27.779989 33.108183 9
63.573571 -31.372400 31.096819 9
60.417245 -35.416011 28.442432 9
56.190116 -40.115431 24.852029 9
18.013889 92.825404 -7.332062 3
18.035828 90.009124 -7.376786 3
5.195922 89.248779 -18.690905 3
13.436972 85.075222 -11.522966 1
13.006239 82.277490 -11.951780 1
11.983002 79.544882 -12.895836 1
9.433584 76.955236 -15.174692 1
9.491938 74.055464 -15.161133 1
9.479158 71.166314 -15.205254 1
9.457711 68.280262 -15.252263 1
6.790190 65.547332 -17.617724 4
39.665376 48.683322 11.208971 9
47.769853 46.443477 18.333722 9
51.444321 44.211716 21.571773 9
53.978308 42.006928 23.811817 9
56.137742 39.838852 25.726365 9
57.940431 37.694379 27.331036 9
59.671627 35.586802 28.876195 9
61.219038 33.500972 30.263247 9
62.772390 31.452524 31.658632 9
64.110662 29.411872 32.868421 9
65.363270 27.389462 34.006148 9
66.519903 25.380099 35.062772 9
66.479755 23.190244 35.073692 9
65.273273 20.779014 34.066576 9
66.716225 18.856482 35.383912 9
67.291956 16.783182 35.944870 9
67.279856 14.587708 35.994771 9
67.214031 12.373380 36.001398 9
67.773092 10.307399 36.558085 5
68.311817 8.244176 37.100289 5
68.678453 6.140698 37.495501 5
68.909971 4.000568 37.776226 5
69.022574 1.823010 37.956807 5
68.975666 -0.409871 38.002052 5
68.760711 -2.707618 37.904808 5
68.365203 -5.081645 37.654511 5
67.755496 -7.551622 37.222253 5
67.269405 -10.001866 36.902245 9
67.231438 -12.303587 36.976311 9
67.216384 -14.607639 37.074453 9
66.455823 -17.228751 36.530007 9
65.678311 -19.889167 35.976173 9
66.740042 -21.777601 37.020819 9
65.725741 -24.586423 36.271670 9
63.747834 -27.884764 34.695387 9
61.502770 -31.379834 32.896034 9
58.546220 -35.303246 30.491068 9
54.726393 -39.763406 27.351728 9
16.977946 92.565097 -3.946403 3
16.986528 89.769728 -4.007411 3
0.839908 89.526026 -17.908581 3
14.073759 84.620476 -6.626218 1
14.028218 81.811237 -6.719430 1
4.813124 80.101634 -14.672772 1
1.702829 77.510284 -17.387258 1
1.362210 74.582868 -17.720978 1
16.009776 70.425356 -5.185669 1
15.964525 67.655196 -5.253636 1
15.296574 64.921352 -5.851339 4
15.214165 62.146802 -5.941548 4
15.211283 59.369115 -5.958613 4
15.224786 56.592069 -5.956740 4
15.208786 53.816160 -5.975341 4
15.214531 51.040190 -5.970407 4
35.475161 48.645744 11.432482 9
44.947764 46.420972 19.575127 9
49.315803 44.208917 23.338157 9
52.320996 42.028408 25.934613 9
54.384351 39.856859 27.726058 9
56.151108 37.711161 29.266462 9
57.738813 35.590918 30.656706 9
59.324163 33.507979 32.048373 9
60.893541 31.460364 33.429688 9
62.125608 29.404722 34.525018 9
63.357306 27.376810 35.623369 9
64.419945 25.349771 36.580107 9
65.406895 23.332809 37.475304 9
66.349140 21.328447 38.335513 9
66.878503 19.262621 38.845546 9
65.834564 16.877144 38.012814 9
65.523842 14.621936 37.811948 9
66.473328 12.648322 38.692698 9
67.316085 10.666774 39.485446 9
67.248051 8.463734 39.503586 9
67.213630 6.261427 39.554509 9
67.313743 4.089678 39.724294 9
67.297333 1.878279 39.798728 9
67.247269 -0.351824 39.848637 9
67.292271 -2.560439 39.983712 9
67.260623 -4.802336 40.057725 9
67.242093 -7.049348 40.147180 9
66.782603 -9.467189 39.866326 9
65.509342 -12.215089 38.899627 9
65.816277 -14.387799 39.279419 9
66.751511 -16.308022 40.195710 9
66.273820 -18.806009 39.918775 9
65.055043 -21.649035 39.020229 9
63.582322 -24.650610 37.913658 9
61.583201 -27.947299 36.369825 9
59.386137 -31.406049 34.667307 9
56.542445 -35.254976 32.428831 9
37.356278 -47.400289 16.446445 9
13.360006 101.238327 -2.511015 2
13.379486 98.407080 -2.584479 2
14.946816 95.283371 -1.357153 3
15.930490 92.311249 -0.611931 3
15.959835 89.530530 -0.659985 3
15.026088 86.906088 -1.509632 1
14.986744 84.135060 -1.604910 1
14.912947 81.372181 -1.723818 1
12.824269 78.849948 -3.527207 1
12.848692 76.055844 -3.553724 1
12.890575 73.264155 -3.560315 1
17.150643 70.135625 -0.021861 1
17.193514 67.404131 -0.016519 1
16.978152 64.690316 -0.222811 4
16.987905 61.963128 -0.235041 4
16.996800 59.237590 -0.242878 4
16.959472 56.514118 -0.284420 4
16.991665 53.789879 -0.262488 4
16.981244 51.066371 -0.271239 4
31.134205 48.606309 11.617213 9
40.632204 46.352780 19.601187 9
37.117018 43.768535 16.663770 9
49.982018 42.011649 27.481550 9
52.427408 39.860981 29.555687 9
54.326805 37.725247 31.175314 9
55.875281 35.601977 32.504204 9
57.510205 33.524032 33.909308 9
58.878529 31.452641 35.094402 9
60.140665 29.398526 36.194059 9
61.294293 27.357111 37.206335 9
62.365885 25.328185 38.153428 9
63.383065 23.313055 39.058486 9
64.220256 21.286680 39.816372 9
64.996467 19.265040 40.526819 9
65.763166 17.256178 41.232909 9
66.372240 15.227034 41.810791 9
66.733229 13.150374 42.185044 9
66.723881 10.986550 42.253886 9
66.137665 8.667925 41.845455 9
65.405246 6.288269 41.319918 9
65.156190 4.019648 41.202443 9
65.229132 1.832596 41.357880 9
65.150345 -0.407051 41.391328 9
65.023395 -2.672235 41.389257 9
64.793470 -4.983577 41.306240 9
66.349262 -6.688350 42.711384 9
67.022722 -8.679942 43.386686 9
66.058757 -11.276084 42.707787 9
65.935923 -13.581585 42.731841 9
65.005799 -16.224243 42.092561 9
64.077638 -18.901644 41.461154 9
62.743818 -21.788659 40.501002 9
61.325402 -24.760676 39.478248 9
59.443115 -27.994373 38.080620 9
57.254159 -31.435859 36.439030 9
54.639471 -35.156074 34.456643 9
50.375253 -39.780747 31.129526 9
7.454336 107.741218 -2.910958 2
11.119927 104.016904 -0.026035 2
12.300423 100.930621 0.837430 2
12.359212 98.109901 0.790640 2
14.742486 94.852079 2.651047 3
14.869786 92.063871 2.672774 3
14.897764 89.301101 2.618913 3
15.034817 86.527520 2.660008 1
15.039718 83.780974 2.598487 1
14.184982 81.150232 1.837967 1
11.800490 78.681364 -0.171595 1
11.810578 75.906781 -0.212996 1
13.689440 72.963371 1.284041 1
16.772496 69.972980 3.775224 1
16.778043 67.269181 3.747485 1
16.620895 64.576630 3.591625 4
16.616599 61.875364 3.566585 4
16.629992 59.174793 3.561449 4
16.631637 56.475725 3.552050 4
16.617049 53.777372 3.534701 4
16.632607 51.079038 3.547473 4
26.714143 48.566410 11.828930 9
36.526015 46.292720 19.893419 9
43.163514 44.122828 25.356096 9
47.422122 41.983413 28.870028 9
50.243134 39.850096 31.208007 9
52.295059 37.722978 32.918824 9
54.001262 35.612439 34.349944 9
55.491496 33.519004 35.607835 9
56.856100 31.444982 36.766589 9
58.179283 29.396351 37.895222 9
59.230031 27.338580 38.804407 9
60.370632 25.317125 39.791028 9
61.282462 23.282007 40.594080 9
62.101377 21.248758 41.324915 9
62.883148 19.224324 42.029210 9
63.625855 17.206662 42.705402 9
62.317168 14.758217 41.709112 9
62.432280 12.597698 41.881303 9
63.162925 10.583085 42.560340 9
63.840722 8.567362 43.200099 9
64.235852 6.486882 43.613292 9
62.823697 3.904011 42.558340 9
62.951322 1.728479 42.763143 9
62.835383 -0.525668 42.774364 9
62.724443 -2.789062 42.794538 9
62.441246 -5.120579 42.679747 9
62.851091 -7.229586 43.132566 9
62.093604 -9.753717 42.643279 9
61.381310 -12.290238 42.196665 9
62.442216 -14.175702 43.191076 9
62.707168 -16.358927 43.545399 9
60.295347 -19.642080 41.742681 9
58.970399 -22.540640 40.826096 9
58.909301 -24.934744 40.935613 9
57.165152 -28.099302 39.695972 9
55.162974 -31.442886 38.257703 9
52.271541 -35.277738 36.114966 9
45.791729 -40.964699 31.106243 9
7.695103 107.077630 1.537869 2
11.246277 103.423891 4.258362 2
11.272724 100.620897 4.173595 2
11.310454 97.823157 4.103969 2
13.788332 94.570555 5.991232 3
13.845737 91.813831 5.950442 3
13.872561 89.069139 5.891149 3
14.013586 86.312874 5.929191 1
14.053819 83.578984 5.892467 1
12.088610 81.107043 4.254957 1
10.794672 78.513328 3.160201 1
10.795683 75.757626 3.108758 1
12.974649 72.806439 4.809536 1
15.622458 69.874204 6.892956 1
15.654631 67.183923 6.884770 1
15.606506 64.500881 6.817853 4
15.592365 61.816909 6.783870 4
15.575472 59.133986 6.753342 4
15.604957 56.450743 6.765694 4
15.623569 53.768844 6.774977 4
15.600070 51.087328 6.756118 4
22.191997 48.525660 12.051994 9
32.309562 46.230842 20.182102 9
38.928287 44.032326 25.508667 9
43.979538 41.907893 29.581528 9
47.603397 39.809468 32.513154 9
50.015299 37.701717 34.476608 9
51.892261 35.601881 36.015132 9
53.524528 33.520172 37.361549 9
54.797589 31.434129 38.424129 9
56.076022 29.376967 39.495119 9
57.157806 27.320309 40.412639 9
58.184382 25.278238 41.290023 9
59.099752 23.239241 42.082451 9
60.006673 21.217158 42.872176 9
59.642479 18.972230 42.649709 9
58.296963 16.515509 41.648150 9
58.869060 14.431120 42.183946 9
59.453167 12.358241 42.733613 9
59.806431 10.238977 43.103414 9
59.737867 8.016347 43.141462 9
59.961010 5.862664 43.416830 9
60.022414 3.663110 43.568125 9
60.189622 1.488656 43.808455 9
59.969772 -0.805858 43.745966 9
59.855761 -3.080399 43.772850 9
59.549081 -5.429050 43.652126 9
59.244130 -7.793441 43.538358 9
58.719646 -10.252042 43.256406 9
58.629148 -12.574601 43.323865 9
59.021826 -14.726085 43.778655 9
57.021509 -17.815276 42.349039 9
55.611029 -20.728287 41.393493 9
55.593182 -23.106995 41.542998 9
56.708967 -25.008680 42.590076 9
54.894964 -28.195125 41.338633 9
43.298660 -35.921307 32.419866 9
49.228986 -35.710980 37.267044 9
6.330303 106.805901 4.650188 2
10.211165 103.101990 7.557400 2
10.235563 100.317878 7.465500 2
10.272378 97.538594 7.389707 2
12.143112 94.422860 8.753073 3
12.842250 91.563949 9.208467 3
12.886504 88.834277 9.158463 3
12.359111 86.196956 8.667406 1
12.418848 83.470067 8.641713 1
9.683203 81.102709 6.433342 1
9.733798 78.354126 6.412039 1
9.787146 75.610059 6.399076 1
11.344921 72.734640 7.571361 1
17.939998 69.505572 12.699263 1
17.965559 66.872623 12.684215 1
14.027427 64.456824 9.566598 4
14.064955 61.780498 9.572250 4
14.048864 59.107969 9.541801 4
14.063270 56.435418 9.541220 4
14.079666 53.763751 9.548143 4
14.080824 51.092570 9.549052 4
17.573925 48.484212 12.295224 9
27.887751 46.164370 20.397253 9
34.659130 43.942679 25.725009 9
39.784591 41.793700 29.766121 9
44.070415 39.711122 33.152913 9
47.117262 37.633153 35.572332 9
49.491080 35.565863 37.468299 9
51.145893 33.479956 38.804992 9
52.709466 31.420987 40.074475 9
53.995282 29.361802 41.130659 9
55.135135 27.310343 42.076837 9
56.074134 25.252776 42.870120 9
55.701116 23.000421 42.641661 9
55.498370 20.764728 42.551561 9
55.426611 18.544229 42.568976 9
55.975947 16.441240 43.076472 9
56.630637 14.369006 43.670754 9
56.816020 12.202309 43.903487 9
57.178857 10.076499 44.279438 9
57.404535 7.919547 44.553310 9
57.605229 5.755370 44.812646 9
57.631157 3.541733 44.941035 9
57.683708 1.329413 45.095312 9
57.539071 -0.947774 45.101715 9
57.436408 -3.223160 45.146197 9
57.173765 -5.560923 45.072233 9
56.808444 -7.948224 44.924603 9
56.291777 -10.406363 44.665990 9
55.756407 -12.893544 44.399327 9
55.041608 -15.471165 44.000734 9
54.161396 -18.141178 43.481601 9
53.153005 -20.895590 42.871177 9
52.017194 -23.739624 42.170561 9
50.677585 -26.711423 41.321637 9
52.600329 -28.296056 42.983689 9
49.819361 -31.971780 41.045184 9
42.945250 -37.640807 35.988205 9
3.344565 106.916851 6.504029 2
8.074017 103.029176 9.981935 2
8.734783 100.116442 10.369348 2
8.572222 97.388902 10.135949 3
10.015605 94.365890 11.135004 3
11.838303 91.317783 12.431611 3
11.843345 88.612054 12.347119 3
10.207137 86.156270 11.014222 1
10.253074 83.434945 10.973326 1
8.647083 80.925767 9.674808 1
8.749522 78.188512 9.689595 1
8.770611 75.465435 9.648567 1
9.128604 72.715883 9.872013 1
15.996233 69.473831 15.089436 1
16.064178 66.843087 15.104701 1
12.037338 64.435190 11.987607 4
12.071359 61.763868 11.988741 4
12.086952 59.095161 11.981996 4
11.936413 56.430687 11.854114 4
-14.673692 53.920539 -8.555385 4
11.728639 51.092805 11.688569 4
12.882696 48.442512 12.579649 9
23.263852 46.093574 20.550938 9
30.293576 43.851295 25.957563 9
35.491701 41.677154 29.964689 9
39.898938 39.573622 33.370029 9
43.802349 37.534431 36.393494 9
46.433036 35.472673 38.446065 9
48.624977 33.427014 40.166896 9
50.213592 31.362873 41.430127 9
51.696501 29.320669 42.616881 9
50.461702 26.938003 41.729201 9
50.977426 24.783435 42.186003 9
51.765661 22.681446 42.855995 9
52.491234 20.583528 43.482822 9
53.100445 18.477200 44.025533 9
53.645103 16.368208 44.523775 9
54.121218 14.253102 44.974577 9
54.470483 12.116180 45.333603 9
54.788705 9.974942 45.673998 9
55.042962 7.819857 45.970771 9
55.193057 5.637893 46.193489 9
55.227282 3.421740 46.333474 9
55.279109 1.204576 46.492281 9
55.153630 -1.070855 46.522126 9
55.014618 -3.361074 46.547500 9
54.724665 -5.710955 46.464506 9
54.344360 -8.106364 46.319371 9
53.846916 -10.560345 46.092169 9
53.318168 -13.047018 45.848039 9
52.564179 -15.639881 45.441052 9
51.689722 -18.307816 44.950783 9
50.642549 -21.076628 44.338447 9
49.252924 -24.022891 43.477302 9
47.432316 -27.197744 42.302205 9
49.500320 -28.741095 44.048172 9
45.456188 -32.978818 41.227587 9
-6.159882 108.531577 3.544026 2
4.610986 103.246444 11.425500 2
4.737195 100.434834 11.397075 2
8.830858 96.857638 14.332964 3
9.812369 93.955290 14.958582 3
10.165143 91.189791 15.122695 3
10.220967 88.485281 15.072144 3
7.934941 86.132636 13.278900 1
7.974156 83.414494 13.228620 1
6.029823 80.947131 11.701978 1
6.109597 78.210702 11.694947 1
6.169506 75.481581 11.679831 1
1.636922 73.162815 8.234013 1
13.711237 69.468106 17.226545 1
13.699415 66.843527 17.179153 1
9.046375 64.466492 13.661876 4
9.039296 61.789948 13.630373 4
9.047055 59.114039 13.616544 4
9.058332 56.439134 13.611902 4
9.039427 53.765202 13.591194 4
9.045898 51.091151 13.596042 4
9.042868 48.416907 13.600316 9
18.557543 46.022140 20.741929 9
25.766338 43.755573 26.161051 9
31.087382 41.557662 30.170847 9
35.385821 39.417493 33.419396 9
39.417105 37.356528 36.472380 9
42.490322 35.304051 38.812458 9
45.245707 33.290066 40.919019 9
47.416304 31.273194 42.592376 9
45.985764 28.858811 41.577456 9
47.266484 26.775399 42.595370 9
48.356387 24.690809 43.475452 9
49.269976 22.600309 44.228659 9
50.053204 20.505234 44.889428 9
50.718828 18.403005 45.467390 9
51.276566 16.291046 45.969912 9
51.771431 14.174551 46.430657 9
52.146415 12.038480 46.807272 9
52.406213 9.879313 47.103443 9
52.658155 7.718731 47.399141 9
52.800796 5.530220 47.619068 9
52.836048 3.310012 47.764876 9
52.825100 1.071002 47.882169 9
52.713810 -1.204651 47.931000 9
52.561860 -3.502804 47.955791 9
52.260892 -5.859637 47.876628 9
51.912555 -8.247578 47.768975 9
51.407542 -10.706113 47.552446 9
50.732476 -13.246231 47.217695 9
49.919565 -15.862940 46.788992 9
48.888784 -18.592233 46.208075 9
47.561451 -21.473668 45.418016 9
45.737278 -24.600044 44.273167 9
43.014464 -28.158502 42.481378 9
42.990674 -30.637880 42.673758 9
35.784493 -36.309207 37.634807 9
-0.831839 103.886314 11.482461 2
0.699746 100.752294 12.467263 2
6.412489 96.852903 16.505211 3
7.174696 93.993081 16.949372 3
7.627660 91.209232 17.175923 3
7.706595 88.500219 17.137109 3
5.686567 86.104382 15.573551 1
-15.108837 86.187077 0.306391 1
2.281877 81.105245 12.927332 1
-0.759155 78.699927 10.634899 1
-0.601855 75.909710 10.686091 1
2.275909 72.888341 12.733989 1
10.612780 69.523306 18.783614 1
10.602998 66.890152 18.736069 1
5.678367 64.516321 15.098388 4
5.732581 61.826225 15.110588 4
5.730259 59.140259 15.088290 4
5.790561 56.454016 15.118710 4
5.796706 53.770016 15.116347 4
-11.747158 50.984145 2.271813 4
4.008529 48.371168 13.814069 9
13.677604 45.947460 20.906136 9
21.136563 43.658102 26.385681 9
26.592337 41.436450 30.404076 9
30.966054 39.271258 33.635541 9
35.097303 37.188053 36.694346 9
38.273466 35.115833 39.059123 9
41.251738 33.095986 41.283759 9
43.712047 31.085897 43.134235 9
42.293842 28.655277 42.155899 9
43.909997 26.595813 43.399928 9
45.191079 24.521992 44.404163 9
46.296272 22.446892 45.284988 9
47.192205 20.358404 46.018203 9
47.952241 18.262190 46.657468 9
48.619176 16.161454 47.234086 9
49.125052 14.038693 47.698720 9
49.555798 11.906557 48.114075 9
49.885903 9.756251 48.461741 9
50.083319 7.576175 48.718636 9
50.263434 5.390457 48.968703 9
50.330201 3.172732 49.142416 9
50.278766 0.917254 49.236529 9
50.164407 -1.364600 49.291316 9
49.911671 -3.698182 49.252481 9
49.604828 -6.062481 49.181220 9
49.126697 -8.498002 48.993307 9
48.542390 -10.989429 48.736145 9
47.729838 -13.583840 48.322385 9
46.701320 -16.285678 47.761611 9
45.349910 -19.143552 46.977950 9
43.465764 -22.251343 45.822332 9
40.580466 -25.816952 43.961793 9
36.818314 -29.827555 41.488593 9
37.584324 -32.019718 42.258042 9
-3.454073 101.084193 13.526807 2
2.767345 97.080604 17.823310 3
6.711496 93.637560 20.513354 3
6.674619 90.960344 20.380017 3
-16.810314 91.949193 3.548509 3
3.697957 86.037459 18.065805 1
3.449573 83.365894 17.802272 1
3.020505 80.714447 17.416945 1
-10.618564 76.646055 7.539917 1
-4.451903 73.256015 11.884482 1
7.009498 69.614329 20.023018 1
7.052262 66.963881 20.011276 1
1.308272 64.616482 15.869405 4
1.312222 61.906195 15.843356 4
1.365894 59.195775 15.860093 4
1.381892 56.488106 15.857112 4
1.489166 53.780798 15.926630 4
-12.855650 50.992864 5.666457 4
-1.228506 48.323084 13.990097 9
8.698120 45.871800 21.103814 9
16.336577 43.556244 26.586803 9
21.943456 41.310347 30.622445 9
26.448396 39.122538 33.875481 9
30.628391 37.012697 36.901259 9
33.836086 34.913351 39.237119 9
36.921286 32.873943 41.490293 9
38.853753 30.777029 42.925147 9
37.952098 28.378410 42.342709 9
39.718946 26.310403 43.670288 9
41.238484 24.244362 44.826488 9
42.620648 22.188610 45.889791 9
43.719370 20.113612 46.756256 9
44.611876 18.023079 47.481130 9
45.443473 15.937329 48.167965 9
46.035833 13.817784 48.690102 9
46.523142 11.684578 49.143167 9
46.882566 9.528566 49.511129 9
47.151090 7.353764 49.820435 9
47.261529 5.139853 50.023703 9
47.330105 2.911373 50.203489 9
47.280080 0.645493 50.305697 9
47.102043 -1.665042 50.323998 9
46.807479 -4.021747 50.266852 9
46.365219 -6.438839 50.112672 9
45.806133 -8.912094 49.883644 9
44.969428 -11.499892 49.467233 9
43.900791 -14.196958 48.896394 9
42.436169 -17.071081 48.057023 9
40.372046 -20.212811 46.808127 9
37.760631 -23.624870 45.188284 9
34.278943 -27.455998 42.974306 9
33.125173 -30.434751 42.396503 9
28.470755 -34.925412 39.395366 9
-2.620419 97.630899 17.991237 3
3.810697 93.720306 22.337195 3
3.871571 91.021850 22.267975 3
-12.180252 90.819704 10.996103 3
-15.908133 88.489640 8.297913 3
1.605322 83.284944 20.400394 1
0.982444 80.663525 19.884230 1
0.270934 78.040981 19.313429 1
0.323926 75.331126 19.283003 1
0.324510 72.629853 19.223582 1
2.667591 69.757343 20.806675 1
2.767515 67.081370 20.832084 1
-5.687194 64.848694 14.891091 4
-5.660405 62.085893 14.879209 4
-5.662107 59.325725 14.855088 4
-5.661524 56.566342 14.840210 4
-5.710762 53.807775 14.798170 4
-6.398156 48.277371 14.325599 9
3.534799 45.792818 21.279481 9
11.345812 43.449358 26.757095 9
17.162712 41.180687 30.847575 9
21.811322 38.970123 34.127692 9
26.052565 36.833875 37.128668 9
29.343638 34.711299 39.471607 9
32.418052 32.640791 41.668462 9
33.323685 30.402836 42.358084 9
33.530700 28.099037 42.566810 9
35.294171 26.001606 43.866056 9
36.870108 23.914574 45.039950 9
38.245762 21.829282 46.079711 9
39.450446 19.743456 47.005863 9
40.486433 17.651354 47.820126 9
41.380738 15.552005 48.541434 9
42.137638 13.441107 49.172915 9
42.752003 11.312541 49.711202 9
43.201553 9.156083 50.141090 9
43.459495 6.959382 50.444340 9
43.606641 4.735438 50.677201 9
43.658608 2.484110 50.850716 9
43.540805 0.181512 50.913680 9
43.301743 -2.164963 50.899964 9
42.869178 -4.581260 50.760213 9
42.240064 -7.075571 50.492914 9
41.370115 -9.669431 50.068297 9
40.197281 -12.392422 49.444624 9
38.790948 -15.232151 48.670428 9
36.964620 -18.263735 47.619125 9
34.602273 -21.545556 46.213061 9
31.557397 -25.153343 44.354402 9
27.387734 -29.285870 41.744889 9
28.738070 -31.304194 42.901839 9
-0.486629 94.044511 23.249546 3
-0.316753 91.307584 23.248226 3
-14.409076 90.760449 13.566669 3
-6.253934 83.986723 18.908109 1
-0.650084 80.563920 22.634311 1
-0.636628 77.872420 22.566208 1
-0.630334 75.185059 22.501035 1
-0.642074 72.502179 22.431355 1
-0.638458 69.820382 22.379892 1
-0.614348 67.139537 22.350140 1
-13.391815 48.201953 13.525244 9
-1.694091 45.713986 21.521296 9
6.278634 43.342160 26.982449 9
12.415277 41.056024 31.197158 9
17.072085 38.815263 34.408434 9
21.321996 36.648259 37.347854 9
24.863289 34.515440 39.809676 9
27.850808 32.407419 41.899515 9
27.588691 30.015612 41.782170 9
28.894836 27.801342 42.739029 9
30.698478 25.678449 44.040203 9
32.307656 23.565762 45.214655 9
33.722287 21.456413 46.262426 9
34.934423 19.342223 47.178256 9
35.988507 17.223842 47.992481 9
36.904234 15.099304 48.718614 9
37.636481 12.954650 49.326256 9
38.202930 10.787028 49.827643 9
38.655197 8.601905 50.257950 9
38.971829 6.390057 50.602898 9
39.115165 4.137276 50.837363 9
39.081706 1.836341 50.959381 9
38.903028 -0.510758 50.990652 9
38.562914 -2.913972 50.920681 9
37.994607 -5.398789 50.705119 9
37.217202 -7.967831 50.357469 9
36.203991 -10.637316 49.860540 9
34.892387 -13.436523 49.173296 9
33.258469 -16.384672 48.280826 9
31.129873 -19.554306 47.069411 9
28.499924 -22.966202 45.536443 9
24.880816 -26.822011 43.359695 9
22.642837 -30.240993 42.115576 9
19.166274 -34.219470 40.064673 9
-8.025931 94.923553 22.096525 3
-7.320250 92.042996 22.440793 3
-12.133154 81.622544 18.835030 1
-8.549154 78.450488 21.134107 1
-7.649321 75.617294 21.658881 1
-7.460975 72.866769 21.719078 1
-7.284283 70.123788 21.779793 1
-7.178751 67.391279 21.801368 1
-19.219744 48.147862 13.667266 9
-7.107795 45.632003 21.751425 9
0.975455 43.228465 27.158753 9
7.287943 40.915482 31.393031 9
12.139281 38.652481 34.660439 9
16.499411 36.460694 37.606683 9
20.091897 34.300246 40.047744 9
23.101148 32.162677 42.106440 9
22.058765 29.659475 41.477678 9
24.168193 27.500554 42.950606 9
25.979019 25.347584 44.230977 9
27.642488 23.211456 45.419320 9
29.016010 21.065399 46.421120 9
30.277896 18.928378 47.354801 9
31.321118 16.777770 48.149557 9
32.196951 14.615419 48.839570 9
32.926958 12.439634 49.439310 9
33.492392 10.241297 49.936612 9
33.918079 8.019979 50.348140 9
34.210138 5.772041 50.678195 9
34.316069 3.479893 50.892503 9
34.213352 1.131115 50.976690 9
33.958308 -1.266859 50.968287 9
33.523612 -3.727206 50.849809 9
32.908703 -6.256681 50.621439 9
32.019195 -8.890281 50.222022 9
30.855039 -11.638033 49.652426 9
29.349013 -14.531781 48.869769 9
27.502625 -17.583553 47.876275 9
25.081396 -20.887343 46.520782 9
21.918199 -24.524174 44.696963 9
17.647579 -28.656764 42.170851 9
18.660244 -30.878828 43.080940 9
3.370687 -39.524440 33.471062 9
-52.621184 47.637892 -3.993789 9
-12.675588 45.547849 21.997124 9
-4.444911 43.113117 27.373005 9
1.992445 40.770145 31.589600 9
7.082164 38.486303 34.936582 9
11.353894 36.254714 37.758163 9
15.145071 34.076000 40.273526 9
18.247152 31.914363 42.347287 9
17.101995 29.372327 41.671429 9
19.217124 27.181348 43.117822 9
21.129608 25.008599 44.438896 9
22.766497 22.836991 45.587466 9
24.156808 20.661438 46.582508 9
25.479323 18.502239 47.539853 9
26.506762 16.317771 48.312635 9
27.415244 14.130187 49.014941 9
28.071510 11.909309 49.560956 9
28.634555 9.679117 50.053551 9
29.032483 7.420589 50.446604 9
29.231250 5.120085 50.718551 9
29.291493 2.785100 50.908782 9
29.166580 0.398905 50.987732 9
28.843880 -2.048454 50.947802 9
28.345965 -4.557900 50.804006 9
27.557997 -7.168605 50.483522 9
26.529838 -9.876141 50.019085 9
25.200713 -12.707994 49.372818 9
23.539216 -15.685126 48.525829 9
21.387000 -18.872166 47.378808 9
18.582973 -22.342174 45.831471 9
14.911780 -26.195173 43.750023 9
11.500973 -30.048693 41.850239 9
9.412777 -33.492050 40.801535 9
-31.118308 48.039773 14.174007 9
-18.503820 45.458718 22.196595 9
-10.028672 42.994448 27.599842 9
-3.473750 40.620096 31.791671 9
1.877453 38.315504 35.226541 9
6.135419 36.048761 37.974565 9
10.056151 33.845814 40.515031 9
13.264613 31.660442 42.610259 9
12.009311 29.078348 41.885665 9
14.196507 26.862255 43.347865 9
16.079599 24.652977 44.624030 9
17.773057 22.455953 45.786669 9
19.193306 20.252307 46.783100 9
20.473633 18.053997 47.697674 9
21.547282 15.844783 48.488411 9
22.358128 13.607378 49.120208 9
23.100414 11.370201 49.715690 9
23.624447 9.100217 50.180843 9
23.986403 6.801944 50.551346 9
24.128125 4.456527 50.791057 9
24.115773 2.071984 50.941929 9
23.936541 -0.360360 50.996349 9
23.519640 -2.864859 50.910552 9
22.896896 -5.441275 50.705092 9
21.989185 -8.119326 50.331331 9
20.837865 -10.896967 49.815939 9
19.362595 -13.807496 49.109897 9
17.396192 -16.915473 48.110716 9
14.893318 -20.253226 46.792132 9
11.668462 -23.902949 45.041572 9
7.257653 -28.053448 42.575661 9
7.244684 -30.719473 42.837112 9
-4.901060 -37.942891 35.652418 9
-37.482160 47.981056 14.361316 9
-24.436504 45.369022 22.456909 9
-15.834829 42.870372 27.808782 9
-9.107251 40.465709 32.007746 9
-3.547232 38.135985 35.490989 9
0.761348 35.837102 38.206679 9
4.774312 33.605836 40.746043 9
8.093687 31.395679 42.862984 9
6.709763 28.770562 42.081459 9
8.922064 26.522412 43.528791 9
10.872113 24.286763 44.820909 9
12.550931 22.053605 45.952404 9
14.018970 19.822712 46.960708 9
15.291344 17.589334 47.855290 9
16.345819 15.343073 48.622669 9
17.202625 13.080163 49.275549 9
17.868573 10.795149 49.818395 9
18.352140 8.483187 50.256726 9
18.687506 6.145254 50.611821 9
18.810006 3.761690 50.844443 9
18.753676 1.333129 50.975887 9
18.475805 -1.157203 50.980566 9
17.988090 -3.714023 50.866228 9
17.225915 -6.362054 50.594210 9
16.207649 -9.105759 50.176547 9
14.839302 -11.981520 49.557125 9
13.106885 -15.005851 48.728715 9
10.898095 -18.226810 47.624801 9
8.029974 -21.720613 46.136819 9
4.227813 -25.602808 44.101883 9
-0.429778 -29.878834 41.570931 9
-0.807763 -32.734261 41.628135 9
-44.336767 47.915936 14.389792 9
-30.560977 45.276478 22.728475 9
-21.755127 42.745169 28.073805 9
-14.861337 40.309437 32.272154 9
-9.282201 37.942765 35.684093 9
-4.817968 35.616542 38.430230 9
-0.634437 33.361782 41.013792 9
2.762800 31.123115 43.129862 9
1.276659 28.457001 42.311021 9
3.538868 26.178962 43.758163 9
5.495302 23.908975 45.028198 9
7.234975 21.648895 46.174814 9
8.685594 19.380983 47.154711 9
9.914501 17.106149 48.008589 9
11.010367 14.831759 48.789853 9
11.859046 12.532960 49.430265 9
12.492865 10.207550 49.949552 9
12.978184 7.861502 50.387752 9
13.265192 5.479207 50.715415 9
13.310235 3.044213 50.906947 9
13.156662 0.558349 50.988745 9
12.773261 -1.992843 50.942786 9
12.163643 -4.616374 50.771882 9
11.278966 -7.333071 50.447788 9
10.098827 -10.158109 49.959336 9
8.592846 -13.110503 49.289609 9
6.594392 -16.251442 48.341502 9
3.988231 -19.633715 47.048966 9
0.697740 -23.303004 45.369285 9
-3.876213 -27.482484 42.953681 9
-4.930339 -30.563633 42.619707 9
-15.412414 -37.029925 36.789539 9
-36.971994 45.178698 22.962565 9
-27.890590 42.615178 28.339013 9
-20.803898 40.148164 32.548854 9
-15.176637 37.745147 35.907145 9
-10.499879 35.394532 38.713410 9
-6.286165 33.104639 41.254351 9
-3.575876 30.766532 42.918553 9
-4.374572 28.129440 42.529270 9
-2.098299 25.815952 43.954216 9
-0.069924 23.517797 45.240927 9
1.674074 21.221970 46.368129 9
3.148471 18.921260 47.344691 9
4.414747 16.616283 48.206840 9
5.454821 14.297132 48.944226 9
6.292848 11.960539 49.571256 9
6.884609 9.591482 50.062447 9
7.342298 7.203910 50.483608 9
7.522293 4.763289 50.751438 9
7.542918 2.286263 50.935323 9
7.297971 -0.257085 50.974042 9
6.828476 -2.865847 50.892086 9
6.152522 -5.543146 50.700598 9
5.108003 -8.338727 50.306614 9
3.775144 -11.243131 49.757605 9
1.935784 -14.328453 48.929016 9
-0.344276 -17.592455 47.860475 9
-3.288556 -21.118930 46.425483 9
-7.264652 -25.047558 44.416164 9
-12.806879 -29.589492 41.531258 9
-12.356054 -32.224168 42.087176 9
-43.565327 45.078623 23.230162 9
-34.254402 42.480115 28.604874 9
-26.983745 39.979806 32.816738 9
-21.247355 37.542383 36.156074 9
-16.484999 35.157511 38.944303 9
-20.153440 32.206136 36.908476 9
-10.970948 30.324257 42.244736 9
-10.194814 27.793359 42.772607 9
-7.842666 25.450358 44.210808 9
-5.838847 23.111958 45.457328 9
-4.085377 20.779805 46.568365 9
-2.615902 18.440947 47.524892 9
-1.334479 16.100807 48.381896 9
-0.323798 13.739649 49.092467 9
0.508933 11.364770 49.709787 9
1.150559 8.967813 50.226653 9
1.493242 6.521325 50.582193 9
1.622848 4.033162 50.825711 9
1.554175 1.499408 50.966087 9
1.274398 -1.089542 50.996589 9
0.679011 -3.765745 50.858826 9
-0.192841 -6.529998 50.575797 9
-1.344567 -9.392528 50.146488 9
-3.004666 -12.424778 49.443534 9
-5.070646 -15.614885 48.526158 9
-7.691779 -19.020352 47.312378 9
-11.169306 -22.751497 45.636087 9
-15.945635 -26.976467 43.253995 9
-18.001334 -30.429079 42.407120 9
-26.751809 -36.192452 37.860178 9
-40.734947 42.344260 28.942280 9
-33.370779 39.806062 33.101556 9
-27.494884 37.334688 36.436816 9
-22.610939 34.917021 39.225528 9
-18.275050 32.556514 41.715695 9
-18.710835 29.862015 41.550141 9
-16.305503 27.437151 42.979277 9
-13.924678 25.057213 44.402741 9
-11.898161 22.681693 45.636637 9
-10.057243 20.321250 46.775092 9
-8.582810 17.944365 47.717611 9
-7.304117 15.565125 48.559448 9
-6.303297 13.163843 49.255236 9
-5.503948 10.744687 49.847727 9
-4.934928 8.295766 50.321270 9
-4.633496 5.802319 50.655697 9
-4.527498 3.270315 50.891425 9
-4.691427 0.677258 50.987853 9
-5.117419 -1.983983 50.950017 9
-5.851062 -4.732867 50.753613 9
-6.840273 -7.566742 50.428171 9
-8.278093 -10.543899 49.868809 9
-10.082845 -13.657287 49.121710 9
-12.415782 -16.964207 48.100235 9
-15.541082 -20.558851 46.662453 9
-19.694527 -24.538443 44.683187 9
-25.477054 -29.124427 41.840440 9
-24.810298 -31.765570 42.513936 9
-40.017639 39.624735 33.382101 9
-34.052720 37.114746 36.682853 9
-37.885670 34.070039 34.659702 9
-24.559852 32.270503 41.982002 9
-25.413113 29.501708 41.598916 9
-22.614257 27.070634 43.210627 9
-20.241240 24.648690 44.599226 9
-18.076421 22.248276 45.883017 9
-16.339270 19.834398 46.943096 9
-14.803950 17.425021 47.902178 9
-13.520416 15.006157 48.733402 9
-12.549512 12.559978 49.404192 9
-11.748636 10.100820 49.991991 9
-11.261014 7.597179 50.419863 9
-11.003009 5.055002 50.733449 9
-10.982101 2.465294 50.929238 9
-11.243614 -0.189326 50.983484 9
-11.762084 -2.912393 50.910595 9
-12.614334 -5.730307 50.670228 9
-13.821054 -8.659057 50.252374 9
-15.445710 -11.726466 49.624383 9
-17.615368 -14.980013 48.720097 9
-20.380691 -18.451577 47.514587 9
-23.993981 -22.233162 45.876389 9
-28.926446 -26.492875 43.559537 9
-32.045882 -30.308074 42.222516 9
-40.233737 -35.817243 38.235512 9
52.340490 136.852271 -223.442568 0
51.655732 141.263369 -221.401044 0
51.085994 145.559083 -219.482452 0
60.093373 145.527552 -224.626420 0
69.841768 145.366947 -230.255319 0
79.727374 145.357302 -235.923301 0
50.144617 137.539495 -216.522037 0
49.531620 141.878639 -214.589558 0
49.060777 146.092209 -212.795562 0
59.239063 145.489470 -218.667035 0
70.649754 144.573392 -225.350728 0
78.603675 145.365001 -229.514207 0
48.042207 138.191651 -209.815007 0
47.469681 142.474995 -207.965219 0
47.386538 146.473941 -206.494436 0
58.354643 145.472763 -212.786780 0
67.969420 145.303033 -218.066628 0
77.273895 145.469139 -223.074777 0
85.372985 146.324353 -227.202466 0
45.998350 138.825174 -203.288227 0
45.424165 143.073672 -201.489134 0
46.108083 146.681900 -200.588337 0
57.552925 145.426555 -207.060976 0
66.891969 145.345179 -212.029577 0
76.179377 145.483044 -216.909307 0
84.145770 146.358629 -220.851600 0
43.988860 139.451431 -196.918371 0
43.431650 143.656872 -195.181329 0
47.649619 145.589491 -196.681444 0
56.772736 145.377871 -201.441622 0
63.859819 146.252215 -204.799754 0
75.123343 145.489213 -210.873298 0
83.372312 146.214821 -214.906914 0
42.073794 140.040513 -190.739871 0
41.506482 144.217267 -189.044959 0
46.932065 145.548959 -191.306035 0
55.841566 145.404426 -195.812451 0
63.013317 146.211675 -199.145023 0
74.098483 145.490344 -204.956964 0
81.591298 146.496281 -208.410622 0
40.724372 136.437564 -186.359550 0
40.166598 140.634476 -184.688505 0
39.681165 144.738769 -183.094147 0
46.220225 145.512053 -186.016722 0
55.060118 145.370173 -190.368728 0
62.038789 146.234714 -193.497979 0
73.050716 145.509216 -199.121850 0
80.047356 146.689435 -202.182153 0
38.798478 137.083016 -180.366836 0
38.330071 141.202040 -178.800189 0
37.813472 145.289142 -177.231564 0
45.527170 145.472438 -180.818729 0
54.294597 145.335188 -185.017734 0
61.246296 146.184521 -188.052519 0
72.088431 145.499120 -193.432297 0
36.989086 137.677372 -174.563130 0
36.501634 141.773706 -173.029812 0
36.015356 145.814357 -171.524528 0
44.824990 145.442939 -175.691673 0
53.633579 145.258809 -179.809541 0
60.213786 146.247299 -182.544430 0
71.093252 145.510484 -187.810996 0
35.198186 138.269949 -168.880574 0
34.751873 142.314211 -167.416283 0
34.489825 146.215895 -166.087695 0
44.145640 145.408379 -170.652453 0
52.739246 145.294929 -174.538187 0
61.476126 145.296785 -178.462724 0
70.092332 145.531476 -182.272510 0
33.451710 138.847246 -163.330610 0
33.000658 142.862923 -161.906184 0
33.155000 146.532248 -160.858027 0
43.466292 145.379259 -165.684504 0
51.817271 145.349910 -169.329761 0
60.611885 145.295428 -173.185034 0
69.163496 145.528184 -176.858468 0
31.734296 139.416781 -157.899558 0
31.337671 143.374959 -156.547836 0
32.136571 146.701578 -155.895169 0
42.784327 145.356641 -160.784099 0
49.046122 146.260913 -163.167560 0
59.776676 145.287256 -167.999712 0
68.149586 145.568415 -171.476643 0
30.100826 139.950145 -152.613993 0
29.698512 143.881998 -151.298887 0
33.876596 145.534817 -152.525292 0
42.148674 145.317199 -155.975907 0
48.196937 146.296470 -158.178346 0
58.931780 145.289330 -162.882259 0
67.143315 145.611887 -166.178055 0
28.873619 136.532780 -148.722428 0
28.460147 140.493711 -147.418084 0
28.077287 144.386734 -146.152562 0
33.358849 145.468092 -147.938759 0
41.553078 145.263585 -151.252436 0
47.649514 146.198133 -153.418595 0
58.024052 145.325388 -157.803005 0
66.096137 145.679588 -160.934736 0
27.248022 137.104088 -143.586409 0
26.891569 141.006515 -142.351547 0
26.463331 144.894284 -141.100060 0
32.919622 145.367238 -143.450284 0
40.806006 145.286641 -146.510962 0
48.692609 145.367830 -149.534196 0
57.216406 145.322072 -152.845572 0
64.577410 145.960172 -155.528153 0
25.663527 137.659652 -138.560906 0
25.283467 141.545734 -137.351611 0
24.913674 145.375795 -136.167768 0
44.856464 139.209769 -145.270074 0
40.042093 145.322519 -141.823788 0
48.009254 145.339944 -144.800120 0
56.380166 145.336988 -147.939785 0
63.075521 146.240564 -150.216699 0
24.128591 138.194716 -133.646055 0
23.745011 142.054925 -132.472133 0
23.442172 145.823925 -131.357482 0
31.638892 145.374614 -134.433266 0
39.406653 145.301663 -137.260569 0
47.253256 145.350547 -140.090450 0
55.599676 145.331876 -143.125435 0
61.642867 146.497432 -145.022384 0
22.606473 138.728491 -128.819618 0
22.297083 142.522916 -127.717990 0
22.102005 146.211438 -126.689192 0
30.764589 145.499579 -129.897235 0
38.668034 145.334500 -132.704306 0
46.632561 145.302726 -135.504161 0
54.774927 145.351796 -138.351525 0
60.430962 146.663424 -140.010306 0
24.369742 137.520333 -125.623695 0
23.276146 141.737332 -124.178225 3
25.523012 144.196286 -124.309820 3
29.843107 145.652266 -125.399732 0
37.705632 145.479145 -128.102304 0
45.926939 145.298874 -130.933309 0
52.016765 146.256675 -132.762846 0
21.799887 142.228175 -119.528235 3
24.951554 144.199737 -120.064827 3
32.174880 144.202426 -122.419405 3
36.712016 145.643510 -123.547961 0
44.867558 145.465148 -126.260994 0
53.165579 145.387827 -129.000959 0
20.383563 142.692962 -114.978793 3
24.390898 144.201165 -115.872803 3
31.586662 144.195504 -118.138820 3
39.085329 144.188468 -120.504875 3
43.862623 145.610788 -121.674942 0
52.172821 145.498778 -124.331173 0
19.265668 139.446554 -111.470325 3
18.955905 143.168569 -110.495163 3
23.853317 144.194184 -111.736949 3
31.009222 144.186761 -113.910352 3
38.427113 144.196259 -116.163254 3
46.162891 144.204650 -118.517102 3
51.167536 145.620308 -119.716067 0
17.905754 139.916303 -107.051768 3
17.570667 143.626810 -106.098211 3
23.335568 144.180271 -107.653491 3
30.392816 144.200775 -109.711842 3
37.776301 144.204158 -111.873034 3
45.489377 144.199555 -114.136184 3
53.530942 144.198154 -116.498656 0
16.510481 140.409466 -102.685198 3
16.209174 144.077225 -101.777034 3
22.772300 144.192644 -103.594351 3
29.819612 144.196633 -105.575663 3
37.164718 144.196576 -107.644794 3
44.803406 144.204101 -109.798165 3
15.178742 140.872875 -98.408724 3
15.463819 144.208870 -97.756587 3
22.201978 144.211653 -99.574690 3
29.230114 144.203789 -101.476086 3
36.534672 144.201346 -103.453783 3
44.186676 144.179476 -105.532547 3
13.835027 141.346905 -94.189942 3
15.015863 144.187384 -93.891848 3
21.683311 144.207119 -95.615025 3
28.670229 144.199235 -97.429147 3
35.932212 144.195969 -99.316022 3
43.481956 144.200059 -101.278514 3
12.539863 141.798840 -90.049582 3
14.530055 144.188332 -90.049683 3
21.170803 144.202168 -91.695820 3
28.128582 144.188480 -93.428304 3
35.334368 144.191475 -95.221008 3
42.844901 144.191891 -97.092119 3
11.255403 142.248895 -85.971093 3
14.067618 144.179445 -86.251406 3
20.647566 144.205383 -87.809799 3
27.553830 144.197152 -89.454160 3
34.682271 144.216572 -91.147464 3
42.162649 144.208516 -92.931686 3
10.010686 142.681231 -81.962270 3
13.541733 144.206445 -82.466232 3
20.161017 144.192255 -83.971672 3
27.004993 144.195565 -85.525943 3
34.142593 144.189553 -87.149983 3
41.542579 144.198611 -88.832037 3
9.021206 139.569750 -78.733549 3
8.752677 143.124399 -78.003233 3
13.111715 144.185102 -78.745930 3
19.644440 144.197058 -80.157820 3
26.470075 144.189597 -81.637648 3
33.540675 144.195848 -83.168838 3
40.911261 144.197080 -84.766891 3
7.754239 140.044424 -74.796814 3
7.541507 143.545694 -74.111556 3
12.598315 144.210111 -75.031191 3
19.126019 144.205208 -76.376741 3
25.929854 144.188827 -77.781787 3
32.952174 144.198281 -79.227663 3
40.298601 144.189493 -80.744220 3
6.546329 140.489609 -70.929906 3
6.332343 143.969289 -70.270996 3
12.150533 144.202485 -71.367390 3
18.616288 144.211164 -72.630387 3
25.393974 144.188302 -73.960151 3
32.389995 144.190349 -75.328382 3
39.659067 144.197613 -76.749283 3
5.372091 140.919228 -67.122072 3
5.490676 144.195973 -66.582100 3
11.717930 144.188804 -67.736876 3
18.157694 144.192774 -68.928941 3
24.838075 144.200277 -70.164796 3
31.814341 144.191570 -71.458054 3
4.165173 141.370178 -63.353006 3
5.958953 143.710394 -63.279305 3
11.288073 144.175577 -64.134712 3
17.651741 144.201070 -65.243571 3
24.351232 144.179481 -66.418477 3
31.225294 144.201855 -67.616085 3
3.410528 134.852273 -60.818172 3
3.177194 138.364622 -60.219661 3
3.762252 141.374412 -59.835671 3
7.570906 142.599888 -60.267851 3
12.015146 143.546527 -60.848630 3
17.302179 144.129890 -61.625649 3
23.783659 144.201861 -62.680532 3
30.662950 144.201248 -63.811674 3
2.371530 131.857737 -57.651474 3
2.177832 135.369191 -57.083567 3
4.033790 137.660975 -57.019862 3
6.878466 139.408570 -57.192016 3
10.089682 140.991046 -57.445261 3
13.880026 142.308668 -57.827860 3
18.303602 143.354846 -58.349169 3
23.578826 144.041467 -59.056529 3
30.114846 144.195790 -60.039818 3
1.549765 125.270576 -55.041528 3
1.375813 128.840059 -54.493861 3
2.019521 131.871909 -54.142822 3
4.853251 133.594279 -54.301714 3
7.733043 135.324902 -54.464646 3
10.591967 137.103137 -54.616067 3
13.508028 138.885417 -54.773712 3
16.669035 140.573331 -54.979356 3
20.406095 142.002863 -55.305242 3
24.875948 143.115286 -55.782721 3
30.089731 143.931725 -56.410183 3
0.719948 118.591228 -52.387154 3
0.581482 122.212019 -51.864387 3
0.413528 125.802909 -51.339991 3
2.829061 127.758530 -51.395120 3
5.705368 129.460030 -51.546898 3
8.555737 131.212028 -51.686269 3
11.466396 132.963938 -51.832048 3
14.409329 134.733858 -51.977849 3
17.370043 136.530995 -52.120376 3
20.439408 138.307269 -52.278709 3
23.537726 140.108535 -52.435530 3
27.273224 141.624597 -52.717029 3
31.656632 142.873466 -53.121997 3
-0.272265 115.521232 -49.175295 3
-0.410504 119.168229 -48.675368 3
0.819373 121.886734 -48.470912 3
3.682921 123.567459 -48.610272 3
6.541006 125.285873 -48.741812 3
9.441243 127.013094 -48.875401 3
12.375465 128.755608 -49.009101 3
15.305673 130.536623 -49.134961 3
18.357730 132.285147 -49.278384 3
21.418865 134.067885 -49.416121 3
24.459704 135.900946 -49.542262 3
27.560470 137.741441 -49.672658 3
30.726931 139.588642 -49.808090 3
-1.166795 108.751246 -46.426874 3
-1.285859 112.464222 -45.950367 3
-1.191743 115.982262 -45.521143 3
1.654897 117.647853 -45.648175 3
4.572555 119.301034 -45.782748 3
7.405815 121.042536 -45.893770 3
10.335073 122.757804 -46.016954 3
13.304999 124.484042 -46.141035 3
16.264513 126.252965 -46.255944 3
19.300468 128.014081 -46.378255 3
22.369547 129.794761 -46.499358 3
25.470010 131.597214 -46.618722 3
28.617935 133.413953 -46.739136 3
-51.464104 -3.360646 -48.554604 9
-52.952703 4.587533 -47.604402 9
-52.366531 9.453392 -47.218753 9
-51.116226 13.312421 -47.013726 9
-49.177331 16.191198 -46.990054 9
-46.488438 18.068223 -47.157863 9
-42.221927 17.956693 -47.720279 9
-34.512476 13.663105 -49.131965 9
-2.184547 105.666683 -43.166528 3
-2.326849 109.424668 -42.710271 3
-0.323312 111.657471 -42.666934 3
2.492861 113.353176 -42.773492 3
5.371201 115.039768 -42.885172 3
8.292167 116.732421 -42.997998 3
11.287520 118.412861 -43.117566 3
14.225720 120.165201 -43.219472 3
17.278902 121.883259 -43.335083 3
20.273731 123.673892 -43.432734 3
23.404477 125.422637 -43.547167 3
26.523591 127.218024 -43.651718 3
-108.967786 5.104322 -36.241042 8
-107.646557 9.096608 -36.112891 8
-105.200579 10.895096 -36.308528 8
-67.008190 -10.181440 -43.122417 9
-65.339536 -6.550328 -43.040430 9
-62.959592 1.917242 -42.641771 9
-66.538899 12.947171 -41.254025 9
-65.887421 17.573641 -40.944285 9
-63.673481 19.905820 -41.024694 9
-61.540944 22.330570 -41.083689 9
-59.192806 24.444542 -41.193263 9
-56.844959 26.550532 -41.300277 9
-54.469782 28.614152 -41.411160 9
-51.835357 30.345707 -41.579903 9
-48.773894 31.557733 -41.843595 9
