ply
format ascii 1.0
element vertex 1380
property float x
property float y
property float z
property int scalar_Label
end_header
30.612825 -46.923112 -25.451702 9
27.822732 -46.924451 -25.342713 9
25.034385 -46.986742 -25.253028 9
22.241195 -47.069729 -25.167921 9
19.427343 -47.096866 -25.059265 9
16.602724 -47.124411 -24.947635 9
13.775931 -47.192538 -24.847783 9
10.935892 -47.252177 -24.741633 9
8.082242 -47.305467 -24.629914 9
5.209591 -47.335008 -24.506140 9
2.321201 -47.358023 -24.376600 9
-0.564643 -47.442246 -24.266348 9
-3.468598 -47.512850 -24.147645 9
-6.417427 -47.485819 -23.989169 9
-9.362247 -47.528278 -23.852943 9
-12.320276 -47.582742 -23.717583 9
-15.305315 -47.609421 -23.568181 9
-18.290396 -47.690211 -23.435271 9
-21.304391 -47.742226 -23.287815 9
-24.327687 -47.822799 -23.147219 9
-27.381228 -47.876965 -22.992790 9
-30.450855 -47.944849 -22.839523 9
-33.545375 -48.005737 -22.679547 9
-36.652593 -48.091315 -22.524754 9
-39.786329 -48.169565 -22.362979 9
-42.961826 -48.208760 -22.182072 9
-46.204418 -48.158480 -21.962672 9
-49.722971 -47.581639 -21.537840 9
-53.723205 -46.092868 -20.758999 9
-58.130666 -43.914933 -19.709084 9
-62.760321 -41.468480 -18.547583 9
-71.028832 -32.184733 -14.747760 8
-74.579398 -32.297587 -14.547887 8
-78.181773 -32.377507 -14.329902 8
-81.842500 -32.417284 -14.090797 8
-85.486973 -32.552742 -13.883039 8
-89.197653 -32.638360 -13.650144 8
-92.958562 -32.706527 -13.404455 8
-96.748631 -32.795200 -13.160613 8
-100.614992 -32.829953 -12.889343 8
-104.498292 -32.909581 -12.629147 8
-108.705565 -32.563548 -12.194541 8
-115.603745 -28.276200 -10.194495 8
-120.384524 -27.351677 -9.510506 7
-124.544243 -27.435333 -9.217627 7
-128.726137 -27.563441 -8.934918 7
-132.991382 -27.651715 -8.628625 7
-137.304128 -27.753563 -8.319801 7
-141.674093 -27.858053 -8.003867 7
-146.098794 -27.971001 -7.682938 7
149.129665 -26.057231 -16.429221 6
146.025989 -26.083531 -16.447184 6
142.941823 -26.089350 -16.454287 6
139.876965 -26.069651 -16.448687 6
136.813877 -26.098601 -16.457878 6
133.773109 -26.080647 -16.446483 6
130.738041 -26.089935 -16.441987 6
127.713976 -26.098932 -16.434204 6
124.699614 -26.111393 -16.424542 6
121.688794 -26.161759 -16.425778 6
118.693622 -26.174755 -16.410028 6
115.930889 -24.621234 -15.810343 5
112.560519 -27.465907 -16.838343 5
109.320754 -29.781477 -17.667526 5
106.301238 -30.613391 -17.943595 5
103.377648 -30.726806 -17.950094 5
100.470105 -30.746889 -17.918906 5
97.569689 -30.741085 -17.875050 5
94.672835 -30.740484 -17.830065 5
91.773989 -30.830058 -17.815546 5
88.884869 -30.820783 -17.761221 5
85.996466 -30.847709 -17.717293 5
83.110989 -30.855284 -17.663092 5
80.226993 -30.858549 -17.604200 5
77.343338 -30.904933 -17.558289 5
74.460741 -30.927012 -17.500222 5
71.578294 -30.960821 -17.443423 5
68.696569 -31.042590 -17.401421 5
65.974007 -36.193204 -19.251195 9
63.302396 -40.086907 -20.630455 9
60.582760 -41.566838 -21.105135 9
57.892856 -43.087356 -21.592810 9
55.235426 -44.675828 -22.103812 9
52.585667 -46.012450 -22.518201 9
49.928342 -47.021911 -22.807461 9
47.248011 -47.657223 -22.953603 9
44.532634 -47.918753 -22.956369 9
41.790618 -47.972157 -22.877747 9
39.045222 -48.042866 -22.802497 9
36.280783 -48.022756 -22.689787 9
33.522103 -48.093604 -22.608179 9
30.748459 -48.116493 -22.505187 9
27.966867 -48.143081 -22.400285 9
25.177247 -48.175429 -22.294219 9
22.382565 -48.230644 -22.193454 9
19.581802 -48.303173 -22.095870 9
16.767687 -48.359979 -21.988874 9
13.933622 -48.377138 -21.863278 9
11.104820 -48.467611 -21.762091 9
8.247088 -48.488135 -21.630623 9
5.383823 -48.539262 -21.507196 9
2.522051 -48.645494 -21.401198 9
-0.375165 -48.672535 -21.261118 9
-3.287727 -48.699764 -21.117278 9
-6.217715 -48.722630 -20.967865 9
-9.138295 -48.828513 -20.846507 9
-12.098188 -48.862608 -20.693494 9
-15.087702 -48.862778 -20.523274 9
-18.055649 -48.980387 -20.394375 9
-21.072405 -49.012177 -20.228042 9
-24.095775 -49.081036 -20.071821 9
-27.152096 -49.117379 -19.898598 9
-30.223752 -49.170501 -19.727463 9
-33.317760 -49.223865 -19.551901 9
-36.435907 -49.275263 -19.370958 9
-39.568416 -49.349504 -19.194278 9
-42.728065 -49.418054 -19.010594 9
-45.906534 -49.501606 -18.827952 9
-49.401195 -48.967474 -18.396294 9
-53.385289 -47.505837 -17.591244 9
-57.841418 -45.224857 -16.453142 9
-62.483424 -42.753454 -15.229732 9
-70.782551 -33.430276 -11.264497 8
-74.327341 -33.549846 -11.049386 8
-77.937828 -33.611041 -10.804945 8
-81.602790 -33.640271 -10.541468 8
-85.271993 -33.729846 -10.295871 8
-88.993115 -33.796493 -10.034573 8
-92.759215 -33.855650 -9.763589 8
-96.556166 -33.933206 -9.493230 8
-100.396441 -34.010397 -9.215749 8
-104.268887 -34.107034 -8.939046 8
-108.517562 -33.699117 -8.448614 8
-115.551059 -29.224740 -6.280951 8
-120.226289 -28.464022 -5.622760 7
-124.360062 -28.588146 -5.319621 7
-128.579163 -28.666840 -4.989433 7
-132.893759 -28.691620 -4.628262 7
-137.282003 -28.697877 -4.250392 7
-141.697002 -28.751216 -3.882912 7
-146.183631 -28.793805 -3.501483 7
149.006773 -27.700561 -13.318210 6
145.913501 -27.715622 -13.340705 6
142.842057 -27.699719 -13.347671 6
139.784579 -27.679946 -13.349526 6
136.732753 -27.690890 -13.359551 6
133.693046 -27.702793 -13.366360 6
130.669897 -27.689829 -13.360076 6
127.651791 -27.706320 -13.361539 6
124.648728 -27.696810 -13.349510 6
121.650405 -27.715110 -13.344632 6
118.664673 -27.711884 -13.328005 6
115.951390 -25.868947 -12.602300 5
112.572110 -28.794710 -13.702163 5
109.364644 -30.874057 -14.474294 5
106.339574 -31.772120 -14.790021 5
103.415572 -31.919501 -14.814335 5
100.511346 -31.941465 -14.787116 5
97.608707 -32.006406 -14.773015 5
94.720485 -31.944894 -14.706933 5
91.830105 -31.955399 -14.665121 5
88.941110 -32.000713 -14.633297 5
86.056277 -32.024789 -14.589907 5
83.174404 -32.027196 -14.534766 5
80.292604 -32.091027 -14.499867 5
77.413714 -32.061620 -14.425620 5
74.534394 -32.107309 -14.376880 5
71.654672 -32.067625 -14.291753 5
68.775199 -32.125385 -14.240768 5
66.137135 -39.930262 -17.180694 9
63.390311 -41.301538 -17.633056 9
60.680410 -42.892339 -18.167784 9
57.991492 -44.344509 -18.646359 9
55.331382 -45.832182 -19.136204 9
52.683057 -47.141775 -19.554500 9
50.039197 -48.258941 -19.895521 9
47.353374 -48.796459 -20.008537 9
44.644832 -49.086506 -20.022179 9
41.906033 -49.134622 -19.938308 9
39.162235 -49.188890 -19.853349 9
36.406702 -49.205316 -19.750105 9
33.643765 -49.223054 -19.643793 9
30.880743 -49.289426 -19.552892 9
28.103038 -49.316231 -19.442882 9
25.315412 -49.338751 -19.327505 9
22.514816 -49.345236 -19.202097 9
19.724361 -49.452008 -19.112321 9
16.905874 -49.472809 -18.984962 9
14.080082 -49.512577 -18.861203 9
11.231612 -49.507445 -18.715812 9
8.387714 -49.574179 -18.594818 9
5.527358 -49.626108 -18.463977 9
2.646567 -49.652850 -18.319091 9
-0.240379 -49.709926 -18.182098 9
-3.140644 -49.771985 -18.042911 9
-6.076473 -49.768133 -17.873236 9
-9.001787 -49.852657 -17.734431 9
-11.955815 -49.899419 -17.576193 9
-14.929718 -49.940319 -17.411141 9
-17.925149 -49.973380 -17.238394 9
-20.928175 -50.039847 -17.074424 9
-23.945111 -50.121887 -16.912046 9
-26.997063 -50.165542 -16.729451 9
-30.062262 -50.230957 -16.550761 9
-33.154827 -50.283881 -16.362069 9
-36.241727 -50.405717 -16.196271 9
-39.394248 -50.428512 -15.985166 9
-42.541936 -50.520307 -15.796853 9
-47.498913 -46.719098 -14.013969 9
-49.261014 -49.966310 -15.102427 9
-53.178156 -48.646835 -14.318477 9
-57.663616 -46.309314 -13.107775 9
-62.332639 -43.789935 -11.811630 9
-67.028253 -41.407130 -10.560704 9
-74.243784 -34.486667 -7.420071 8
-77.872475 -34.518359 -7.143705 8
-81.527130 -34.570781 -6.869101 8
-85.219017 -34.625144 -6.588320 8
-88.951764 -34.677441 -6.299524 8
-92.721142 -34.737178 -6.006515 8
-96.565655 -34.743573 -5.683570 8
-100.443367 -34.769261 -5.360940 8
-104.347210 -34.826410 -5.043640 8
-108.613625 -34.403478 -4.514546 8
-115.928535 -29.535215 -2.084150 8
-120.465424 -28.998857 -1.481384 7
-124.683811 -29.017880 -1.105879 7
-128.948774 -29.050690 -0.726956 7
-133.286136 -29.063853 -0.329998 7
-137.704378 -29.049997 0.088545 7
-142.172626 -29.054090 0.509571 7
-146.705017 -29.059780 0.940424 7
148.953784 -29.073184 -10.110262 6
145.877772 -29.038098 -10.121620 6
142.805347 -29.043964 -10.145176 6
139.756927 -29.004380 -10.146700 6
136.715595 -28.987061 -10.153067 6
133.684743 -28.975906 -10.157918 6
130.662006 -28.980589 -10.165111 6
127.658398 -28.941241 -10.150940 6
124.662210 -28.912885 -10.137232 6
121.671099 -28.908007 -10.128951 6
118.686207 -28.919973 -10.123487 6
116.003629 -26.896648 -9.307359 5
112.640526 -29.698054 -10.400041 5
109.410714 -31.950196 -11.271489 5
106.389019 -32.833140 -11.596453 5
103.463919 -33.010882 -11.638046 5
100.567099 -32.979104 -11.592779 5
97.671865 -32.976805 -11.555461 5
94.780167 -32.981594 -11.517213 5
91.889251 -33.032567 -11.493571 5
89.004769 -33.036009 -11.447306 5
86.122641 -33.042027 -11.398316 5
83.242183 -33.057165 -11.349199 5
80.363052 -33.084506 -11.301181 5
77.485327 -33.097827 -11.243817 5
74.608000 -33.021153 -11.146809 5
71.730019 -33.072007 -11.096818 5
68.851469 -33.092190 -11.030800 5
66.215313 -40.958191 -14.093854 9
63.473747 -42.408105 -14.593785 9
60.759295 -43.855032 -15.089645 9
58.074398 -45.347934 -15.601066 9
55.416466 -46.838076 -16.108609 9
52.769041 -48.132999 -16.535152 9
50.116810 -49.138269 -16.842625 9
47.443423 -49.787467 -17.004051 9
44.743090 -50.131616 -17.039539 9
42.002457 -50.144048 -16.937982 9
39.251666 -50.129930 -16.821881 9
36.508154 -50.219093 -16.743527 9
33.748607 -50.244405 -16.635540 9
30.981738 -50.273887 -16.525291 9
28.199760 -50.265983 -16.395925 9
24.785857 -46.936517 -14.916661 9
22.633234 -50.390033 -16.181685 9
19.827008 -50.409502 -16.051168 9
17.024195 -50.495186 -15.943399 9
14.187403 -50.477980 -15.789558 9
11.350995 -50.516952 -15.654296 9
8.497377 -50.537524 -15.507191 9
5.642051 -50.603459 -15.374233 9
2.759736 -50.619370 -15.216363 9
-0.125048 -50.679514 -15.072099 9
-3.028947 -50.724992 -14.917252 9
-5.955394 -50.748486 -14.748709 9
-8.894121 -50.786821 -14.581536 9
-11.849233 -50.828236 -14.410830 9
-14.823139 -50.867538 -14.234368 9
-17.805396 -50.936721 -14.065327 9
-20.815109 -50.982595 -13.881596 9
-23.838281 -51.046689 -13.700313 9
-26.904201 -51.053831 -13.490085 9
-29.995589 -51.054444 -13.271740 9
-33.076071 -51.139705 -13.083331 9
-36.206812 -51.159916 -12.862166 9
-39.362555 -51.180594 -12.635512 9
-42.511294 -51.275356 -12.434272 9
-45.718176 -51.298566 -12.197032 9
-49.193953 -50.811276 -11.737673 9
-53.132891 -49.454050 -10.902052 9
-57.635258 -47.093858 -9.630778 9
-62.317300 -44.561837 -8.274807 9
-67.181267 -41.870221 -6.838493 9
-74.376518 -35.021667 -3.608220 8
-78.023267 -35.034000 -3.302792 8
-81.716046 -35.032652 -2.983937 8
-85.434197 -35.056806 -2.668350 8
-89.200266 -35.068779 -2.339610 8
-92.995129 -35.103499 -2.012647 8
-96.844284 -35.120476 -1.669704 8
-100.744519 -35.128397 -1.314295 8
-104.685582 -35.146218 -0.954470 8
-113.868552 -27.285716 2.877280 8
-116.903342 -28.965678 2.533286 7
-121.119671 -28.936062 2.950545 7
-125.405165 -28.888436 3.385868 7
-129.710113 -28.895855 3.807088 7
-134.209751 -28.718921 4.321224 7
-138.679954 -28.670939 4.788958 7
-143.253641 -28.573275 5.290399 7
-147.927090 -28.436714 5.821259 7
149.046659 -29.889247 -6.676657 6
145.963878 -29.875871 -6.705114 6
142.895509 -29.860568 -6.728339 6
139.833094 -29.876850 -6.760095 6
136.788093 -29.873969 -6.779624 6
133.760302 -29.846730 -6.784834 6
130.727559 -29.899882 -6.818640 6
127.718633 -29.889958 -6.822329 6
124.717983 -29.889946 -6.825807 6
121.725939 -29.895925 -6.827489 6
118.737459 -29.937503 -6.839517 6
116.116703 -27.507242 -5.835338 5
112.745499 -30.333268 -6.978963 5
109.517306 -32.540508 -7.865313 5
106.482681 -33.507232 -8.239723 5
103.555687 -33.683648 -8.286404 5
100.655138 -33.671690 -8.251823 5
97.757709 -33.675802 -8.219727 5
94.861925 -33.715351 -8.198066 5
91.972637 -33.720426 -8.158181 5
89.087844 -33.698075 -8.102945 5
86.202525 -33.735671 -8.068212 5
83.321295 -33.725711 -8.009854 5
80.441170 -33.714221 -7.946750 5
77.561187 -33.735107 -7.892829 5
74.681787 -33.733277 -7.825439 5
71.801871 -33.724963 -7.751230 5
68.922088 -33.778769 -7.698443 5
66.286086 -41.744307 -10.902835 9
63.547485 -43.278595 -11.454805 9
60.834043 -44.736454 -11.972083 9
58.145265 -46.156264 -12.470497 9
55.487617 -47.650761 -12.996667 9
52.848281 -49.042471 -13.477263 9
50.194854 -50.022330 -13.784185 9
47.524701 -50.693777 -13.959875 9
44.814383 -50.939927 -13.955460 9
42.087502 -51.062175 -13.895614 9
39.339440 -51.059153 -13.779579 9
36.586598 -51.074820 -13.667089 9
33.812982 -51.006352 -13.515271 9
31.046227 -51.039405 -13.401433 9
28.264451 -51.035387 -13.267775 9
25.490505 -51.125574 -13.169109 9
22.690518 -51.126919 -13.028866 9
19.886650 -51.161991 -12.898255 9
17.067081 -51.174856 -12.753789 9
14.246423 -51.234708 -12.624472 9
11.406151 -51.261103 -12.476450 9
8.546995 -51.263807 -12.313717 9
5.686834 -51.316160 -12.167147 9
2.816050 -51.379569 -12.020439 9
-0.070179 -51.438208 -11.866839 9
-2.993376 -51.422349 -11.676668 9
-5.911417 -51.479276 -11.512316 9
-8.857211 -51.500402 -11.327608 9
-11.804339 -51.571587 -11.159020 9
-15.950051 -48.187378 -9.508022 9
-17.773623 -51.652185 -10.779547 9
-20.790810 -51.683339 -10.577710 9
-23.820706 -51.735838 -10.379457 9
-26.885953 -51.751555 -10.159697 9
-29.952902 -51.819941 -9.956847 9
-33.073505 -51.812451 -9.715326 9
-36.191651 -51.869921 -9.495870 9
-39.363631 -51.859993 -9.241034 9
-42.535756 -51.909987 -9.005943 9
-45.706447 -52.020632 -8.790966 9
-49.276751 -51.341619 -8.224110 9
-53.246578 -49.936382 -7.330559 9
-57.795916 -47.501744 -5.974445 9
-62.459846 -45.027661 -4.588438 9
-71.108334 -35.136575 0.088367 8
-74.736039 -35.138933 0.412004 8
-78.417801 -35.111394 0.756942 8
-82.121178 -35.115964 1.095854 8
-85.844656 -35.155394 1.427592 8
-89.641912 -35.138776 1.792963 8
-93.481156 -35.124903 2.165976 8
-97.387971 -35.074657 2.564480 8
-101.330519 -35.043277 2.963885 8
-105.253757 -35.117144 3.325183 8
-110.196111 -33.721464 4.364693 8
-118.161983 -27.988506 7.398319 7
-122.508893 -27.818464 7.911951 7
-126.873524 -27.710348 8.408544 7
-131.364320 -27.512707 8.957970 7
-135.874262 -27.379393 9.489800 7
-140.510399 -27.167064 10.070650 7
-145.235951 -26.931538 10.675273 7
-150.073296 -26.648855 11.315398 7
149.200080 -30.479684 -3.134232 6
146.101291 -30.514493 -3.191682 6
143.032057 -30.489442 -3.218951 6
139.966899 -30.503415 -3.257917 6
136.930212 -30.448213 -3.262860 6
133.885286 -30.485293 -3.302078 6
130.865294 -30.459277 -3.309916 6
127.848477 -30.471656 -3.329301 6
124.842239 -30.483949 -3.343995 6
121.849058 -30.477464 -3.346126 6
118.866556 -30.459561 -3.338826 6
116.293077 -27.690294 -2.164414 5
112.894302 -30.650981 -3.406494 5
109.645980 -32.960985 -4.369273 5
106.603768 -33.947883 -4.768571 5
103.670492 -34.141404 -4.828135 5
100.762773 -34.161489 -4.809931 5
97.857018 -34.219895 -4.803480 5
94.963938 -34.177743 -4.750044 5
92.070715 -34.181167 -4.711432 5
89.180340 -34.188877 -4.670182 5
86.293869 -34.165049 -4.611119 5
83.407489 -34.181943 -4.564841 5
80.523727 -34.152381 -4.494405 5
77.639562 -34.171461 -4.440110 5
74.755958 -34.167933 -4.371739 5
71.872167 -34.193564 -4.311246 5
68.987053 -34.175907 -4.227852 5
66.352846 -42.394616 -7.642338 9
63.608176 -43.828722 -8.170125 9
60.895258 -45.353127 -8.732843 9
58.211981 -46.896341 -9.300159 9
55.549195 -48.330265 -9.817503 9
52.905433 -49.684268 -10.297341 9
50.259156 -50.758688 -10.654303 9
47.581266 -51.361375 -10.805901 9
44.866916 -51.584034 -10.790821 9
42.141501 -51.731141 -10.739050 9
39.395135 -51.751099 -10.628319 9
36.643432 -51.782752 -10.518050 9
33.882943 -51.805290 -10.399269 9
31.109932 -51.801485 -10.264501 9
28.336227 -51.846126 -10.145893 9
25.536216 -51.797799 -9.982443 9
22.743969 -51.846125 -9.855885 9
19.937605 -51.874626 -9.715924 9
17.123166 -51.916454 -9.576836 9
14.282256 -51.892813 -9.404392 9
11.444340 -51.936974 -9.256319 9
8.589550 -51.964141 -9.095777 9
5.716363 -51.973153 -8.922157 9
2.832582 -51.997019 -8.749759 9
-0.068376 -52.013392 -8.568766 9
-2.976328 -52.059717 -8.395486 9
-5.893845 -52.126694 -8.225824 9
-8.851746 -52.118009 -8.017400 9
-11.810009 -52.164524 -7.827580 9
-14.797054 -52.179980 -7.618344 9
-17.806305 -52.188154 -7.400028 9
-20.805994 -52.278756 -7.212251 9
-23.878240 -52.228733 -6.956118 9
-26.949567 -52.241706 -6.721708 9
-30.016423 -52.323106 -6.511500 9
-33.151325 -52.293561 -6.245444 9
-36.283529 -52.330976 -6.002740 9
-39.451513 -52.343922 -5.742434 9
-44.190399 -48.921944 -3.930362 9
-45.848173 -52.413409 -5.220912 9
-49.408178 -51.773465 -4.644730 9
-53.476150 -50.185137 -3.630137 9
-58.077904 -47.671754 -2.184228 9
-62.895750 -44.925901 -0.618824 9
-71.642926 -34.903419 4.283938 8
-75.297498 -34.888427 4.637596 8
-80.685249 -31.802587 6.409980 8
-82.752735 -34.806227 5.395319 8
-86.564606 -34.726789 5.805598 8
-90.413879 -34.659036 6.220013 8
-94.316851 -34.577772 6.650462 8
-98.280841 -34.474616 7.101159 8
-102.305085 -34.354782 7.570025 8
-106.403247 -34.200910 8.065554 8
-112.267149 -31.467232 9.786213 8
-120.221720 -25.845007 12.890432 7
-124.646933 -25.636461 13.459229 7
-129.292485 -25.206468 14.145884 7
-134.036606 -24.740406 14.863434 7
-138.793694 -24.359632 15.554347 7
-143.855127 -23.675939 16.405237 7
-148.842666 -23.202366 17.170607 7
146.355971 -30.696796 0.540119 6
143.272500 -30.696426 0.493875 6
140.211952 -30.656398 0.470158 6
137.147725 -30.688089 0.420338 6
134.105003 -30.679570 0.393205 6
131.675550 -27.655886 1.685657 6
128.054882 -30.654846 0.357589 6
125.042434 -30.658699 0.340301 6
122.042675 -30.645445 0.335489 6
119.518856 -27.657277 1.632049 6
116.504647 -27.644411 1.637033 5
113.114827 -30.451249 0.418250 5
109.817020 -33.053013 -0.706353 5
106.748636 -34.191041 -1.188299 5
103.811088 -34.361883 -1.243904 5
100.897582 -34.372006 -1.224622 5
97.993613 -34.327631 -1.176746 5
95.090922 -34.310352 -1.135856 5
92.189840 -34.319172 -1.101528 5
89.292433 -34.319154 -1.058523 5
86.396561 -34.340986 -1.020237 5
83.503857 -34.336513 -0.965638 5
80.612531 -34.324447 -0.902885 5
77.721349 -34.343834 -0.849037 5
74.830744 -34.351772 -0.785334 5
71.939624 -34.331208 -0.704288 5
69.047358 -34.323130 -0.623816 5
66.412319 -42.799105 -4.257742 9
63.666284 -44.310717 -4.836757 9
60.946574 -45.774022 -5.390759 9
58.257516 -47.291770 -5.964902 9
55.592298 -48.752811 -6.510417 9
52.949324 -50.165187 -7.030833 9
50.296023 -51.200186 -7.381333 9
47.618953 -51.847039 -7.556738 9
44.903585 -52.089755 -7.549502 9
42.165955 -52.163754 -7.463086 9
39.416540 -52.190216 -7.350821 9
36.651390 -52.156246 -7.206887 9
33.889482 -52.199330 -7.092096 9
31.114498 -52.210440 -6.958129 9
28.340847 -52.279828 -6.844991 9
25.543879 -52.269732 -6.691429 9
22.743661 -52.296914 -6.549272 9
19.929698 -52.308523 -6.394949 9
17.106982 -52.332295 -6.240760 9
14.271967 -52.353926 -6.080264 9
11.426151 -52.382531 -5.917472 9
8.562713 -52.392851 -5.740992 9
5.681003 -52.387227 -5.551763 9
2.797773 -52.430847 -5.379023 9
-0.100438 -52.473418 -5.200117 9
-3.018973 -52.499467 -5.007968 9
-5.955824 -52.519594 -4.807249 9
-8.922521 -52.500738 -4.582859 9
-11.890166 -52.536223 -4.377000 9
-14.890458 -52.530543 -4.146239 9
-17.907565 -52.534508 -3.913535 9
-20.939288 -52.555386 -3.682126 9
-23.990638 -52.580535 -3.446155 9
-27.076701 -52.573056 -3.188582 9
-30.169949 -52.606429 -2.942983 9
-33.284439 -52.645307 -2.693059 9
-36.428833 -52.671014 -2.430068 9
-39.614664 -52.660452 -2.143132 9
-42.823945 -52.658603 -1.852869 9
-46.105216 -52.562116 -1.511061 9
-49.732901 -51.803757 -0.852603 9
-53.804954 -50.236585 0.193786 9
-58.595842 -47.377413 1.857910 9
-63.524438 -44.457259 3.566164 9
-72.427130 -34.205956 8.747035 8
-76.169426 -34.072707 9.179957 8
-79.969701 -33.910550 9.636318 8
-83.768406 -33.829053 10.064368 8
-87.664680 -33.654297 10.546970 8
-91.593031 -33.505445 11.027769 8
-95.573554 -33.350261 11.522392 8
-99.611851 -33.182769 12.034026 8
-103.771379 -32.906712 12.609519 8
-108.223582 -32.268537 13.372602 8
-119.426430 -21.589066 19.032925 7
-124.329721 -20.712999 19.956797 7
-129.358421 -19.775733 20.926310 7
-134.784033 -18.402487 22.126500 7
-139.458192 -18.207211 22.763901 7
-144.202967 -18.010641 23.416537 7
-149.006521 -17.831659 24.075459 7
146.754712 -30.323760 4.554726 6
143.659553 -30.312082 4.504799 6
140.571886 -30.326701 4.448698 6
137.516016 -30.258863 4.435296 6
134.443906 -30.320069 4.369436 6
131.393590 -30.338047 4.328550 6
128.356891 -30.345012 4.298113 6
125.330569 -30.353395 4.272500 6
122.314629 -30.359585 4.253304 6
119.309900 -30.353811 4.244884 6
116.790555 -27.107541 5.697264 5
113.353838 -30.132078 4.338553 5
110.012844 -32.961669 3.072690 5
112.761893 16.333719 25.225939 5
104.275184 -31.516245 3.747843 5
101.325855 -31.493731 3.778837 5
98.378854 -31.495758 3.804068 5
95.222938 -34.391005 2.533982 5
92.314263 -34.391112 2.570205 5
89.408640 -34.391381 2.611549 5
86.505609 -34.389176 2.659204 5
83.604017 -34.399978 2.706204 5
80.704722 -34.376290 2.773941 5
77.805517 -34.367723 2.840090 5
74.906304 -34.368193 2.907396 5
72.006297 -34.326003 2.999188 5
69.105837 -34.353828 3.064658 5
66.462526 -42.887748 -0.706510 9
63.711414 -44.468518 -1.335101 9
60.987706 -45.992120 -1.933738 9
58.295638 -47.564568 -2.550414 9
55.631283 -49.117060 -3.154073 9
52.979877 -50.484158 -3.669735 9
50.330034 -51.611261 -4.072446 9
47.637091 -52.144553 -4.201203 9
44.929058 -52.498368 -4.243643 9
42.182336 -52.533090 -4.135946 9
39.431584 -52.584068 -4.030441 9
36.666166 -52.578716 -3.893993 9
33.892669 -52.574320 -3.752631 9
31.111847 -52.578739 -3.609899 9
28.321278 -52.580100 -3.460322 9
25.525463 -52.605993 -3.316484 9
22.710218 -52.584327 -3.145275 9
19.893768 -52.612125 -2.991146 9
17.058224 -52.603990 -2.814809 9
14.218280 -52.631099 -2.648941 9
11.355192 -52.614175 -2.456933 9
8.492434 -52.653991 -2.285224 9
5.604138 -52.648352 -2.086512 9
2.709743 -52.675614 -1.896975 9
-0.202086 -52.694906 -1.697602 9
-3.130738 -52.711539 -1.490757 9
-6.076543 -52.727068 -1.277063 9
-9.051843 -52.705490 -1.039591 9
-12.038822 -52.706448 -0.806069 9
-15.055473 -52.677672 -0.551921 9
-18.066637 -52.723092 -0.325815 9
-21.125652 -52.692737 -0.057190 9
-24.157256 -52.794218 0.156280 9
-27.266103 -52.750231 0.445531 9
-30.379956 -52.754977 0.719053 9
-33.522214 -52.750043 1.004595 9
-36.679954 -52.768637 1.286511 9
-39.891326 -52.724165 1.606228 9
-43.115876 -52.713433 1.917774 9
-46.481112 -52.461373 2.353221 9
-50.179882 -51.584972 3.097944 9
-54.460364 -49.628360 4.374473 9
-59.353020 -46.616358 6.175293 9
-64.537897 -43.252726 8.163617 9
-73.679900 -32.634270 13.699759 8
-77.512544 -32.400358 14.208656 8
-81.375551 -32.193224 14.715229 8
-85.281334 -31.991716 15.230006 8
-89.261142 -31.744359 15.778582 8
-93.335851 -31.421918 16.375893 8
-97.482598 -31.069707 17.000147 8
-101.618437 -30.825424 17.583362 8
-105.926474 -30.397822 18.270608 8
147.298136 -29.400463 8.874138 6
144.178061 -29.406360 8.807154 6
141.065337 -29.441373 8.732789 6
137.966665 -29.476554 8.664422 6
134.887320 -29.483771 8.615033 6
131.823051 -29.476213 8.578458 6
128.765970 -29.489217 8.538292 6
125.717269 -29.516138 8.497579 6
122.675520 -29.564166 8.452960 6
119.652404 -29.559772 8.438427 6
117.381353 -24.528861 10.755162 6
113.689262 -29.128374 8.622234 5
110.286022 -32.275622 7.166988 5
107.168814 -33.591064 6.564818 5
104.188121 -33.934416 6.417972 5
101.253613 -33.925736 6.439606 5
98.321005 -33.949921 6.451630 5
95.397898 -33.910487 6.498696 5
92.471774 -33.963190 6.508693 5
89.552789 -33.960702 6.549827 5
86.636283 -33.957726 6.596773 5
83.723306 -33.903409 6.673109 5
80.808403 -33.946470 6.709902 5
77.896118 -33.906949 6.790597 5
74.983167 -33.893741 6.864711 5
72.070042 -33.933796 6.919723 5
69.156053 -33.936968 6.997502 5
66.506985 -42.771109 2.973889 9
63.748523 -44.420361 2.294071 9
61.019457 -46.021567 1.641027 9
58.316449 -47.553266 1.024738 9
55.645301 -49.133308 0.390238 9
52.993546 -50.598108 -0.186217 9
50.321880 -51.569369 -0.527753 9
47.642030 -52.315571 -0.759349 9
44.924983 -52.649322 -0.792964 9
42.179145 -52.747180 -0.710755 9
39.410620 -52.713782 -0.561436 9
36.641053 -52.730052 -0.429748 9
33.857067 -52.704185 -0.272542 9
31.072897 -52.732877 -0.135226 9
28.280651 -52.765301 0.006127 9
25.476486 -52.783673 0.159965 9
22.652331 -52.752905 0.342969 9
19.818218 -52.731215 0.527738 9
16.975217 -52.724971 0.711309 9
14.123239 -52.734390 0.893621 9
11.253777 -52.725079 1.091077 9
8.376317 -52.739374 1.283632 9
5.468210 -52.691568 1.512214 9
2.557411 -52.692701 1.723988 9
-0.371018 -52.687631 1.945333 9
-3.309610 -52.704410 2.162906 9
-6.277253 -52.682188 2.405994 9
-9.269115 -52.642428 2.664477 9
-12.284832 -52.590346 2.936000 9
-15.316217 -52.553186 3.207550 9
-18.350693 -52.567016 3.461734 9
-21.423948 -52.532357 3.746817 9
-24.503663 -52.540903 4.018473 9
-27.608982 -52.542121 4.301339 9
-30.747875 -52.519121 4.603838 9
-33.908490 -52.504651 4.910159 9
-37.095307 -52.489707 5.224848 9
-40.320640 -52.448566 5.560733 9
-43.578639 -52.398459 5.909576 9
-46.950802 -52.167311 6.356725 9
-50.801425 -51.010125 7.272651 9
-55.333297 -48.588409 8.829670 9
-60.456508 -45.180430 10.894533 9
-65.890524 -41.407177 13.161267 9
-75.649370 -29.728214 19.414800 8
-79.588581 -29.397576 20.003423 8
-83.561840 -29.093056 20.590787 8
-87.749226 -28.499732 21.336498 8
-92.006311 -27.887941 22.104966 8
-96.263311 -27.378662 22.834997 8
-100.709480 -26.658553 23.686625 8
-105.217637 -25.948068 24.548242 8
148.077637 -27.578777 13.689381 6
144.920389 -27.610918 13.600275 6
141.766686 -27.691610 13.494605 6
138.635800 -27.738694 13.411546 6
135.528920 -27.738087 13.357739 6
132.424326 -27.786037 13.287217 6
129.338136 -27.803008 13.237869 6
126.262322 -27.824127 13.192899 6
123.191534 -27.877716 13.138775 6
120.142236 -27.862839 13.123550 6
117.246636 -26.870994 13.579885 6
114.116548 -27.484239 13.277941 5
110.627170 -31.078522 11.562541 5
107.456385 -32.655947 10.813779 5
104.438718 -33.164245 10.580204 5
101.486277 -33.160994 10.596275 5
98.537061 -33.176875 10.609242 5
95.594224 -33.169736 10.639174 5
92.655073 -33.160930 10.675896 5
89.718521 -33.158661 10.715495 5
86.786175 -33.116881 10.779928 5
83.853406 -33.120993 10.828474 5
80.922817 -33.092607 10.898528 5
77.992549 -33.053101 10.979913 5
75.061602 -33.048065 11.050869 5
72.129966 -33.021488 11.138159 5
69.197090 -33.009829 11.224382 5
66.543990 -42.387974 6.822510 9
63.773077 -44.051621 6.115413 9
61.033389 -45.695287 5.422638 9
58.328893 -47.402152 4.704225 9
55.646817 -48.974006 4.055179 9
52.986794 -50.464008 3.450046 9
50.326288 -51.662987 2.989464 9
47.611454 -52.144906 2.878876 9
44.474426 -48.892170 4.573437 9
42.140267 -52.677428 2.882144 9
39.364997 -52.664111 3.027358 9
36.577801 -52.623370 3.191894 9
33.789351 -52.632634 3.338372 9
30.989637 -52.626136 3.498639 9
28.170810 -52.566106 3.691115 9
25.359176 -52.604042 3.842351 9
22.518539 -52.546144 4.046527 9
19.672944 -52.524250 4.239666 9
16.815892 -52.506648 4.437248 9
13.945188 -52.486103 4.642880 9
11.061110 -52.466873 4.854568 9
8.169744 -52.475300 5.059481 9
5.264016 -52.483908 5.271140 9
2.335091 -52.463320 5.504094 9
-0.641779 -52.333650 5.797898 9
-3.596342 -52.343930 6.029973 9
-6.576337 -52.327897 6.282309 9
-9.579148 -52.298787 6.548533 9
-12.597834 -52.281038 6.816665 9
-15.663849 -52.184878 7.131481 9
-18.721751 -52.175290 7.411065 9
-21.816245 -52.125280 7.718761 9
-24.946031 -52.044255 8.050133 9
-28.070627 -52.040231 8.351197 9
-31.260549 -51.934602 8.711739 9
-34.449020 -51.898398 9.045994 9
-37.666496 -51.857060 9.391590 9
-40.911772 -51.815947 9.746004 9
-44.174345 -51.800365 10.096553 9
-50.050907 -46.250468 13.277271 9
-51.678069 -49.914632 11.773422 9
-56.578482 -46.806576 13.739844 9
-62.110616 -42.671545 16.253019 9
-74.939389 -24.736383 25.902247 8
-79.174117 -23.922572 26.765354 8
-83.710897 -22.666531 27.871915 8
-87.813744 -22.321348 28.520584 8
-91.738508 -22.378249 28.972779 8
-95.684218 -22.471955 29.418027 8
-99.715733 -22.494282 29.913266 8
-103.762166 -22.568178 30.394387 8
146.067945 -24.203461 19.278677 6
142.890315 -24.180873 19.212922 6
139.707648 -24.239831 19.114181 6
136.527893 -24.352325 18.996202 6
133.382052 -24.370874 18.931325 6
130.236243 -24.452015 18.842660 6
127.110073 -24.495145 18.779521 6
123.990063 -24.567948 18.708664 6
120.885624 -24.613396 18.658008 6
117.797969 -24.613009 18.636563 6
116.204298 -13.903809 23.869416 5
111.060490 -29.190266 16.370558 5
107.789468 -31.359887 15.305905 5
104.748046 -31.870241 15.060761 5
101.767197 -31.922010 15.046770 5
98.797205 -31.918160 15.066471 5
95.831547 -31.913931 15.092784 5
92.870125 -31.901291 15.129641 5
89.911872 -31.883984 15.175205 5
86.955302 -31.879003 15.221142 5
84.002164 -31.827303 15.296424 5
81.048297 -31.821327 15.355700 5
78.095458 -31.786341 15.435658 5
75.142081 -31.757916 15.518852 5
72.187690 -31.725931 15.610269 5
69.231516 -31.687120 15.711539 5
66.569999 -41.613921 10.913105 9
63.789115 -43.458471 10.096233 9
61.036914 -45.156408 9.356632 9
58.313906 -46.799857 8.648914 9
55.629510 -48.550808 7.893069 9
52.963879 -50.133321 7.225256 9
50.287704 -51.295052 6.770454 9
47.577992 -51.947894 6.572825 9
44.846083 -52.337362 6.511400 9
42.048050 -52.183432 6.725548 9
39.260294 -52.181938 6.870529 9
36.464983 -52.181665 7.021351 9
33.659325 -52.168369 7.185160 9
30.845928 -52.163688 7.351256 9
28.019444 -52.139554 7.533700 9
25.185880 -52.134262 7.713455 9
22.338258 -52.113061 7.907954 9
19.471503 -52.057411 8.126602 9
16.610291 -52.086351 8.309791 9
13.725893 -52.067589 8.523938 9
10.814351 -51.994119 8.772772 9
7.899119 -51.967559 9.005257 9
4.956856 -51.897114 9.267262 9
1.995706 -51.819962 9.540184 9
-0.966311 -51.801714 9.790878 9
-3.954630 -51.753561 10.064420 9
-6.958883 -51.714418 10.341204 9
-9.991389 -51.647638 10.640022 9
-13.030763 -51.622252 10.925803 9
-16.093806 -51.587978 11.224309 9
-19.196898 -51.502303 11.557535 9
-22.320627 -51.424838 11.895132 9
-25.444724 -51.410135 12.209096 9
-28.616054 -51.335882 12.562587 9
-31.816820 -51.253416 12.929388 9
-35.040659 -51.180916 13.300266 9
-38.309522 -51.068841 13.701163 9
-41.597163 -50.981981 14.098603 9
-44.999298 -50.710509 14.602515 9
-48.602751 -50.086217 15.302172 9
-52.933330 -48.046492 16.758597 9
-58.395522 -43.885479 19.350961 9
-64.817773 -38.108183 22.822185 9
116.459175 -13.622845 28.180129 5
111.727723 -25.522083 22.170684 5
108.259880 -28.932405 20.446511 5
105.145940 -29.784691 20.018314 5
102.132997 -29.840224 19.998501 5
99.130680 -29.845114 20.011101 5
96.132501 -29.855643 20.027743 5
93.143335 -29.790305 20.089506 5
90.155487 -29.734911 20.153139 5
87.168855 -29.685104 20.220839 5
84.181250 -29.693474 20.266071 5
81.196649 -29.640799 20.348992 5
78.211751 -29.588841 20.438459 5
75.225925 -29.563360 20.521472 5
72.239028 -29.520391 20.620253 5
69.249595 -29.443611 20.743095 5
66.580826 -40.299671 15.339191 9
63.785115 -42.351152 14.394328 9
61.019647 -44.198408 13.558209 9
58.287018 -45.997803 12.751633 9
55.593308 -47.862071 11.917323 9
52.912676 -49.458852 11.223979 9
49.837654 -46.506769 12.849395 9
47.504710 -51.368480 10.506452 9
44.746440 -51.658487 10.495093 9
41.952691 -51.667929 10.633302 9
39.141885 -51.603079 10.816239 9
36.340972 -51.668308 10.939592 9
33.515947 -51.624518 11.125592 9
30.682218 -51.587992 11.314905 9
27.839434 -51.558929 11.507485 9
24.983415 -51.517326 11.713673 9
22.117441 -51.484745 11.922477 9
19.235296 -51.433478 12.148244 9
16.339414 -51.380177 12.382509 9
13.426064 -51.312034 12.631993 9
10.507749 -51.284914 12.867898 9
7.568824 -51.235069 13.123293 9
4.616081 -51.193405 13.382282 9
1.643935 -51.141459 13.654568 9
-1.371295 -51.001284 13.980957 9
-4.393135 -50.906441 14.292033 9
-7.426838 -50.837654 14.597885 9
-10.503832 -50.697681 14.949592 9
-13.580878 -50.625008 15.274713 9
-16.681537 -50.547488 15.611189 9
-19.823966 -50.417429 15.984378 9
-22.985575 -50.303039 16.358525 9
-26.161490 -50.217920 16.726528 9
-29.375457 -50.101660 17.120582 9
-32.643648 -49.919648 17.559438 9
-35.904854 -49.825795 17.961299 9
-39.220301 -49.673187 18.404726 9
-42.575586 -49.501457 18.868882 9
-46.038671 -49.165801 19.432067 9
-49.960640 -47.934298 20.490582 9
-55.047897 -44.416331 22.802046 9
-61.802349 -37.780350 26.829341 9
108.977367 -24.469338 26.753878 5
105.711031 -26.195019 25.857539 5
102.638813 -26.366300 25.773706 5
99.590422 -26.364940 25.786694 5
96.547934 -26.345572 25.816401 5
93.509988 -26.310707 25.861520 5
90.473661 -26.293170 25.905041 5
87.441126 -26.242621 25.973052 5
84.410090 -26.177572 26.055972 5
81.378682 -26.132097 26.136141 5
78.348923 -25.948923 26.295185 5
75.315277 -25.876640 26.404139 5
72.279726 -25.804944 26.520247 5
69.240233 -25.657588 26.683171 5
66.571794 -38.275229 20.213849 9
63.755780 -40.590880 19.105418 9
60.977418 -42.735668 18.091432 9
58.230144 -44.699444 17.177238 9
55.522704 -46.691226 16.253887 9
52.835355 -48.466705 15.448795 9
50.132370 -49.721441 14.921283 9
47.399839 -50.486622 14.655734 9
44.625631 -50.797854 14.634240 9
41.808015 -50.762185 14.801436 9
38.981224 -50.717967 14.980381 9
36.142678 -50.653624 15.177235 9
33.295555 -50.597369 15.377262 9
30.430560 -50.496113 15.608488 9
27.571673 -50.495386 15.794315 9
24.689408 -50.426164 16.023894 9
21.796818 -50.367748 16.255513 9
18.878231 -50.247673 16.527630 9
15.953048 -50.165034 16.787908 9
13.005488 -50.050080 17.073429 9
10.060507 -50.011757 17.326385 9
7.093934 -49.948601 17.600790 9
4.098827 -49.840492 17.907578 9
1.086398 -49.735689 18.221170 9
-1.940384 -49.646616 18.535025 9
-5.001072 -49.509297 18.883600 9
-8.092771 -49.340787 19.258011 9
-11.185491 -49.239159 19.605604 9
-14.320828 -49.076448 19.995489 9
-17.479260 -48.917256 20.393040 9
-20.662928 -48.757731 20.800509 9
-23.858708 -48.635580 21.197554 9
-27.074199 -48.529928 21.595607 9
-30.346798 -48.347277 22.045920 9
-33.659287 -48.139004 22.520837 9
-37.006261 -47.922591 23.011071 9
-40.393184 -47.688525 23.522124 9
-43.834935 -47.407321 24.070598 9
-47.492147 -46.734780 24.847656 9
-52.024038 -44.305406 26.614081 9
-59.884728 -35.189256 32.125706 9
66.531151 -35.124209 25.792041 9
63.695711 -38.034113 24.336204 9
60.537920 -33.389085 26.928187 9
58.129403 -42.675378 22.071728 9
55.416845 -45.025238 20.932251 9
52.727041 -47.097480 19.947068 9
50.003943 -48.390704 19.385641 9
47.246978 -49.144843 19.120130 9
44.444032 -49.410025 19.124406 9
41.599718 -49.353286 19.309360 9
38.740378 -49.249022 19.527673 9
35.877834 -49.192394 19.728137 9
33.001365 -49.109587 19.950628 9
30.113256 -49.022954 20.183182 9
27.218170 -48.962749 20.409496 9
24.300476 -48.845752 20.674761 9
21.375071 -48.758478 20.932184 9
18.437434 -48.678195 21.194166 9
15.465512 -48.508279 21.513469 9
12.485323 -48.375285 21.821332 9
9.495910 -48.273211 22.121060 9
6.480545 -48.135770 22.449007 9
3.457292 -48.037464 22.764508 9
0.393970 -47.861222 23.131961 9
-2.677957 -47.726876 23.485722 9
-5.791116 -47.524518 23.886484 9
-8.935963 -47.294583 24.312260 9
-12.116318 -47.030878 24.766746 9
-15.289652 -46.865442 25.176884 9
-18.506639 -46.645869 25.627357 9
-21.747094 -46.435842 26.083015 9
-25.009614 -46.240693 26.541036 9
-28.334483 -45.956944 27.059586 9
-31.694862 -45.662693 27.595345 9
-35.106601 -45.322697 28.168448 9
-38.545453 -45.000933 28.743189 9
-42.072218 -44.558411 29.398480 9
-45.610378 -44.179028 30.030683 9
-49.981978 -42.071508 31.660167 9
66.416023 -29.347951 32.947194 9
63.573923 -33.890386 30.557537 9
60.753158 -36.990970 28.964733 9
57.986563 -39.951254 27.454619 9
55.261285 -42.661454 26.087568 9
52.547808 -44.866423 25.004251 9
49.805122 -46.305115 24.349165 9
47.028808 -47.177148 24.013259 9
43.525239 -41.595112 27.249690 9
41.330802 -47.466792 24.166901 9
38.439091 -47.343380 24.404148 9
35.531175 -47.182789 24.670378 9
32.618385 -47.068490 24.919423 9
29.687065 -46.914480 25.199071 9
26.748729 -46.795698 25.467799 9
23.786697 -46.622147 25.775779 9
20.812822 -46.464875 26.083596 9
17.836112 -46.366913 26.367269 9
14.801821 -46.078201 26.766754 9
11.769688 -45.882918 27.123331 9
8.730125 -45.732430 27.464195 9
5.663867 -45.549014 27.833085 9
2.574441 -45.352755 28.218921 9
-0.558268 -45.076283 28.659943 9
-3.718168 -44.786898 29.118484 9
-6.893508 -44.527541 29.570411 9
-10.102857 -44.238673 30.049629 9
-13.353423 -43.904050 30.565680 9
-16.622785 -43.597322 31.076897 9
-19.934110 -43.252190 31.621303 9
-23.307097 -42.820673 32.226770 9
-26.694390 -42.440252 32.814872 9
-30.143815 -41.984996 33.458184 9
-33.635033 -41.515439 34.122320 9
-37.208809 -40.936294 34.862783 9
-40.803610 -40.405284 35.588791 9
-44.614574 -39.473074 36.561992 9
-49.192188 -36.947984 38.480304 9
60.453840 -30.359810 36.716492 9
57.723647 -35.244215 34.083280 9
55.002686 -38.853852 32.174310 9
52.291025 -41.692458 30.706298 9
49.532974 -43.433645 29.864871 9
46.731330 -44.449882 29.440686 9
43.843585 -44.579645 29.526513 9
40.916071 -44.425616 29.781869 9
37.974721 -44.250190 30.058250 9
35.030412 -44.136349 30.308571 9
32.063918 -43.953950 30.606935 9
29.082051 -43.760481 30.920796 9
26.068331 -43.470223 31.299250 9
23.043978 -43.214535 31.667501 9
20.003130 -42.962275 32.043426 9
16.932498 -42.653976 32.461271 9
13.854348 -42.400451 32.857633 9
10.743871 -42.091827 33.295756 9
7.604857 -41.754069 33.760976 9
4.426118 -41.350740 34.274594 9
1.222215 -40.947124 34.799201 9
-2.020057 -40.499268 35.360470 9
-5.262777 -40.144906 35.878709 9
-8.568058 -39.672098 36.477191 9
-11.936138 -39.096007 37.147705 9
-15.408680 -38.303384 37.957081 9
-18.900190 -37.571644 38.743832 9
-22.422914 -36.862774 39.530321 9
-26.106443 -35.820670 40.526392 9
-30.750906 -32.347960 42.971599 9
-33.652548 -33.656210 42.610233 9
54.475583 -31.288150 40.600675 9
51.840432 -36.163500 37.917079 9
49.064207 -38.453306 36.738674 9
46.227828 -39.745491 36.146623 9
43.269350 -39.787016 36.289809 9
40.268055 -39.537309 36.611768 9
37.251273 -39.270874 36.953085 9
34.214096 -38.962680 37.328514 9
31.126462 -38.435928 37.841612 9
28.024767 -37.952119 38.339933 9
24.896146 -37.436132 38.867556 9
21.746579 -36.928649 39.400830 9
18.577311 -36.438182 39.934886 9
15.344566 -35.760888 40.589875 9
12.089210 -35.109851 41.240826 9
8.743829 -34.199445 42.056610 9
5.320092 -33.115796 42.987261 9
-147.958494 2.302957 -29.906775 7
-143.565679 -0.288364 -30.007485 7
-139.547095 -3.136160 -29.825699 7
-135.926265 -6.279035 -29.329250 7
-132.943905 -9.935597 -28.295663 7
-131.195662 -14.640020 -26.178733 7
-147.032923 10.341927 -28.139860 7
-141.937104 8.276347 -28.847338 7
-137.108687 6.068831 -29.376332 7
-132.526521 3.722700 -29.736945 7
-128.137959 1.267314 -29.967590 7
-124.022513 -1.372061 -29.991346 7
-120.332209 -4.336880 -29.662212 7
-108.318250 -0.204876 -36.940119 8
-103.313033 -1.837592 -37.962623 8
-99.770911 -4.706069 -37.669369 8
-96.461524 -7.777539 -37.173163 8
-93.574695 -11.244118 -36.282733 8
-91.330737 -15.344021 -34.767125 8
-90.807506 -21.173012 -31.537909 8
-53.590813 -27.501598 -43.360190 9
-49.704170 -29.698239 -43.746104 9
-148.087287 16.913747 -24.770450 7
-142.500267 15.156525 -25.894236 7
-137.165633 13.290925 -26.861317 7
-131.965850 11.394009 -27.766871 7
-127.038590 9.353601 -28.485206 7
-122.278846 7.239183 -29.101807 7
-117.723630 5.012554 -29.577787 7
-105.943305 8.815152 -36.736757 8
-101.392716 6.817890 -37.375868 8
-97.226788 4.537915 -37.694880 8
-93.180449 2.188058 -37.933287 8
-89.348217 -0.324458 -37.995228 8
-85.720101 -3.003612 -37.882356 8
-82.347666 -5.911665 -37.535331 8
-79.278530 -9.112230 -36.895704 8
-76.691892 -12.805091 -35.767617 8
-65.352870 -7.616052 -43.689386 9
-62.977139 -11.393538 -42.443670 9
-58.381930 -12.847503 -43.543645 9
-51.303124 -11.524882 -47.372168 9
-46.379243 -12.418084 -48.968637 9
-43.305266 -15.342140 -48.574091 9
-41.119421 -19.318371 -47.183743 9
-39.810390 -24.409115 -44.765950 9
-39.010660 -30.242178 -41.700402 9
-34.728107 -31.846041 -42.653943 9
-145.831020 20.091934 -20.602916 7
-139.988927 18.499921 -21.986960 7
-133.257415 17.646553 -24.222108 7
-127.784200 15.968936 -25.422516 7
-122.582654 14.160389 -26.438413 7
-117.537982 12.297955 -27.366247 7
-106.045764 15.691325 -34.323442 8
-101.109008 13.994067 -35.332756 8
-96.562363 12.033938 -36.023614 8
-92.140998 10.017760 -36.637359 8
-87.861255 7.924429 -37.153731 8
-83.744332 5.726800 -37.546670 8
-79.746898 3.455306 -37.853488 8
-75.966593 1.010119 -37.970384 8
-72.346532 -1.567766 -37.947101 8
-65.615421 -1.041560 -41.190776 9
-59.274118 -0.750472 -44.131420 9
-51.609025 1.065350 -48.592777 9
-46.387742 0.496488 -50.539254 9
-42.607556 -1.541626 -50.968355 9
-39.360568 -4.144650 -50.829480 9
-36.281963 -6.937931 -50.511024 9
-33.370723 -9.934902 -50.005342 9
-30.673761 -13.207177 -49.248399 9
-28.293082 -16.900358 -48.107069 9
-26.412267 -21.276077 -46.342070 9
-25.713691 -27.263202 -43.090006 9
-23.116728 -30.912012 -42.104223 9
-18.956216 -32.497701 -43.068551 9
-149.714193 24.760992 -14.832058 7
-143.234290 23.502658 -16.748464 7
-137.044082 22.145443 -18.488847 7
-131.139369 20.679793 -20.048454 7
-125.451111 19.144334 -21.481534 7
-119.322945 18.030796 -23.387174 7
-108.707255 20.531438 -29.564444 8
-102.034023 20.148945 -32.197533 8
-97.145569 18.434504 -33.214488 8
-92.392753 16.671654 -34.152096 8
-87.788709 14.842367 -34.992954 8
-83.341192 12.931992 -35.724180 8
-79.027078 10.952704 -36.363494 8
-74.814660 8.926187 -36.938436 8
-65.595159 11.671602 -42.746882 9
-61.989403 9.257775 -42.829545 9
-56.562941 8.665789 -44.875853 9
-49.713416 9.621535 -48.536502 9
-44.927023 8.613681 -50.056120 9
-41.095309 6.672421 -50.574621 9
-37.563779 4.439291 -50.785904 9
-34.108315 2.141029 -50.931974 9
-30.753124 -0.256167 -50.980879 9
-27.508290 -2.772617 -50.915454 9
-24.394454 -5.442923 -50.704940 9
-21.426171 -8.297220 -50.324149 9
-18.681810 -11.448367 -49.667819 9
-16.124230 -14.871051 -48.768680 9
-13.917212 -18.801913 -47.406398 9
-12.392112 -23.727466 -45.130513 9
-11.788300 -30.054409 -41.582272 9
-7.721302 -31.647261 -42.539931 9
-148.490786 27.257593 -9.730381 7
-141.546922 26.279851 -12.105198 7
-134.982964 25.156875 -14.228303 7
-128.678256 23.959081 -16.198926 7
-122.679630 22.640602 -17.965831 7
-116.972638 21.198296 -19.533021 7
-105.726080 24.154718 -26.453952 8
-100.398225 22.695140 -27.862534 8
-93.698840 22.435884 -30.676869 8
-88.798994 20.809601 -31.805827 8
-84.052259 19.120595 -32.835286 8
-79.422009 17.393054 -33.797227 8
-74.923956 15.606930 -34.671424 8
-66.597012 17.395769 -39.595453 9
-60.531428 17.282257 -42.277676 9
-56.065795 15.757835 -43.334469 9
-49.439241 16.427517 -46.793866 9
-44.569702 15.486539 -48.427528 9
-40.621737 13.676744 -49.092451 9
-36.822210 11.751205 -49.624363 9
-33.143628 9.729175 -50.048120 9
-29.562354 7.627953 -50.385588 9
-26.043365 5.479893 -50.673471 9
-22.606836 3.256388 -50.884249 9
-19.285417 0.911289 -50.973527 9
-16.045322 -1.524369 -50.976670 9
-12.916289 -4.095888 -50.851241 9
-9.953233 -6.885234 -50.519973 9
-7.121452 -9.863857 -50.017210 9
-4.473703 -13.118107 -49.264068 9
-2.065064 -16.745846 -48.173446 9
-0.098152 -21.064457 -46.451286 9
0.850512 -26.969812 -43.265325 9
3.277528 -30.840330 -42.061135 9
7.213320 -32.464008 -42.984256 9
-148.627244 28.853150 -3.375688 7
-140.970683 28.298773 -6.437748 7
-133.902616 27.478833 -9.065465 7
-127.146438 26.565044 -11.499279 7
-120.769421 25.494349 -13.665913 7
-109.817907 27.989465 -20.314962 8
-103.243502 27.382534 -22.902398 8
-97.796179 26.008901 -24.472436 8
-92.475430 24.618788 -25.983110 8
-87.324393 23.170865 -27.386902 8
-81.510549 22.366185 -29.532182 8
-76.037479 21.371966 -31.403944 8
-66.907108 23.743751 -37.202014 9
-59.113146 25.149712 -41.751953 9
-54.854590 23.446644 -42.619708 9
-50.140361 22.234083 -44.030935 9
-44.975854 21.539873 -46.001180 9
-40.804670 19.943133 -46.923781 9
-36.862185 18.163251 -47.627835 9
-32.974583 16.368087 -48.304581 9
-29.193689 14.498097 -48.890708 9
-25.503150 12.563757 -49.400699 9
-21.866227 10.600116 -49.874662 9
-18.311064 8.570313 -50.275296 9
-14.850009 6.452870 -50.582796 9
-11.469838 4.255772 -50.808619 9
-8.169002 1.973475 -50.949932 9
-4.959692 -0.417532 -50.985768 9
-1.849093 -2.936239 -50.900506 9
1.177462 -5.573624 -50.707061 9
4.043910 -8.445425 -50.294621 9
6.772227 -11.539278 -49.681880 9
9.266716 -15.013054 -48.721735 9
11.494850 -18.945850 -47.348204 9
13.111465 -23.906430 -45.031200 9
14.033862 -30.108046 -41.595474 9
17.929210 -31.681769 -42.564453 9
-142.303247 29.033889 1.060910 7
-134.116714 28.907117 -2.647484 7
-126.648513 28.436273 -5.795189 7
-119.743285 27.700925 -8.508765 7
-107.476894 31.120646 -16.580483 8
-101.375200 30.132582 -18.764318 8
-95.686265 28.928520 -20.616330 8
-90.119181 27.722122 -22.418452 8
-84.803879 26.400965 -24.032874 8
-79.655718 25.023819 -25.539206 8
-74.629469 23.621693 -26.979648 8
-61.954504 29.107595 -36.708832 9
-54.031086 30.673305 -41.544184 9
-48.881845 29.861958 -43.466082 9
-46.031061 26.945200 -42.884201 9
-41.585716 25.583236 -44.116177 9
-37.474179 23.951772 -45.015622 9
-33.458141 22.273251 -45.845671 9
-29.503790 20.577304 -46.642295 9
-25.629688 18.840124 -47.380590 9
-21.839530 17.052192 -48.052371 9
-18.129957 15.211300 -48.657742 9
-14.479481 13.336407 -49.219664 9
-10.909747 11.397128 -49.707443 9
-7.425286 9.381153 -50.110710 9
-3.999625 7.314129 -50.459322 9
-0.641201 5.179677 -50.738346 9
2.627389 2.941243 -50.912643 9
5.802560 0.584509 -50.971080 9
8.903011 -1.874994 -50.933122 9
11.934934 -4.437561 -50.801700 9
14.835866 -7.203793 -50.480151 9
17.595383 -10.206465 -49.942043 9
20.231668 -13.437092 -49.202141 9
22.589548 -17.160827 -48.010607 9
24.577564 -21.567566 -46.198641 9
25.664228 -27.605099 -42.885124 9
28.410431 -30.993501 -42.132428 9
32.190567 -32.610974 -43.055479 9
-137.485852 28.173392 6.893585 7
-127.992963 29.014133 1.763692 7
-120.010257 28.975349 -2.036707 7
-106.537847 33.202184 -11.459066 8
-100.138185 32.400241 -13.984163 8
-94.064836 31.463420 -16.266707 8
-88.345990 30.353063 -18.265994 8
-82.750486 29.241184 -20.212859 8
-77.399062 28.020878 -21.974597 8
-65.952053 32.164467 -30.409848 9
-57.696067 33.833041 -35.592950 9
-50.337956 34.911699 -39.939523 9
-45.134246 34.176996 -41.994562 9
-40.682792 32.824115 -43.264584 9
-38.640681 29.181561 -41.791774 9
-34.430589 27.664059 -42.845618 9
-30.342851 26.078046 -43.799818 9
-26.317729 24.478492 -44.721247 9
-22.375686 22.839669 -45.582189 9
-18.497557 21.177293 -46.402747 9
-14.702998 19.464867 -47.155117 9
-10.990193 17.698387 -47.837433 9
-7.343908 15.889715 -48.465275 9
-3.747499 14.053928 -49.057104 9
