ply
format ascii 1.0
element vertex 1416
property float x
property float y
property float z
property int scalar_Label
end_header
91.146387 25.369172 32.081276 5
89.782400 22.486179 30.635422 5
91.174801 20.242559 32.144699 5
92.397151 17.986444 33.472534 5
93.420138 15.701959 34.587561 5
94.289189 13.393344 35.538500 5
95.015418 11.056902 36.337302 5
95.589996 8.683121 36.974559 5
96.014399 6.265389 37.451910 5
96.334961 3.812901 37.819028 5
96.466743 1.289430 37.985024 5
96.430251 -1.306149 37.971939 5
96.226570 -3.981517 37.781025 5
95.840900 -6.750914 37.396540 5
95.195989 -9.656234 36.735932 5
94.278597 -12.715888 35.785198 5
93.002136 -15.982814 34.451897 5
91.217672 -19.544964 32.576991 5
90.425944 -22.693691 31.765502 5
90.572778 -25.410864 31.958960 5
84.754963 -31.242877 25.778363 5
41.646109 113.881991 -15.568358 3
41.711729 110.641141 -15.525671 3
41.696444 107.425603 -15.565987 3
41.712438 104.211727 -15.571735 3
32.216923 102.534942 -25.547910 3
21.044313 100.843307 -37.282376 3
49.797420 47.684751 -7.200529 9
55.022126 45.097489 -1.711059 9
59.119160 42.534949 2.596908 9
61.566990 39.887601 5.176550 9
68.674793 37.922929 12.643885 5
73.788675 35.860622 18.021071 5
77.528407 33.716169 21.958239 5
80.657688 31.564937 25.256273 5
83.283725 29.401155 28.027656 5
85.446161 27.211309 30.314033 5
87.125930 24.971291 32.095531 5
85.956757 22.112004 30.892666 5
87.380541 19.849633 32.408380 5
88.579600 17.561558 33.689741 5
89.601748 15.250924 34.786912 5
90.483156 12.920214 35.737839 5
91.186298 10.551584 36.503284 5
91.736583 8.144985 37.109933 5
92.149665 5.698548 37.574250 5
92.381893 3.190667 37.850630 5
92.471961 0.626926 37.979673 5
92.420161 -1.999350 37.961785 5
92.120014 -4.736706 37.685692 5
91.629645 -7.573181 37.212368 5
90.906095 -10.536071 36.497056 5
89.857700 -13.676637 35.444140 5
88.400820 -17.048202 33.966498 5
86.278854 -20.790173 31.796402 5
86.567405 -23.450344 32.147010 5
84.878855 -27.102826 30.434620 5
38.875241 107.436773 -13.191950 3
38.880417 104.224517 -13.215262 3
38.911070 101.015215 -13.210200 3
38.913572 97.817139 -13.231762 3
29.084323 95.913836 -23.333555 3
50.306738 47.923760 -1.632236 9
54.612576 45.292210 2.796814 9
58.431987 42.726054 6.728467 9
61.444399 40.167218 9.833944 9
64.750661 37.726188 13.242269 5
69.799978 35.625014 18.439301 5
73.654339 33.469333 22.412062 5
76.746604 31.283917 25.604585 5
79.362703 29.090103 28.310149 5
81.610868 26.889442 30.639796 5
82.720027 24.500594 31.803436 5
82.045049 21.727589 31.140520 5
83.513970 19.449086 32.676041 5
84.696123 17.130480 33.919203 5
85.715233 14.792842 34.996842 5
86.547593 12.422111 35.884757 5
87.245162 10.025522 36.636241 5
87.800282 7.594500 37.243533 5
88.167141 5.107450 37.659847 5
88.363105 2.561749 37.903084 5
88.413472 -0.041447 37.999253 5
88.252174 -2.733587 37.880925 5
87.943000 -5.499818 37.613500 5
87.359574 -8.397998 37.067978 5
86.466458 -11.455680 36.208425 5
85.240690 -14.697279 35.011716 5
83.552201 -18.196550 33.345414 5
81.470731 -21.943091 31.281227 5
82.835788 -24.126636 32.737470 5
78.500040 -29.088001 28.379910 5
42.873649 -50.061249 -7.878871 9
36.130821 101.018602 -10.798906 3
36.100508 97.825317 -10.858458 3
36.124948 94.629731 -10.860414 3
35.194501 91.550522 -11.817465 3
19.595488 89.949241 -27.486341 3
49.941832 48.091886 2.922439 9
53.751486 45.442614 6.759148 9
57.033417 42.840239 10.068376 9
60.039787 40.292013 13.103071 9
61.376062 37.605645 14.464599 9
65.788913 35.392157 18.913455 5
69.692837 33.215026 22.853309 5
72.798081 31.003606 25.993735 5
75.403364 28.779831 28.634402 5
77.704567 26.561636 30.971772 5
78.386931 24.057086 31.688445 5
78.114977 21.348751 31.451020 5
79.517913 19.027609 32.893700 5
80.717607 16.686192 34.134552 5
81.731681 14.320377 35.191320 5
82.577916 11.927027 36.081907 5
83.215254 9.486530 36.765328 5
83.738036 7.018935 37.336124 5
84.050428 4.487844 37.698528 5
84.249151 1.916616 37.949436 5
84.229988 -0.736912 37.984779 5
84.016649 -3.473913 37.828471 5
83.592142 -6.309837 37.463749 5
82.915694 -9.270642 36.850140 5
81.897788 -12.404820 35.898583 5
80.505733 -15.742040 34.576879 5
78.530675 -19.391717 32.677162 5
77.370274 -22.743977 31.594012 5
77.710021 -25.440920 32.009883 5
70.394250 -31.861054 24.800085 5
59.593535 -40.263852 14.128407 9
33.322912 94.635407 -8.471832 3
33.311931 91.449304 -8.510404 3
28.487716 88.753423 -13.268002 3
41.063627 50.694778 -0.983706 9
48.974692 48.211778 6.793863 9
52.483001 45.554164 10.253345 9
55.616489 42.950243 13.347350 9
58.372695 40.384218 16.073450 9
60.890000 37.858180 18.567396 9
60.894378 35.040127 18.599000 9
65.639546 32.952935 23.282082 5
68.862809 30.732643 26.474349 5
71.371524 28.464193 28.967815 5
73.750095 26.232701 31.335513 5
73.663105 23.542710 31.289047 5
74.033264 20.945648 31.693138 5
75.452755 18.600421 33.127498 5
76.653818 16.231773 34.350004 5
77.670318 13.839300 35.393933 5
78.450570 11.400580 36.208823 5
79.139168 8.947725 36.936323 5
79.594409 6.433048 37.437905 5
79.917077 3.878665 37.812327 5
80.025409 1.251165 37.979807 5
79.907684 -1.463097 37.929121 5
79.649989 -4.242979 37.744624 5
79.117737 -7.145834 37.295097 5
78.334297 -10.174899 36.603711 5
77.169107 -13.394736 35.543450 5
75.545349 -16.854982 34.039953 5
73.252223 -20.668268 31.888434 5
73.448374 -23.443518 32.167346 5
71.412339 -27.266167 30.275488 5
61.392277 -34.994168 20.617603 9
58.756335 -39.386859 18.156599 9
50.823422 -46.575647 10.551413 9
30.487464 91.456528 -6.136992 3
30.523113 88.269249 -6.130961 3
38.511385 50.701455 1.472680 9
47.678393 48.305123 10.287203 9
51.153272 45.658188 13.641296 9
54.089507 43.047114 16.481121 9
56.541983 40.456217 18.859380 9
58.922751 37.917913 21.171405 9
57.578842 34.917781 19.913548 9
60.863464 32.586662 23.097785 9
64.703785 30.431279 26.816829 5
67.388866 28.165435 29.430168 5
69.604373 25.875077 31.595481 5
68.838761 23.020253 30.906573 5
69.890126 20.539202 31.961590 5
71.285118 18.160051 33.348256 5
72.490952 15.764315 34.556188 5
73.490960 13.339566 35.569556 5
74.290630 10.878521 36.393761 5
74.923649 8.382309 37.061194 5
75.367257 5.836755 37.550250 5
75.609362 3.229754 37.849566 5
75.676920 0.561386 37.985129 5
75.543524 -2.185234 37.931937 5
75.192168 -5.025168 37.674029 5
74.555573 -7.993274 37.147521 5
73.583349 -11.121773 36.304776 5
72.269301 -14.428143 35.140419 5
70.361117 -18.032693 33.414605 5
67.954226 -21.920840 31.219198 5
69.479661 -24.145278 32.772812 5
60.678865 -31.081911 24.504809 9
61.594648 -33.689033 25.488469 9
57.424100 -38.770990 21.641821 9
51.190106 -45.032661 15.844403 9
27.695839 91.459341 -3.720783 3
27.724246 88.272671 -3.725715 3
20.817117 79.151383 -10.280278 1
20.852311 75.887499 -10.263432 1
20.863819 72.627124 -10.264764 1
20.854556 69.368751 -10.281548 1
20.844598 66.110913 -10.294940 1
34.648598 50.630756 2.703134 9
45.886936 48.360868 13.270605 9
49.614524 45.742360 16.790831 9
52.251944 43.111575 19.290865 9
54.766162 40.533214 21.678228 9
56.958195 37.977176 23.766187 9
58.971382 35.450179 25.689233 9
60.811476 32.945664 27.452763 9
61.468503 30.289887 28.109872 9
61.239121 27.488147 27.939321 9
65.393745 25.514090 31.880744 5
64.687106 22.648589 31.269234 5
65.641624 20.120087 32.217440 5
67.053934 17.716138 33.597268 5
68.276481 15.296084 34.802150 5
69.234938 12.832697 35.762671 5
70.035080 10.343721 36.577998 5
70.609749 7.803148 37.185482 5
71.010852 5.216927 37.633876 5
71.206067 2.567402 37.893185 5
71.224541 -0.144815 37.990891 5
71.013322 -2.945556 37.877817 5
70.541548 -5.855820 37.525511 5
69.823316 -8.881840 36.947530 5
68.748297 -12.076778 36.041466 5
67.187781 -15.507398 34.688043 5
64.973143 -19.264292 32.731129 5
62.175590 -23.345920 30.238183 9
60.241920 -27.142760 28.555767 9
61.701644 -29.471497 30.033375 9
59.361908 -33.552759 27.984784 9
55.564968 -38.421907 24.590930 9
50.312515 -44.143077 19.856397 9
24.835647 91.469033 -1.356012 3
24.863980 88.281439 -1.364954 3
18.802830 82.356469 -6.985455 1
18.064665 79.145944 -7.685437 1
17.973522 75.889076 -7.787014 1
17.991743 72.628060 -7.783707 1
17.991782 69.369139 -7.792616 1
18.006878 66.110880 -7.783226 1
30.647629 50.553907 3.866164 9
43.325740 48.360704 15.525243 9
47.683888 45.791948 19.549494 9
50.352878 43.169080 22.026545 9
52.769552 40.584612 24.275301 9
54.862170 38.019463 26.229937 9
56.818825 35.486318 28.063035 9
58.487309 32.956704 29.634997 9
60.134233 30.462413 31.190352 9
61.551897 27.965686 32.538668 9
60.830525 25.095514 31.930068 9
61.516533 22.485168 32.614953 9
62.186974 19.882966 33.289075 9
62.200876 17.141052 33.365652 9
62.119051 14.368761 33.358533 9
64.877840 12.312877 35.953961 5
65.614245 9.778057 36.702043 5
66.178801 7.205643 37.296436 5
66.558327 4.584404 37.725296 5
66.671033 1.881104 37.914169 5
66.670612 -0.865876 38.003711 5
66.355864 -3.729418 37.810557 5
65.807538 -6.694623 37.408833 5
64.944240 -9.801338 36.724780 5
62.186667 -13.660435 34.320587 9
62.197207 -16.523692 34.443292 9
62.178203 -19.412156 34.543488 9
60.726895 -22.916737 33.346075 9
61.912229 -25.332362 34.550195 9
59.854981 -29.183071 32.813697 9
57.042573 -33.457329 30.399446 9
53.635782 -38.111984 27.454921 9
49.015085 -43.478271 23.420477 9
22.027878 91.472063 1.070915 3
22.047871 88.285124 1.050636 3
17.246790 85.505211 -3.292166 1
16.925784 82.288129 -3.609501 1
-3.204012 69.722558 -21.753595 1
16.492352 66.102309 -4.071630 4
16.711559 62.863148 -3.874784 4
16.732599 59.625552 -3.851031 4
16.710887 56.386382 -3.860805 4
16.722165 53.146902 -3.836090 4
5.261041 49.242662 -14.106435 9
39.730477 48.287875 16.862366 9
45.104492 45.786701 21.712578 9
48.365419 43.217327 24.669393 9
50.644501 40.621437 26.748552 9
52.736150 38.057827 28.663076 9
54.528588 35.503792 30.312700 9
56.208802 32.975093 31.865182 9
57.719965 30.457885 33.269568 9
59.058336 27.944604 34.522556 9
57.471338 24.912864 33.158029 9
61.471293 22.952494 36.802672 9
61.370298 20.215281 36.777300 9
60.516353 17.297972 36.082312 9
61.822767 14.868598 37.324966 9
62.150938 12.218524 37.696107 9
62.214255 9.498428 37.834541 9
62.112147 6.725117 37.829448 9
62.167300 3.985981 37.969246 9
62.184639 1.227131 38.079645 9
62.141660 -1.560612 38.140660 9
62.202411 -4.325540 38.298685 9
62.182670 -7.127778 38.389450 9
62.127298 -9.954939 38.453079 9
61.548648 -12.991249 38.055700 9
60.390848 -16.280392 37.148605 9
61.662687 -18.639720 38.407000 9
61.060684 -21.755361 38.004420 9
59.363817 -25.371596 36.635851 9
57.255534 -29.232279 34.909700 9
54.676826 -33.382655 32.774739 9
51.622807 -37.846022 30.227899 9
46.590192 -43.373397 25.940767 9
10.596926 102.319378 -3.893428 2
10.644926 99.003692 -3.910493 2
5.763112 96.290532 -8.246714 2
19.185025 91.478039 3.480847 3
19.175797 88.293377 3.431307 3
15.398161 85.423450 0.079307 1
15.413325 82.195315 0.061124 1
9.182120 79.327358 -5.435885 1
9.053112 76.031823 -5.570643 1
12.591013 72.618307 -2.480090 1
16.090000 69.296652 0.581960 1
16.104197 66.086730 0.589205 1
16.520445 62.879962 0.954742 4
16.527560 59.675732 0.966204 4
16.537022 56.471037 0.984942 4
16.547815 53.265441 1.010068 4
22.338759 50.388912 6.115191 9
35.077828 48.143227 17.323844 9
41.940313 45.733790 23.376356 9
45.826104 43.212479 26.819421 9
48.471577 40.652954 29.177649 9
47.050312 37.665672 27.972057 9
52.257584 35.524285 32.585129 9
53.957967 32.998039 34.125647 9
55.383951 30.466915 35.429382 9
56.672130 27.943544 36.616164 9
57.897861 25.436227 37.752058 9
58.946816 22.919584 38.736951 9
59.945248 20.413063 39.681481 9
60.729758 17.877771 40.442694 9
61.515677 15.356050 41.209124 9
61.864930 12.738078 41.597788 9
61.109275 9.830547 41.025329 9
60.620709 6.968520 40.691443 9
62.251465 4.698031 42.212576 9
62.304648 1.983858 42.360633 9
62.280194 -0.763211 42.445698 9
62.125521 -3.564045 42.422124 9
61.806164 -6.436151 42.260167 9
61.650837 -9.269650 42.246210 9
58.345004 -13.283016 39.497858 9
60.773172 -15.202052 41.741097 9
59.628302 -18.485003 40.883950 9
58.301393 -21.887218 39.875577 9
56.686076 -25.462047 38.624304 9
54.786091 -29.220603 37.134169 9
52.433119 -33.251646 35.260351 9
49.333019 -37.712062 32.749822 9
12.711318 101.592907 2.961740 2
12.720153 98.346343 2.906882 2
14.379444 94.907680 4.273444 3
16.290714 91.488538 5.862579 3
16.321738 88.299002 5.844593 3
13.840980 85.319023 3.676442 1
13.823811 82.109321 3.627984 1
12.506616 78.975295 2.469074 1
12.456827 75.754544 2.403756 1
8.208291 72.666049 -1.261244 1
15.291891 69.258509 4.810058 1
15.264866 66.074278 4.781276 1
15.334656 62.890210 4.841206 4
15.305279 59.705793 4.821555 4
15.346074 56.522138 4.867736 4
15.344843 53.336488 4.883411 4
17.487848 50.270405 6.745527 9
30.290251 47.992958 17.762826 9
37.561247 45.583360 24.034853 9
42.543493 43.138298 28.345909 9
45.829410 40.634341 31.204999 9
48.090303 38.087265 33.188622 9
49.973721 35.543535 34.852542 9
51.576223 33.002498 36.279680 9
52.929048 30.458081 37.496924 9
54.174895 27.924751 38.626661 9
55.387181 25.411537 39.731796 9
56.425233 22.889288 40.691878 9
57.310300 20.355428 41.525221 9
58.166328 17.831187 42.337973 9
57.971021 15.075575 42.256148 9
58.504874 12.487718 42.802507 9
58.947484 9.882037 43.275446 9
59.207239 7.229582 43.596897 9
59.390864 4.553363 43.858187 9
59.472165 1.842146 44.037127 9
59.384001 -0.929489 44.076713 9
59.219268 -3.738445 44.056368 9
58.886378 -6.619250 43.898364 9
58.391152 -9.577043 43.608023 9
57.889440 -12.561921 43.318148 9
57.897389 -15.379301 43.466999 9
55.934140 -18.981822 41.949358 9
54.845677 -22.295652 41.181456 9
54.104194 -25.507303 40.714639 9
52.232290 -29.242627 39.298466 9
49.782691 -33.302019 37.402928 9
46.203159 -37.964417 34.563447 9
6.581350 108.651791 2.884493 2
6.894779 105.305341 3.066955 2
10.988983 101.430955 6.424615 2
11.062051 98.190494 6.419405 2
12.794980 94.760486 7.812332 3
13.411822 91.496260 8.275888 3
13.459017 88.304504 8.267772 3
12.121148 85.229324 7.103370 1
12.128192 82.031869 7.073381 1
9.862228 78.964243 5.141372 1
9.889477 75.742615 5.140134 1
11.074188 72.487347 6.116731 1
13.599304 69.237705 8.224921 1
13.621490 66.067037 8.237614 1
14.463274 62.902240 8.944427 4
14.477811 59.742713 8.962548 4
14.440307 56.581246 8.942893 4
14.461039 53.420236 8.978056 4
14.431647 50.255338 8.977069 4
25.291392 47.832095 18.121404 9
32.718565 45.399398 24.388134 9
38.134751 42.961416 28.970914 9
42.344615 40.527826 32.545332 9
45.289496 38.046293 35.062590 9
47.388769 35.523971 36.874889 9
49.005770 32.980888 38.287213 9
50.520154 30.457770 39.617931 9
51.780893 27.925004 40.740555 9
52.816977 25.377948 41.679521 9
53.776021 22.836365 42.558537 9
53.909574 20.142592 42.751586 9
54.622344 17.572502 43.434060 9
55.241984 14.991998 44.043398 9
55.697008 12.379691 44.520006 9
56.090143 9.755331 44.949859 9
56.344771 7.095467 45.269140 9
56.511532 4.408692 45.520299 9
56.585170 1.689641 45.699128 9
56.499650 -1.086121 45.750846 9
56.301368 -3.910309 45.714385 9
55.988186 -6.788526 45.588238 9
55.461007 -9.760260 45.290388 9
54.869770 -12.780335 44.945801 9
54.050275 -15.913319 44.418553 9
53.080188 -19.138785 43.773609 9
51.838122 -22.512065 42.910970 9
51.374649 -25.609529 42.700213 9
49.567387 -29.308356 41.386222 9
46.856435 -33.469483 39.335754 9
40.704200 -39.284932 34.459442 9
-0.711560 109.382896 1.852406 2
4.594412 105.213288 6.111467 2
8.074295 101.440187 8.884315 2
8.086005 98.207281 8.823201 2
10.462484 94.702893 10.707328 3
10.554778 91.500546 10.725833 3
10.551103 88.313190 10.672063 3
9.808397 85.188220 10.018360 1
9.832908 81.996013 10.000363 1
6.941574 78.968188 7.595729 1
6.974482 75.745491 7.597084 1
8.831785 72.469160 9.102451 1
11.340484 69.227616 11.149154 1
11.333827 66.063855 11.137389 1
12.174993 62.905362 11.827935 4
12.171134 59.751742 11.831047 4
12.164281 56.597263 11.837983 4
12.169846 53.442030 11.861400 4
12.162757 50.284664 11.880725 4
20.191785 47.668521 18.500570 9
27.800498 45.214104 24.779529 9
33.280109 42.748022 29.315604 9
37.868983 40.320849 33.125031 9
41.533702 37.895473 36.180612 9
44.204520 35.428375 38.425546 9
46.251727 32.934877 40.163774 9
47.875246 30.422326 41.559413 9
48.691290 27.810713 42.298535 9
49.253715 25.168728 42.835136 9
50.302850 22.628318 43.775040 9
51.132655 20.063332 44.540409 9
51.851748 17.488722 45.220231 9
52.414276 14.889468 45.777180 9
52.895170 12.277419 46.272621 9
53.235954 9.634243 46.658972 9
53.512521 6.974508 46.998326 9
53.654870 4.275791 47.233785 9
53.677162 1.536699 47.377132 9
53.591617 -1.244066 47.438567 9
53.373500 -4.078973 47.398240 9
53.050301 -6.964509 47.278803 9
52.571969 -9.922462 47.039935 9
51.908147 -12.970234 46.657446 9
51.074672 -16.109774 46.144684 9
49.961352 -19.390570 45.412998 9
48.528703 -22.839960 44.431287 9
46.429810 -26.613409 42.920359 9
46.283207 -29.630921 42.994557 9
7.810484 -49.386257 12.191810 9
5.144600 101.449885 11.351658 2
5.183762 98.212951 11.308151 2
7.401746 94.729628 13.017668 3
7.662196 91.507367 13.165861 3
7.684338 88.317009 13.129867 3
6.764369 85.205025 12.345053 1
6.743404 82.013378 12.287856 1
4.049629 78.969915 10.093011 1
4.015608 75.749735 10.038548 1
5.618740 72.480551 11.304661 1
9.381466 69.212096 14.310871 1
9.414955 66.058438 14.331099 1
9.310018 62.904973 14.246881 4
9.280697 59.750116 14.230000 4
9.293792 56.595175 14.253813 4
9.241894 53.436687 14.232132 4
9.227125 50.277426 14.246915 4
15.045868 47.506030 18.947855 9
22.728081 45.021351 25.148226 9
28.308531 42.529408 29.667116 9
32.920956 40.070402 33.414081 9
36.795651 37.635300 36.573937 9
40.005828 35.206190 39.205569 9
42.674656 32.775705 41.407904 9
42.805319 30.019230 41.582668 9
44.238938 27.475792 42.805949 9
45.747838 24.975750 44.094393 9
46.924531 22.444401 45.122058 9
47.914570 19.898504 46.005576 9
48.726438 17.332626 46.751906 9
49.380874 14.744504 47.377812 9
49.890621 12.130966 47.893666 9
50.281684 9.492783 48.320412 9
50.555371 6.825477 48.659292 9
50.672898 4.113513 48.879653 9
50.726717 1.377337 49.055339 9
50.587465 -1.424950 49.083707 9
50.358817 -4.268506 49.047514 9
49.946744 -7.187997 48.872419 9
49.366930 -10.185608 48.571330 9
48.599263 -13.275421 48.128800 9
47.556767 -16.497085 47.476580 9
46.084755 -19.920488 46.493232 9
44.077463 -23.604499 45.096514 9
40.777445 -27.877605 42.690743 9
40.043373 -31.178217 42.319037 9
33.504299 -37.016375 37.388919 9
1.526401 101.553330 13.300944 2
1.706712 98.289854 13.362951 2
3.397344 94.862549 14.615366 3
4.730982 91.516883 15.596142 3
4.785114 88.322693 15.581871 3
2.667639 85.302965 13.872354 1
2.684613 82.093789 13.842882 1
1.056292 78.976498 12.530281 1
1.084061 75.752275 12.523401 1
1.300122 72.524605 12.671401 1
6.500972 69.213332 16.737006 1
6.521300 66.058933 16.745940 1
5.640467 62.899821 16.054931 4
5.629709 59.735004 16.053527 4
5.578982 56.568075 16.027810 4
5.585594 53.401256 16.054117 4
5.542162 50.230367 16.048231 4
9.841587 47.343857 19.454633 9
17.580534 44.827655 25.563090 9
23.285994 42.311787 30.081880 9
27.878210 39.816640 33.732744 9
31.935484 37.367846 36.969023 9
35.090580 34.899303 39.503242 9
38.050639 32.476072 41.889394 9
37.511244 29.592432 41.542051 9
39.503090 27.103416 43.180993 9
41.273928 24.618998 44.652063 9
42.776452 22.121960 45.918440 9
43.988678 19.597799 46.963192 9
44.963380 17.046742 47.827817 9
45.762884 14.473702 48.561207 9
46.343649 11.861590 49.129660 9
46.792787 9.223649 49.601354 9
47.033063 6.534455 49.916406 9
47.211380 3.826060 50.189442 9
47.197136 1.058384 50.319132 9
47.032925 -1.763482 50.338966 9
46.704259 -4.650124 50.238077 9
46.160442 -7.624631 49.977613 9
45.431408 -10.685578 49.581324 9
44.376341 -13.889715 48.940863 9
42.848601 -17.303142 47.943876 9
40.708341 -20.997037 46.483816 9
37.742853 -25.078181 44.398558 9
33.659096 -29.696732 41.465027 9
33.331853 -32.881828 41.435321 9
-0.157937 94.940451 16.617432 3
1.604605 91.544779 17.899489 3
1.676178 88.345949 17.894674 3
-1.952698 85.438434 15.062238 1
-1.885437 82.205192 15.068535 1
6.131254 69.169535 21.109678 1
6.158658 66.044295 21.123389 1
-16.795286 62.783234 3.523482 4
-16.753554 59.386170 3.563416 4
-16.718528 55.989213 3.606145 4
-0.084249 53.283208 16.381501 4
-0.136522 50.078163 16.371356 4
4.478270 47.175472 19.945244 9
12.266768 44.626077 25.956687 9
18.060943 42.081679 30.444902 9
22.713099 39.556972 34.063237 9
26.592749 37.052639 37.094945 9
30.034585 34.582637 39.796413 9
32.999527 32.125645 42.137848 9
32.437149 29.209112 41.787199 9
34.492312 26.696319 43.444042 9
36.254918 24.177176 44.882596 9
37.801792 21.655071 46.161737 9
39.142596 19.123813 47.289010 9
40.240643 16.567942 48.236646 9
41.132531 13.986433 49.032823 9
41.850701 11.379037 49.702522 9
42.375923 8.734332 50.231376 9
42.692664 6.040878 50.607907 9
42.850766 3.304127 50.870372 9
42.783353 0.498903 50.968355 9
42.520410 -2.374703 50.925102 9
42.018203 -5.337865 50.707971 9
41.236559 -8.412851 50.287186 9
40.194183 -11.604421 49.677660 9
38.697351 -14.989837 48.733877 9
36.810905 -18.563669 47.506077 9
34.219480 -22.458253 45.757898 9
30.829547 -26.737067 43.421152 9
28.634209 -30.642262 41.996454 9
24.221879 -35.523782 38.919931 9
-3.414056 91.760438 18.816820 3
-3.353401 88.537356 18.799252 3
-6.341400 85.552336 16.507119 1
-6.749054 82.332439 16.154186 1
-18.198567 79.690341 7.538624 1
-14.074415 76.138703 10.595038 1
-13.791189 72.798788 10.782778 1
1.142975 69.207986 21.956230 1
1.154975 66.057205 21.957511 1
-7.387227 62.856577 15.556841 4
-7.439487 59.604543 15.525640 4
-7.473160 56.351181 15.516330 4
-7.507788 53.095913 15.514275 4
-11.561531 49.625370 12.509841 9
-1.028344 47.002162 20.438240 9
6.695991 44.409997 26.268139 9
12.529677 41.830412 30.687610 9
17.389481 39.288071 34.383291 9
21.387458 36.760776 37.439270 9
24.879882 34.261840 40.122286 9
27.846469 31.770312 42.417334 9
27.246668 28.818385 42.053263 9
29.332613 26.275872 43.702133 9
31.101391 23.723565 45.119802 9
32.651686 21.167943 46.380132 9
33.980480 18.600306 47.481062 9
35.032435 16.000932 48.381603 9
35.968704 13.394904 49.202066 9
36.646632 10.744716 49.836492 9
37.169253 8.065780 50.361872 9
37.483174 5.338464 50.738837 9
37.498324 2.530684 50.900973 9
37.373696 -0.324345 50.966771 9
37.025054 -3.256780 50.874210 9
36.416548 -6.286219 50.597347 9
35.490219 -9.441091 50.094057 9
34.240819 -12.735416 49.361369 9
32.624205 -16.196859 48.367719 9
30.378647 -19.932415 46.921525 9
27.446616 -23.987450 44.982437 9
23.399000 -28.551285 42.237496 9
23.581313 -31.573425 42.611843 9
11.329856 -39.631874 33.885528 9
-6.235222 91.752375 21.436043 3
-6.160363 88.529210 21.425031 3
-18.290082 86.235596 12.494521 3
-10.919569 82.411725 17.836067 1
-11.741573 79.191700 17.192790 1
-11.724709 75.920215 17.171692 1
-11.706027 72.650557 17.160298 1
-10.033828 69.353508 18.367822 1
-6.364213 66.084415 21.046186 4
-18.388859 49.423852 12.328037 9
-6.642826 46.826427 20.965323 9
1.126373 44.199521 26.697898 9
6.994590 41.585193 31.045292 9
11.963540 39.015907 34.740508 9
16.067034 36.463643 37.808473 9
19.560073 33.929036 40.435814 9
22.287174 31.369505 42.509261 9
21.909733 28.416253 42.322627 9
24.027961 25.843293 43.964209 9
25.848849 23.264742 45.394837 9
27.383496 20.671821 46.622840 9
28.680757 18.063544 47.684072 9
29.764924 15.436168 48.596474 9
30.646298 12.784035 49.367805 9
31.295213 10.092799 49.976812 9
31.743642 7.361508 50.447091 9
31.994350 4.583316 50.781024 9
32.040822 1.749008 50.974303 9
31.814188 -1.168257 50.977549 9
31.330846 -4.174054 50.803279 9
30.614313 -7.271085 50.469163 9
29.544085 -10.506112 49.888939 9
28.102953 -13.898219 49.051239 9
26.184435 -17.497603 47.880580 9
23.671928 -21.363363 46.294666 9
20.299386 -25.614689 44.104462 9
16.518378 -30.115128 41.636582 9
14.306408 -34.114914 40.308448 9
-24.131846 49.283562 13.074593 9
-12.471091 46.641703 21.454640 9
-4.585176 43.983836 27.141893 9
1.296397 41.332156 31.402561 9
6.339854 38.731337 35.070267 9
10.541267 36.151637 38.142381 9
14.081631 33.585525 40.748389 9
15.972514 30.878411 42.183628 9
16.425488 28.003114 42.600454 9
18.551672 25.394973 44.216960 9
20.341246 22.774869 45.599944 9
21.925653 20.154342 46.843241 9
23.228752 17.511356 47.892887 9
24.300892 14.845953 48.784995 9
25.138432 12.148909 49.517290 9
25.780548 9.420498 50.117925 9
26.198859 6.646703 50.567125 9
26.385799 3.817335 50.859968 9
26.304003 0.913990 50.970520 9
26.015922 -2.056217 50.943542 9
25.448076 -5.122115 50.727710 9
24.577637 -8.301022 50.307692 9
23.368357 -11.615590 49.658843 9
21.681066 -15.123453 48.684316 9
19.512539 -18.843660 47.383340 9
16.580156 -22.892338 45.559253 9
12.581452 -27.406687 43.002695 9
11.167729 -31.072736 42.271662 9
2.816079 -37.444894 36.706516 9
-30.455627 49.117178 13.530171 9
-18.534496 46.447011 21.900348 9
-10.534241 43.756106 27.538848 9
-4.569215 41.071279 31.762866 9
0.611683 38.443919 35.445844 9
4.916887 35.836938 38.524063 9
8.635822 33.254738 41.199586 9
9.382257 30.363113 41.810532 9
10.798023 27.580069 42.895275 9
12.928069 24.935348 44.484216 9
14.720786 22.278734 45.845116 9
16.300491 19.620353 47.064669 9
17.579826 16.936002 48.082415 9
18.657340 14.234739 48.967104 9
19.488647 11.499794 49.688241 9
20.096532 8.727357 50.262001 9
20.437009 5.898894 50.658351 9
20.518327 3.006704 50.883536 9
20.402554 0.057377 50.980995 9
20.022513 -2.974665 50.904889 9
19.321975 -6.115125 50.617177 9
18.307348 -9.373973 50.123163 9
16.876573 -12.794222 49.353655 9
15.004836 -16.399233 48.292913 9
12.449323 -20.285751 46.775947 9
9.067938 -24.527819 44.707746 9
4.264516 -29.367623 41.683647 9
3.617633 -32.811321 41.515977 9
-36.926233 48.947627 14.017771 9
-24.760877 46.247225 22.361543 9
-16.599937 43.525676 27.981181 9
-10.523958 40.809551 32.186084 9
-5.352662 38.141214 35.780991 9
-0.901602 35.509506 38.891694 9
2.809476 32.887358 41.504981 9
2.576745 29.832401 41.442248 9
4.931123 27.133986 43.147052 9
7.099371 24.456126 44.732278 9
8.945711 21.769876 46.105814 9
10.491357 19.067661 47.282350 9
11.819393 16.354436 48.318533 9
12.818807 13.600360 49.139436 9
13.600941 10.817207 49.820899 9
14.144438 7.992409 50.348846 9
14.453131 5.118256 50.726314 9
14.536686 2.188603 50.960319 9
14.259057 -0.839679 50.959699 9
13.818122 -3.926536 50.858551 9
12.939975 -7.154808 50.473199 9
11.766397 -10.498983 49.900077 9
10.117398 -14.024622 49.019420 9
7.944149 -17.764518 47.800037 9
5.024109 -21.810729 46.094853 9
0.980534 -26.318322 43.654816 9
-2.034299 -30.573062 41.918902 9
-7.329109 -35.739756 38.681706 9
-31.144753 46.042926 22.848040 9
-22.890610 43.284859 28.400722 9
-16.626793 40.542169 32.635595 9
-11.446257 37.833988 36.156585 9
-6.938037 35.167343 39.237209 9
-3.150584 32.513681 41.845462 9
-3.574370 29.398945 41.664218 9
-1.051594 26.683080 43.447738 9
1.125721 23.967216 45.009273 9
2.966374 21.240827 46.354920 9
4.513761 18.499776 47.513745 9
5.792148 15.738313 48.502128 9
6.776499 12.942067 49.303873 9
7.542253 10.116395 49.969255 9
8.033832 7.241302 50.461980 9
8.302389 4.318865 50.816296 9
8.252583 1.317951 50.969923 9
7.951622 -1.755731 50.967810 9
7.295708 -4.938823 50.742446 9
6.316910 -8.235191 50.315851 9
4.923277 -11.683085 49.628764 9
2.997203 -15.332817 48.605546 9
0.488920 -19.219138 47.215415 9
-2.871482 -23.450519 45.284302 9
-7.679806 -28.257586 42.427103 9
-7.846152 -31.578120 42.609012 9
-23.027438 -40.305783 33.054378 9
-37.761783 45.829743 23.316459 9
-29.361263 43.037315 28.835742 9
-22.741131 40.280763 33.205486 9
-17.721609 37.517575 36.542991 9
-13.165891 34.813840 39.586561 9
-9.395690 32.116458 42.127587 9
-9.809734 28.965789 41.964090 9
-7.280334 26.209644 43.716791 9
-5.048361 23.460816 45.284476 9
-3.200622 20.695109 46.611217 9
-1.686597 17.908057 47.730061 9
-0.409252 15.105953 48.704058 9
0.565791 12.267759 49.491185 9
1.267828 9.388997 50.110805 9
1.734910 6.468372 50.587902 9
1.900873 3.482455 50.880405 9
1.742729 0.415133 50.974221 9
1.319272 -2.730263 50.907866 9
0.559578 -5.981849 50.636624 9
-0.597240 -9.368295 50.122506 9
-2.208502 -12.920122 49.330095 9
-4.415941 -16.695660 48.170418 9
-7.331969 -20.750850 46.573833 9
-11.316142 -25.226135 44.314073 9
-16.054522 -30.055372 41.594267 9
-19.046102 -34.406783 40.003140 9
-36.074574 42.778899 29.253239 9
-29.414298 39.980307 33.547831 9
-24.115857 37.198250 36.986872 9
-19.547646 34.453406 39.970805 9
-15.730348 31.719090 42.486780 9
-16.238957 28.519284 42.274707 9
-13.653516 25.728508 44.028266 9
-11.470688 22.930593 45.535408 9
-9.602929 20.125876 46.851727 9
-8.081686 17.298266 47.957706 9
-6.858802 14.444692 48.884111 9
-5.896962 11.562102 49.654846 9
-5.216762 8.637274 50.257383 9
-4.858205 5.651857 50.667125 9
-4.762718 2.607958 50.921483 9
-4.986276 -0.516924 50.986004 9
-5.518818 -3.731441 50.867793 9
-6.477211 -7.076844 50.494685 9
-7.839197 -10.561999 49.881804 9
-9.723367 -14.234656 48.956534 9
-12.258851 -18.151158 47.640246 9
-15.653069 -22.397780 45.806306 9
-20.371092 -27.152101 43.169297 9
-22.295043 -31.108517 42.283398 9
-33.031371 -38.116165 35.966950 9
-43.711983 42.462048 29.241298 9
-36.249575 39.674381 33.932228 9
-30.849299 36.855938 37.355910 9
-26.184243 34.076011 40.333022 9
-22.985198 31.227101 42.412742 9
-22.885633 28.057089 42.588758 9
-20.275576 25.225939 44.322723 9
-18.116881 22.381083 45.786861 9
-16.246473 19.533160 47.081970 9
-14.723590 16.662434 48.171900 9
-13.503493 13.765220 49.084580 9
-12.574239 10.833512 49.827779 9
-11.974791 7.849530 50.378098 9
-11.695057 4.804170 50.742354 9
-11.658706 1.703552 50.967923 9
-12.041423 -1.502068 50.948078 9
-12.726707 -4.798405 50.754965 9
-13.840994 -8.228539 50.312436 9
-15.370837 -11.803725 49.629960 9
-17.606000 -15.619496 48.532879 9
-20.547831 -19.700629 47.022666 9
-24.575473 -24.186292 44.872223 9
-30.292776 -29.303462 41.720373 9
-31.709079 -33.164280 41.187802 9
-89.786913 39.472543 6.212678 8
-44.123287 39.292754 33.835912 9
-37.772275 36.505147 37.754137 9
-33.027126 33.687291 40.712413 9
-31.029509 30.658309 42.024591 9
-29.790835 27.574808 42.889727 9
-27.151855 24.702092 44.606599 9
-24.937310 21.820320 46.077099 9
-23.075916 18.926569 47.344409 9
-21.566897 16.009214 48.409376 9
-20.389935 13.060102 49.284633 9
-19.527872 10.071335 49.980951 9
-18.977032 7.033036 50.501079 9
-18.717513 3.938865 50.857516 9
-18.873212 0.751456 50.977031 9
-19.352418 -2.521919 50.915248 9
-20.199990 -5.903270 50.646370 9
-21.516234 -9.430768 50.111913 9
-23.377477 -13.140724 49.268060 9
-25.945994 -17.096727 48.020514 9
-29.305086 -21.346972 46.322423 9
-34.113984 -26.115775 43.787648 9
-37.728079 -30.632129 41.978836 9
-96.876263 39.236382 7.435736 8
-84.588961 36.323912 14.753816 8
-76.964298 33.248792 19.338451 8
-40.010028 33.294459 41.155458 9
-39.397490 30.067268 41.629199 9
-36.904393 27.079405 43.216931 9
-34.251518 24.161950 44.907661 9
-32.014850 21.236984 46.363643 9
-30.166912 18.295110 47.601348 9
-28.699279 15.324937 48.626148 9
-27.531867 12.328009 49.485323 9
-26.754172 9.277616 50.127136 9
-26.237676 6.186219 50.627170 9
-26.139947 3.012179 50.894275 9
-26.369156 -0.238341 50.982764 9
-26.981494 -3.589308 50.860864 9
-28.033924 -7.067378 50.496622 9
-29.567283 -10.697704 49.867710 9
-31.763538 -14.544411 48.870528 9
-34.737828 -18.661418 47.440831 9
-38.733321 -23.144327 45.441287 9
-45.365732 -28.505870 41.946910 9
-105.122940 38.927726 8.135637 8
-92.619175 35.975002 15.399094 8
-85.018751 32.844295 19.860778 8
-79.287387 29.683638 23.261130 8
-46.084223 29.676475 42.385386 9
-44.598357 26.526446 43.365168 9
-41.623387 23.599821 45.206159 9
-39.388992 20.626402 46.633617 9
-37.571919 17.631798 47.832721 9
-36.096014 14.614892 48.847353 9
-35.023209 11.553725 49.642737 9
-34.237315 8.456585 50.285575 9
-33.823530 5.297307 50.728029 9
-33.851353 2.049276 50.931480 9
-34.131548 -1.261013 51.004097 9
-34.992558 -4.716888 50.760882 9
-36.268232 -8.297909 50.297208 9
-38.080251 -12.048319 49.545780 9
-40.603020 -16.031434 48.410192 9
-44.402937 -20.424508 46.574655 9
-101.044753 35.604380 15.992479 8
-93.428940 32.418824 20.355593 8
-87.598022 29.212248 23.732181 8
-83.117976 25.975979 26.365351 8
-77.557996 22.958788 29.609988 8
-72.935350 19.931437 32.341558 8
-49.657795 19.623748 45.453775 9
-45.815575 16.858487 47.759097 9
-43.922361 13.853427 48.991048 9
-42.745397 10.759313 49.836088 9
-42.077251 7.591147 50.410295 9
-41.759047 4.363233 50.802496 9
-41.821935 1.057755 50.996251 9
-42.379147 -2.362103 50.930045 9
-43.418918 -5.909858 50.611649 9
-45.456949 -9.723135 49.758964 9
-57.927067 -16.162712 43.197458 9
-93.208564 -28.752741 24.174554 8
-102.072172 31.983960 20.903120 8
-96.169789 28.727481 24.238921 8
-91.780420 25.425503 26.763283 8
-85.620816 22.420404 30.258461 8
-81.372398 19.291988 32.726270 8
-78.543270 16.049138 34.435280 8
-76.441234 12.751072 35.761787 8
-74.878510 9.404900 36.808253 8
-73.928620 5.980908 37.535818 8
-73.624308 2.453645 37.927933 8
-73.966497 -1.197684 37.985423 8
-75.024336 -5.007776 37.672598 8
-76.942082 -9.030288 36.913832 8
-79.996429 -13.354612 35.563172 8
-84.599765 -18.113668 33.403237 8
-95.155821 -24.433023 28.086270 8
170.672344 146.402193 -164.251602 0
156.586225 141.756747 -154.326373 0
156.360337 146.688504 -152.992550 0
171.299196 145.624381 -158.737326 0
145.086312 141.329835 -144.630391 0
143.874352 146.571618 -142.892703 0
157.790529 145.608890 -148.056921 0
170.522408 145.401872 -152.622098 0
181.912492 145.965933 -156.529209 0
134.251794 140.893774 -135.491990 0
132.271075 146.385635 -133.467188 0
145.296336 145.505275 -138.129428 0
157.019120 145.425111 -142.158399 0
169.626927 145.232591 -146.524496 0
182.257152 145.287154 -150.845932 0
124.030987 140.445837 -126.863426 0
121.589593 146.078438 -124.700843 0
133.410644 145.449087 -128.742498 0
144.226479 145.485371 -132.299639 0
155.999739 145.348386 -136.220199 0
168.246313 145.261873 -140.291617 0
180.830301 145.292562 -144.453669 0
114.317338 140.011785 -118.676091 0
111.802430 145.626129 -116.548933 0
121.985996 145.482281 -119.810933 0
132.467681 145.415140 -123.154876 0
143.444069 145.350699 -126.660940 0
153.413960 145.918703 -129.704995 0
166.697487 145.365430 -134.071074 0
178.744604 145.559766 -137.876013 0
189.452627 146.494472 -141.089104 0
105.096660 139.578431 -110.904843 0
102.729868 145.077799 -108.905212 0
111.125420 145.539811 -111.359286 0
121.371481 145.339602 -114.536029 0
131.548981 145.376212 -117.642283 0
140.317738 146.210874 -120.139549 0
153.800195 145.279717 -124.489793 0
165.219448 145.448448 -127.962316 0
177.204431 145.625257 -131.612458 0
96.345681 139.137809 -103.521738 0
94.134625 144.519961 -101.648317 0
100.828567 145.599873 -103.366587 0
110.928303 145.237336 -106.415192 0
120.549082 145.294391 -109.232746 0
144.744798 139.198377 -117.726402 0
139.155859 146.250159 -114.505594 0
152.448998 145.358147 -118.631501 0
163.763397 145.529962 -121.941496 0
88.027513 138.690107 -96.494693 0
86.309237 143.787995 -94.875267 0
91.062140 145.656617 -95.799327 0
100.459327 145.403937 -98.506348 0
109.279551 145.606919 -100.953645 0
119.654239 145.286446 -103.959331 0
127.636851 146.219698 -106.017132 0
140.354530 145.293334 -109.826948 0
151.071731 145.453899 -112.836836 0
160.354994 146.401112 -115.273116 0
83.741608 140.554115 -90.270438 3
84.820622 144.194777 -89.772025 3
90.289382 145.683181 -90.930413 0
99.454396 145.512730 -93.451292 0
109.070660 145.317792 -96.103099 0
116.550727 146.276407 -97.930818 0
128.720467 145.322431 -101.445731 0
139.146710 145.361069 -104.278182 0
149.450417 145.657080 -107.026231 0
76.135901 140.012539 -83.845739 3
76.020397 144.190178 -82.930751 3
84.158431 144.193501 -85.041114 3
92.620774 144.200159 -87.237674 3
98.509765 145.597420 -88.475860 0
108.009780 145.426045 -90.985231 0
117.782367 145.321801 -93.554460 0
127.846093 145.284488 -96.188626 0
137.713130 145.530840 -98.715553 0
68.862065 139.475490 -77.695171 3
67.616823 144.192519 -76.412077 3
75.387033 144.202158 -78.339539 3
83.493736 144.196929 -80.355903 3
91.932098 144.190164 -82.457361 3
97.620023 145.660263 -83.574072 0
106.995336 145.517449 -85.941455 0
116.853134 145.343394 -88.438004 0
126.557192 145.433468 -90.845011 0
134.015347 146.675558 -92.459810 0
60.162338 143.887787 -70.392691 3
67.059112 144.191371 -71.969042 3
74.785631 144.200844 -73.803189 3
82.862599 144.186849 -75.727163 3
91.214139 144.198024 -77.713311 3
99.239793 144.529448 -79.559982 0
106.022938 145.593759 -80.966798 0
115.865711 145.395773 -83.355799 0
124.412744 145.965075 -85.285646 0
53.587470 143.275832 -64.816845 3
59.084984 144.192263 -65.884079 3
66.489438 144.199337 -67.562279 3
74.180400 144.204493 -69.307246 3
82.178802 144.206427 -71.124063 3
90.510113 144.202510 -73.019111 3
99.194800 144.193622 -74.996958 3
105.075772 145.662549 -76.052639 0
114.534442 145.608682 -78.218410 0
47.167190 142.732492 -59.419592 3
51.444350 144.202316 -60.065444 3
58.538165 144.212658 -61.597232 3
65.925276 144.207105 -63.196417 3
73.619170 144.188307 -64.865468 3
81.506313 144.223466 -66.567189 3
89.836724 144.195254 -68.377894 3
98.442537 144.198893 -70.243348 3
105.856117 144.928385 -71.714967 0
111.422682 146.636906 -72.603230 0
41.040289 142.171074 -54.238143 3
44.175437 144.186764 -54.513074 3
50.973458 144.204275 -55.908582 3
58.075870 144.189637 -57.373185 3
65.402300 144.195651 -58.880697 3
72.968970 144.220882 -60.434752 3
80.918404 144.200826 -62.076542 3
89.147238 144.199078 -63.773177 3
97.682638 144.211257 -65.531095 3
36.329871 137.089919 -50.278310 3
35.076826 141.657306 -49.222616 3
38.446531 143.449653 -49.563086 3
43.732995 144.194513 -50.464257 3
50.519200 144.199140 -51.790106 3
57.541105 144.208279 -53.161422 3
64.851066 144.201655 -54.592047 3
72.409166 144.209373 -56.068848 3
80.307489 144.192596 -57.616730 3
88.477716 144.196121 -59.214403 3
31.729354 132.046349 -46.386288 3
32.386487 135.480308 -45.920217 3
34.368899 138.074697 -45.843464 3
36.525000 140.572297 -45.815310 3
39.444663 142.636187 -46.002820 3
43.605201 144.024634 -46.535883 3
50.048332 144.205329 -47.698782 3
57.054675 144.202878 -48.997254 3
64.305811 144.206891 -50.339778 3
71.865257 144.192128 -51.742440 3
79.693376 144.188703 -53.192720 3
87.814084 144.193183 -54.695626 3
-51.744868 4.628588 -48.293786 9
-51.695804 11.075709 -47.272829 9
-50.232057 15.207059 -46.876740 9
-47.770751 17.780153 -46.909175 9
-43.845964 18.220851 -47.545982 9
28.330240 122.359023 -43.515457 3
28.168632 126.407677 -42.821359 3
30.146470 129.002372 -42.741990 3
32.149401 131.585856 -42.668341 3
34.202034 134.144397 -42.606993 3
36.185959 136.753030 -42.524788 3
38.190300 139.356224 -42.446525 3
40.698119 141.672904 -42.503339 3
44.169361 143.460608 -42.815930 3
49.614319 144.192945 -43.648383 3
56.586885 144.189428 -44.869651 3
63.811475 144.187302 -46.134240 3
71.290898 144.193129 -47.441524 3
79.059851 144.197296 -48.799133 3
-150.000884 -6.891445 -28.336243 7
-150.007557 3.847992 -26.758766 7
-150.265740 14.722129 -25.115135 7
-147.465334 15.842917 -25.456190 7
-143.755266 14.330513 -26.347614 7
-139.795490 12.276280 -27.362889 7
-135.168738 8.598844 -28.736214 7
-112.132444 2.662685 -33.733514 8
-111.778555 9.867716 -32.730677 8
-110.488938 14.739301 -32.238743 8
-108.560133 18.080239 -32.086177 8
-105.769920 19.543947 -32.363795 8
-101.660750 18.345160 -33.269144 8
-96.927008 16.044868 -34.447635 8
-91.080651 11.786992 -36.112651 8
-60.951047 -0.192630 -43.192065 9
-61.311034 7.184792 -42.025631 9
-61.818154 14.559468 -40.832945 9
-60.200285 18.368628 -40.544244 9
-58.058004 21.291338 -40.478921 9
-55.731510 23.893991 -40.492771 9
-53.364529 26.408170 -40.526028 9
-50.942301 28.818670 -40.583546 9
-48.401723 31.043595 -40.688600 9
-45.278358 32.454163 -41.016367 9
-41.044661 32.388031 -41.757993 9
-30.831553 24.488904 -44.714319 9
-23.713963 21.009211 -46.467594 9
24.864502 112.586684 -40.598648 3
23.882913 117.332466 -39.689329 3
25.899492 119.903583 -39.620556 3
27.920382 122.475564 -39.551472 3
29.924318 125.063434 -39.476169 3
31.948948 127.642491 -39.404803 3
33.974022 130.227171 -39.331727 3
36.010693 132.811106 -39.259796 3
38.015676 135.421853 -39.177467 3
40.043932 138.025782 -39.099177 3
42.197058 140.564898 -39.050952 3
45.180371 142.640941 -39.212799 3
49.447178 144.033138 -39.694783 3
56.081293 144.198648 -40.762443 3
63.276732 144.191422 -41.949356 3
70.731396 144.188754 -43.177297 3
-148.624806 -9.779894 -25.152673 7
-145.565452 -8.733079 -25.553377 7
-151.302520 19.288389 -20.728773 7
-148.365492 19.838271 -21.172973 7
-142.529853 12.080889 -23.258336 7
-141.587067 18.502352 -22.549073 7
-138.287963 18.232387 -23.165292 7
-134.960893 17.969169 -23.784338 7
-131.453465 17.325699 -24.485744 7
-127.650806 16.051349 -25.323840 7
-123.712368 14.585320 -26.210669 7
-119.505618 12.635077 -27.209352 7
-114.536142 9.112301 -28.555022 8
-113.169877 13.862170 -28.138807 8
-111.600998 17.999911 -27.840591 8
-107.206241 16.023016 -28.870671 8
-107.136342 23.132780 -27.902212 8
-104.250671 24.300149 -28.236600 8
-100.526090 23.832918 -28.939555 8
-96.659166 23.184269 -29.690779 8
-92.820140 22.688321 -30.414877 8
-88.584949 21.561600 -31.292799 8
-84.069328 20.056872 -32.269716 8
-79.272941 18.202358 -33.341722 8
-74.055062 15.784653 -34.562349 8
-67.263139 10.919763 -36.389254 8
-62.091748 8.992020 -37.531081 9
-62.170624 15.619068 -36.590490 9
-60.960880 20.026447 -36.176189 9
-60.544747 25.540787 -35.472123 9
-58.049593 27.786097 -35.574284 9
-55.559052 30.022918 -35.675598 9
-52.941062 32.062790 -35.824664 9
-50.406992 34.216086 -35.942479 9
-47.619352 36.011609 -36.151753 9
-44.298953 37.095110 -36.548968 9
-40.137671 37.103425 -37.236650 9
-35.155355 36.129098 -38.198354 9
-24.184228 27.670042 -41.211832 9
-24.979791 34.280873 -40.138376 9
-19.654530 33.249542 -41.160783 9
-14.110160 32.084891 -42.236880 9
-1.456888 22.721968 -45.650448 9
8.646355 16.749621 -48.159157 9
21.343733 102.701179 -37.631697 3
20.262670 107.685216 -36.716507 3
21.636360 110.752606 -36.474101 3
23.665930 113.325169 -36.407957 3
25.674477 115.915305 -36.334615 3
27.720626 118.481879 -36.269476 3
29.693749 121.102730 -36.183442 3
31.746907 123.673038 -36.116335 3
33.746914 126.283996 -36.033502 3
35.775873 128.881399 -35.955996 3
37.796092 131.490672 -35.874067 3
39.822027 134.103180 -35.791280 3
41.855740 136.718490 -35.708019 3
43.956451 139.302752 -35.638668 3
46.447518 141.673785 -35.661371 3
50.032761 143.452941 -35.943470 3
55.569971 144.213003 -36.683622 3
62.747071 144.194953 -37.796311 3
-150.166020 -14.252015 -21.600623 7
-147.016614 -13.401590 -22.043345 7
-143.758564 -12.881795 -22.544624 7
-151.312777 20.674491 -17.039858 7
-149.227878 23.682076 -17.023715 7
-145.960580 23.179786 -17.649869 7
-142.617094 22.558578 -18.302605 7
-139.235357 21.933776 -18.960902 7
-135.833784 21.356483 -19.615153 7
-132.323887 20.600300 -20.308955 7
-128.766815 19.833867 -21.010598 7
-125.168112 19.074062 -21.716981 7
-121.656225 18.623624 -22.368026 7
-118.178314 18.340494 -22.990627 7
-114.905658 18.594386 -23.508999 8
-113.086106 22.045958 -23.375381 8
-111.163069 25.174512 -23.298700 8
-108.959194 27.638917 -23.352113 8
-106.185981 28.908501 -23.651492 8
-102.572997 28.539715 -24.298537 8
-98.621605 27.608909 -25.072191 8
-94.562896 26.589599 -25.873430 8
-90.469420 25.623255 -26.672055 8
-86.461260 24.923497 -27.420755 8
-82.443308 24.309560 -28.158423 8
-78.399234 23.750759 -28.891662 8
-74.323659 23.237340 -29.622577 8
-70.161007 22.678541 -30.371958 8
-65.612616 21.603558 -31.249492 8
-62.173380 22.382971 -31.704116 9
-61.334331 27.181387 -31.212296 9
-59.848321 30.888119 -30.965938 9
-57.227197 32.854891 -31.128537 9
-54.554607 34.744197 -31.307960 9
-51.953536 36.734606 -31.461029 9
-49.280832 38.623878 -31.637265 9
-46.233650 40.010681 -31.937921 9
-42.493353 40.505448 -32.465191 9
-38.056849 40.159438 -33.212739 9
-33.372068 39.593843 -34.027095 9
-28.566989 38.984109 -34.864646 9
-23.600882 38.286648 -35.737570 9
-18.507544 37.550612 -36.633931 9
-13.289701 36.785203 -37.552010 9
-7.781031 35.804996 -38.542672 9
-2.276937 34.959223 -39.512735 9
3.603973 33.823249 -40.578819 9
9.684877 32.609748 -41.684618 9
22.546072 24.343419 -44.795515 9
31.704675 20.351118 -46.751039 9
16.694140 97.839736 -33.717556 3
17.337232 101.542869 -33.289597 3
19.420900 104.087272 -33.239236 3
21.383205 106.725521 -33.155852 3
23.396576 109.324716 -33.084014 3
25.430881 111.909851 -33.015681 3
27.459577 114.501479 -32.943976 3
29.498707 117.088834 -32.872816 3
31.522947 119.690334 -32.795810 3
33.549879 122.294217 -32.717244 3
35.568752 124.908269 -32.634406 3
37.613034 127.511315 -32.555280 3
39.663540 130.117041 -32.475058 3
41.705480 132.735358 -32.390127 3
43.757840 135.355086 -32.304891 3
45.815020 137.980487 -32.217901 3
48.038516 140.519583 -32.166188 3
51.037967 142.637275 -32.287748 3
55.376757 144.054857 -32.705507 3
62.228351 144.194659 -33.675051 3
-151.373651 -20.060806 -18.183504 7
-148.455700 -18.290282 -18.482098 7
-145.159822 -17.798655 -18.988780 7
-141.885033 -17.204010 -19.478145 7
-138.620112 -16.548186 -19.956861 7
-149.659983 26.222058 -13.199669 7
-146.457864 25.816056 -13.785473 7
-143.267963 25.529605 -14.353766 7
-140.024925 25.179157 -14.936559 7
-136.739043 24.799421 -15.528113 7
-133.399395 24.367598 -16.132847 7
-130.033827 23.959003 -16.737415 7
-126.576468 23.416343 -17.370880 7
-120.963932 17.940151 -18.929688 7
-119.543271 22.336669 -18.651232 7
-116.451901 22.876460 -19.093398 8
-114.232316 25.335437 -19.167625 8
-112.147079 28.021040 -19.191692 8
-110.074228 30.666842 -19.216602 8
-107.572932 32.393476 -19.416835 8
-104.360591 32.714682 -19.895122 8
-98.045446 27.166315 -21.561753 8
-96.954344 31.680498 -21.201468 8
-93.144592 31.105512 -21.875759 8
-89.122033 30.246616 -22.615730 8
-85.220829 29.707066 -23.296591 8
-81.032852 28.774103 -24.067791 8
-76.774834 27.837045 -24.848598 8
-67.626912 19.051779 -27.335783 8
-67.946972 25.801819 -26.472625 8
-62.208820 22.895148 -27.715831 9
-61.657314 28.103357 -27.170475 9
-61.210407 33.327258 -26.605072 9
-58.447349 35.022179 -26.824077 9
-55.790655 36.876313 -27.005379 9
-53.133077 38.730482 -27.184875 9
-50.392696 40.473068 -27.388763 9
-47.615938 42.174424 -27.601322 9
-44.177651 43.012964 -28.018754 9
-40.262268 43.280302 -28.577072 9
-35.704895 42.803530 -29.322561 9
-31.045467 42.300450 -30.084687 9
-26.309802 41.807369 -30.854992 9
-21.446133 41.265285 -31.648537 9
-16.472184 40.701309 -32.459217 9
-11.402267 40.136755 -33.282159 9
-6.210276 39.545999 -34.124401 9
-0.874549 38.910482 -34.991424 9
4.651476 38.186375 -35.895582 9
10.363627 37.387354 -36.834446 9
16.234162 36.550942 -37.799081 9
22.411625 35.532260 -38.829665 9
28.630299 34.612421 -39.851276 9
35.394311 33.296091 -41.000910 9
42.384311 31.918619 -42.188838 9
