ply
format ascii 1.0
element vertex 1384
property float x
property float y
property float z
property int scalar_Label
end_header
50.085151 -52.558381 -6.734022 9
47.020757 -54.273179 -6.960781 9
44.195905 -54.979186 -7.001312 9
41.471234 -55.266851 -6.965551 9
38.808146 -55.282832 -6.880668 9
36.158580 -55.268454 -6.791903 9
33.512904 -55.277335 -6.709338 9
30.880865 -55.242647 -6.620319 9
28.242293 -55.302341 -6.550944 9
25.613796 -55.340373 -6.479237 9
22.996508 -55.336661 -6.401337 9
20.386706 -55.310477 -6.320861 9
17.774553 -55.354641 -6.255479 9
15.172161 -55.343548 -6.181234 9
12.571650 -55.355260 -6.112998 9
9.973976 -55.377886 -6.048497 9
7.380212 -55.388832 -5.983388 9
4.789374 -55.391851 -5.918368 9
2.200305 -55.399952 -5.855919 9
-0.387853 -55.434785 -5.800202 9
-2.973844 -55.434231 -5.739244 9
-5.559286 -55.418883 -5.676986 9
-8.144969 -55.413831 -5.618256 9
-10.731211 -55.408356 -5.560975 9
-13.317786 -55.431915 -5.510838 9
-15.906246 -55.427171 -5.456740 9
-18.495235 -55.455110 -5.410490 9
-21.088779 -55.431080 -5.355655 9
-23.684391 -55.426167 -5.306020 9
-26.285704 -55.389365 -5.251665 9
-28.883580 -55.448134 -5.217393 9
-31.492380 -55.422242 -5.168113 9
-34.099904 -55.459757 -5.132668 9
-36.714553 -55.473590 -5.094079 9
-39.338275 -55.457561 -5.051123 9
-41.967830 -55.446611 -5.010619 9
-44.644238 -55.154889 -4.916627 9
-47.430740 -54.225655 -4.699172 9
-50.332866 -52.746223 -4.375123 9
-53.350897 -50.814725 -3.963535 9
-56.421884 -48.854867 -3.547405 9
-59.553440 -46.835403 -3.120625 9
-64.875188 -34.263095 -0.622127 8
-67.775400 -34.319060 -0.604332 8
-70.708956 -34.273173 -0.568115 8
-73.634772 -34.317454 -0.551221 8
-76.585134 -34.310528 -0.525861 8
-79.550033 -34.300475 -0.501492 8
-82.525331 -34.305710 -0.481750 8
-85.516891 -34.305519 -0.462563 8
-88.523426 -34.307305 -0.445399 8
-91.544915 -34.313189 -0.430686 8
-94.585246 -34.312294 -0.416292 8
-97.649589 -34.291215 -0.399582 8
-100.717321 -34.316926 -0.393778 8
-103.841522 -34.230566 -0.367557 8
-107.066103 -33.919256 -0.298652 8
-110.863645 -32.096531 0.066800 8
-115.568028 -28.001948 0.878913 8
-118.020423 -30.080641 0.470981 7
-121.136998 -30.416404 0.405212 7
-124.394506 -30.445460 0.398157 7
-127.704409 -30.407081 0.402571 7
-131.014273 -30.431100 0.392812 7
-134.348217 -30.459891 0.380229 7
-137.735164 -30.431118 0.377095 7
-141.123765 -30.462011 0.360257 7
-144.568326 -30.435957 0.352690 7
-148.046109 -30.405883 0.343924 7
151.207349 -31.882280 -3.355151 6
147.613633 -31.878978 -3.187582 6
144.035922 -31.912238 -3.030017 6
140.524932 -31.883413 -2.863993 6
137.018333 -31.910364 -2.711440 6
133.563217 -31.898512 -2.554588 6
130.126287 -31.912637 -2.405526 6
126.708379 -31.950724 -2.263847 6
123.336368 -31.953036 -2.118195 6
119.991230 -31.957659 -1.975696 6
116.663574 -31.984446 -1.840079 6
115.687855 -26.448846 -0.644029 6
111.237891 -29.208547 -1.034564 5
106.275054 -33.484665 -1.721411 5
102.701086 -34.456605 -1.778537 5
99.511462 -34.516469 -1.662919 5
96.354819 -34.548345 -1.544258 5
93.233392 -34.540977 -1.420290 5
90.173770 -34.410201 -1.274571 5
87.075082 -34.447712 -1.163684 5
84.013393 -34.429695 -1.044140 5
80.965640 -34.422871 -0.928872 5
77.931935 -34.425714 -0.817556 5
74.920492 -34.408255 -0.704285 5
71.928287 -34.376676 -0.590215 5
68.931603 -34.416007 -0.492046 5
66.728372 -31.409555 0.205243 5
60.026606 -46.554869 -2.685865 9
56.723405 -48.615235 -2.997960 9
53.451998 -50.775789 -3.333102 9
50.245021 -52.894690 -3.663138 9
47.212049 -54.424920 -3.879065 9
44.354742 -55.261382 -3.959286 9
41.607697 -55.641418 -3.950483 9
38.939116 -55.664970 -3.872180 9
36.292893 -55.605605 -3.778823 9
33.636617 -55.654559 -3.708684 9
30.995170 -55.657766 -3.630883 9
28.361986 -55.650267 -3.552409 9
25.730636 -55.677351 -3.482361 9
23.107434 -55.688237 -3.410500 9
20.489802 -55.698334 -3.339910 9
17.882294 -55.653786 -3.259675 9
15.272467 -55.677327 -3.194600 9
12.667561 -55.692217 -3.129157 9
10.068903 -55.666466 -3.056825 9
7.469404 -55.699024 -2.997682 9
4.872968 -55.730628 -2.939690 9
2.279890 -55.738455 -2.878183 9
-0.311077 -55.725487 -2.813739 9
-2.901835 -55.744812 -2.757178 9
-5.491594 -55.741149 -2.697204 9
-8.081324 -55.757102 -2.642513 9
-10.671386 -55.759039 -2.586214 9
-13.262970 -55.734142 -2.525659 9
-15.856083 -55.719711 -2.468483 9
-18.450036 -55.735392 -2.418722 9
-21.047000 -55.732632 -2.366394 9
-23.644936 -55.759942 -2.321474 9
-26.246613 -55.773684 -2.274975 9
-28.853082 -55.771820 -2.226462 9
-31.463152 -55.777390 -2.180678 9
-34.080220 -55.759853 -2.131310 9
-36.702572 -55.744897 -2.083655 9
-39.325979 -55.770472 -2.045566 9
-41.964989 -55.721338 -1.993184 9
-44.655123 -55.367336 -1.878748 9
-47.449152 -54.425807 -1.643468 9
-50.343379 -53.031845 -1.315140 9
-53.378900 -51.030117 -0.861307 9
-56.463087 -49.032215 -0.408895 9
-59.616540 -46.934584 0.063613 9
-64.974816 -34.237979 2.741965 8
-67.905010 -34.194745 2.786516 8
-70.831454 -34.225234 2.814450 8
-73.781566 -34.205068 2.851679 8
-76.736718 -34.219494 2.880429 8
-79.715551 -34.193524 2.916341 8
-82.691915 -34.233004 2.937318 8
-85.698624 -34.213739 2.969287 8
-88.716177 -34.212686 2.996172 8
-91.752631 -34.203021 3.023573 8
-94.789929 -34.246623 3.038539 8
-97.864064 -34.227177 3.065396 8
-100.953989 -34.217034 3.089003 8
-104.064534 -34.203249 3.112060 8
-107.366666 -33.700928 3.236153 8
-111.306470 -31.523861 3.709965 8
-116.089164 -27.273534 4.617305 8
-118.254595 -30.143619 4.030667 7
-121.509165 -30.155021 4.041921 7
-124.794882 -30.148870 4.055459 7
-128.098175 -30.161149 4.063718 7
-131.452821 -30.113845 4.083055 7
-134.789047 -30.171892 4.078842 7
-138.183964 -30.158976 4.088063 7
-141.611796 -30.138030 4.097495 7
-145.065775 -30.125966 4.103569 7
151.719351 -32.019281 0.374353 6
148.123039 -31.997256 0.527283 6
144.564245 -31.970456 0.678509 6
141.014028 -31.992581 0.817372 6
137.516753 -31.976562 0.961305 6
134.047238 -31.968733 1.101122 6
130.620074 -31.936955 1.243337 6
127.195918 -31.961603 1.371825 6
123.809756 -31.967848 1.501694 6
120.468709 -31.935916 1.637030 6
117.113769 -31.997408 1.751205 6
115.647458 -27.623568 2.765979 6
112.055497 -28.275027 2.757316 5
106.781193 -33.264531 1.859338 5
103.129133 -34.400029 1.744527 5
99.945499 -34.412808 1.857218 5
96.773469 -34.454147 1.962103 5
93.641781 -34.442945 2.075895 5
90.543311 -34.392727 2.195904 5
87.424379 -34.459669 2.289920 5
84.368567 -34.392113 2.409973 5
81.316106 -34.366962 2.519541 5
78.275725 -34.357184 2.624230 5
75.259765 -34.319224 2.733124 5
72.244568 -34.332691 2.829680 5
69.243118 -34.352525 2.923291 5
66.822711 -32.165378 3.477089 5
60.297063 -46.529596 0.562167 9
56.955571 -48.705978 0.194488 9
53.672131 -50.877299 -0.174954 9
50.483585 -52.867640 -0.509059 9
47.420946 -54.494571 -0.769138 9
44.540897 -55.406092 -0.880482 9
41.780614 -55.820552 -0.888570 9
39.105717 -55.844910 -0.815571 9
36.447342 -55.822679 -0.733958 9
33.797397 -55.793763 -0.652140 9
31.148233 -55.806190 -0.580306 9
28.500950 -55.857210 -0.517885 9
25.864355 -55.881239 -0.450913 9
23.242627 -55.830315 -0.369112 9
20.618259 -55.845792 -0.302614 9
18.002518 -55.824275 -0.229332 9
15.384331 -55.877729 -0.173206 9
12.776517 -55.858060 -0.102518 9
10.171344 -55.843481 -0.033992 9
7.567320 -55.855118 0.027841 9
4.970215 -55.771958 0.109016 9
2.370201 -55.779075 0.169745 9
-0.228873 -55.811587 0.223967 9
-2.825014 -55.760156 0.295281 9
-5.422301 -55.816571 0.342310 9
-8.018728 -55.802857 0.403492 9
-10.616279 -55.759617 0.470093 9
-13.213292 -55.814181 0.514540 9
-15.814235 -55.760836 0.581416 9
-18.414075 -55.800473 0.627167 9
-21.017523 -55.801674 0.680314 9
-23.626379 -55.761552 0.741515 9
-26.235317 -55.776539 0.789804 9
-28.851587 -55.745176 0.847268 9
-31.467249 -55.773190 0.890879 9
-34.090135 -55.771841 0.939984 9
-36.722843 -55.730205 0.996992 9
-39.354088 -55.754219 1.038764 9
-41.992240 -55.769703 1.081506 9
-44.700660 -55.337637 1.221388 9
-47.496100 -54.440007 1.462591 9
-50.415249 -52.941256 1.835082 9
-53.464709 -50.912183 2.323603 9
-56.572002 -48.840837 2.821176 9
-59.737921 -46.733697 3.326381 9
-65.153898 -33.824425 6.207759 8
-68.101681 -33.759188 6.264546 8
-71.044002 -33.777656 6.301985 8
-74.004644 -33.769877 6.344278 8
-76.983857 -33.740714 6.390366 8
-79.978531 -33.707472 6.436438 8
-82.978189 -33.712527 6.473138 8
-86.000424 -33.690178 6.514969 8
-89.040780 -33.661331 6.557318 8
-92.087022 -33.670136 6.590421 8
-95.151729 -33.674109 6.623664 8
-98.243928 -33.647645 6.662720 8
-101.337630 -33.674771 6.688977 8
-104.451917 -33.696504 6.715491 8
-107.817339 -33.059719 6.887110 8
-111.988060 -30.298538 7.529281 8
-117.504212 -24.160024 8.920757 8
-118.871786 -29.214651 7.826725 7
-122.161953 -29.190030 7.859220 7
-125.460514 -29.206357 7.881645 7
-128.813883 -29.151652 7.918880 7
-132.158991 -29.180186 7.936621 7
-135.555375 -29.152916 7.965780 7
-138.985450 -29.114994 7.996310 7
-142.438057 -29.093320 8.022216 7
-145.912120 -29.091070 8.042777 7
148.890359 -31.643582 4.359731 6
145.331509 -31.581785 4.500864 6
141.727879 -31.671124 4.607782 6
138.216843 -31.647670 4.736620 6
134.727403 -31.645180 4.858997 6
131.258426 -31.665356 4.974572 6
127.842861 -31.637245 5.098582 6
124.457898 -31.604883 5.221670 6
121.102945 -31.567056 5.344146 6
117.758851 -31.565383 5.457084 6
115.757999 -28.436880 6.243853 6
113.049001 -26.924641 6.681492 5
107.570493 -32.340717 5.616506 5
103.695720 -33.991448 5.363628 5
100.447800 -34.133762 5.436115 5
97.289438 -34.099336 5.545484 5
94.133032 -34.116873 5.642044 5
91.003584 -34.116182 5.741118 5
87.913539 -34.055670 5.851861 5
84.829776 -34.030088 5.953590 5
81.742093 -34.073611 6.038795 5
78.685992 -34.072813 6.132381 5
75.652050 -34.052946 6.228858 5
72.646487 -33.987031 6.334223 5
69.633514 -34.000677 6.420800 5
66.777891 -33.461259 6.628469 5
60.650820 -46.172703 3.900328 9
57.314229 -48.266931 3.518159 9
54.028728 -50.380476 3.129349 9
50.787691 -52.542796 2.727378 9
47.688985 -54.281651 2.417402 9
44.769923 -55.335809 2.258070 9
42.007190 -55.714253 2.247995 9
39.322375 -55.743265 2.314841 9
36.652706 -55.735231 2.389009 9
33.986828 -55.752723 2.456529 9
31.317341 -55.848482 2.505564 9
28.673863 -55.816755 2.582281 9
26.037769 -55.771793 2.661105 9
23.402691 -55.761126 2.731365 9
20.772358 -55.754278 2.799916 9
18.147950 -55.734842 2.870471 9
15.523146 -55.766801 2.928604 9
12.906047 -55.756378 2.995493 9
10.293143 -55.730516 3.065085 9
7.682288 -55.710927 3.132484 9
5.072054 -55.722403 3.192074 9
2.466448 -55.665189 3.266497 9
-0.140653 -55.678745 3.324114 9
-2.746019 -55.662395 3.387794 9
-5.351251 -55.654843 3.448753 9
-7.956604 -55.645921 3.509315 9
-10.562387 -55.650999 3.565984 9
-13.169924 -55.616267 3.631051 9
-15.778960 -55.599130 3.691427 9
-18.390250 -55.581153 3.751331 9
-21.002252 -55.600908 3.801938 9
-23.618527 -55.591735 3.858513 9
-26.237847 -55.588920 3.912989 9
-28.862053 -55.573834 3.969646 9
-31.487658 -55.593294 4.017741 9
-34.121166 -55.578725 4.073036 9
-36.758939 -55.575864 4.125028 9
-39.407873 -55.529717 4.186389 9
-42.050644 -55.584448 4.223908 9
-44.767868 -55.157601 4.371957 9
-47.573722 -54.255029 4.629461 9
-50.503842 -52.749980 5.025984 9
-53.607814 -50.465384 5.602816 9
-56.747440 -48.288983 6.154843 9
-59.945883 -46.087995 6.712766 9
-65.418095 -32.996686 9.796008 8
-68.389119 -32.903338 9.867139 8
-71.355930 -32.891096 9.918877 8
-74.331088 -32.898388 9.965495 8
-77.322518 -32.892967 10.014487 8
-80.330427 -32.878089 10.065105 8
-83.365842 -32.815886 10.126178 8
-86.402994 -32.807332 10.174202 8
-89.457967 -32.792879 10.223042 8
-92.528856 -32.781872 10.270523 8
-95.624738 -32.746835 10.323063 8
-98.729812 -32.741910 10.368026 8
-101.862298 -32.711216 10.418466 8
-104.970033 -32.812239 10.437553 8
-108.469127 -31.853917 10.704060 8
-113.053443 -28.026192 11.642451 8
-117.863970 -23.881337 12.655729 7
-119.739486 -27.644289 11.815009 7
-123.068063 -27.595351 11.867225 7
-126.407827 -27.582564 11.910421 7
-129.772172 -27.573248 11.952263 7
-133.187723 -27.507585 12.006811 7
-136.611323 -27.489515 12.049641 7
-140.048604 -27.505148 12.084004 7
-143.535883 -27.476298 12.128296 7
-147.046112 -27.464907 12.167941 7
150.004648 -30.659441 8.365099 6
146.423904 -30.588960 8.491095 6
142.848909 -30.571877 8.603491 6
139.313474 -30.542963 8.717022 6
135.820058 -30.494089 8.833584 6
132.329095 -30.503696 8.935440 6
128.883277 -30.483079 9.042724 6
125.481883 -30.429207 9.156195 6
122.107865 -30.375452 9.268317 6
118.757865 -30.327338 9.377863 6
115.788819 -29.438700 9.678313 6
115.655374 -21.668112 11.553746 6
108.727835 -30.509067 9.624314 5
104.436363 -33.143667 9.112945 5
101.119238 -33.414281 9.142266 5
97.952520 -33.351156 9.247131 5
94.772189 -33.382477 9.329165 5
91.630819 -33.362283 9.422002 5
88.502734 -33.360214 9.509620 5
85.427974 -33.251577 9.620888 5
82.337351 -33.244965 9.707583 5
79.260648 -33.249961 9.790619 5
76.203167 -33.247131 9.874525 5
73.172473 -33.206041 9.966412 5
70.163368 -33.138962 10.063476 5
67.152042 -33.132260 10.145618 5
61.165245 -45.176530 7.413304 9
57.749300 -47.515420 6.942161 9
54.390820 -49.869042 6.465515 9
51.126483 -52.066304 6.023476 9
47.989829 -53.917362 5.660737 9
45.073554 -54.891971 5.502121 9
42.274721 -55.394650 5.453251 9
39.557955 -55.540819 5.487353 9
36.883576 -55.500722 5.564612 9
34.204969 -55.533794 5.623997 9
31.543655 -55.503945 5.697601 9
28.890506 -55.460634 5.773794 9
26.233071 -55.495653 5.830884 9
23.589061 -55.471788 5.901324 9
20.950808 -55.440134 5.973059 9
18.309545 -55.484670 6.026175 9
15.681065 -55.441877 6.099479 9
13.053559 -55.426715 6.165707 9
10.426959 -55.445300 6.223396 9
7.806505 -55.413105 6.292676 9
5.187286 -55.393504 6.358479 9
2.570023 -55.363494 6.426300 9
-0.047256 -55.368068 6.485406 9
-2.663549 -55.379200 6.542487 9
-5.278786 -55.341551 6.610800 9
-7.894590 -55.343847 6.669127 9
-10.511278 -55.309511 6.735818 9
-13.128815 -55.307587 6.794334 9
-15.747774 -55.306285 6.852301 9
-18.371267 -55.244131 6.924515 9
-20.992938 -55.284439 6.971712 9
-23.619710 -55.276369 7.030178 9
-26.251002 -55.254425 7.091633 9
-28.887244 -55.224324 7.154717 9
-31.528534 -55.192978 7.217773 9
-34.169568 -55.217244 7.267066 9
-37.281487 -51.107901 8.316308 9
-39.461171 -55.310639 7.353798 9
-42.149934 -55.093035 7.460741 9
-44.873752 -54.708808 7.607900 9
-47.715497 -53.652892 7.918019 9
-50.685564 -51.990208 8.375733 9
-53.803178 -49.720289 8.981527 9
-56.982199 -47.417638 9.595930 9
-60.228430 -45.061610 10.223994 9
-65.787086 -31.660495 13.545563 8
-68.768530 -31.623870 13.611230 8
-71.751998 -31.635864 13.664791 8
-74.749882 -31.640001 13.720029 8
-77.771091 -31.603604 13.784949 8
-80.807970 -31.564081 13.850427 8
-83.851608 -31.557718 13.907584 8
-86.910333 -31.553119 13.964107 8
-89.981926 -31.560179 14.017576 8
-93.088998 -31.504254 14.086320 8
-96.191406 -31.523981 14.136318 8
-99.331926 -31.480394 14.201708 8
-102.491737 -31.438816 14.266460 8
-105.740370 -31.198055 14.380134 8
-109.409091 -29.841021 14.768906 8
-114.719195 -24.119701 16.234629 8
-117.902901 -24.462076 16.205446 7
-121.146728 -24.689953 16.204300 7
-124.525081 -24.628226 16.274558 7
-127.925589 -24.577578 16.341995 7
-131.340605 -24.557471 16.401795 7
-134.783638 -24.536429 16.461748 7
-138.289815 -24.437678 16.540904 7
-141.811941 -24.372878 16.611603 7
-145.383640 -24.269861 16.691759 7
151.653011 -28.708771 12.649646 6
148.004791 -28.692124 12.745773 6
140.781114 -28.721691 12.919822 6
137.277474 -28.621335 13.032873 6
133.782129 -28.565547 13.134314 6
130.319649 -28.503362 13.236370 6
126.891279 -28.429329 13.340386 6
123.476106 -28.387002 13.435916 6
120.100342 -28.316565 13.537372 6
116.744424 -28.259576 13.634778 6
115.704118 -22.652999 15.071898 6
110.751394 -26.538780 14.215829 5
105.496118 -31.489991 13.098856 5
101.911179 -32.388001 12.960835 5
99.940040 -29.011521 13.858849 5
95.550055 -32.270460 13.146053 5
92.381296 -32.263277 13.225144 5
89.255490 -32.187022 13.320403 5
86.132083 -32.157671 13.403638 5
83.032561 -32.109060 13.490975 5
79.941071 -32.089203 13.570720 5
76.871190 -32.052233 13.654084 5
73.819890 -32.004489 13.739548 5
70.784911 -31.950531 13.826020 5
67.750821 -31.946480 13.899757 5
61.769507 -43.833373 11.053454 9
58.288263 -46.340361 10.506089 9
54.909535 -48.681280 9.997887 9
51.569358 -51.121795 9.463573 9
48.393305 -53.067452 9.049642 9
45.406605 -54.308641 8.808202 9
42.588537 -54.836281 8.742028 9
39.865250 -54.940628 8.779893 9
37.171829 -54.930127 8.845780 9
34.491733 -54.884662 8.919999 9
31.811046 -54.888426 8.981710 9
29.137296 -54.893298 9.042835 9
26.476091 -54.851003 9.115377 9
23.816551 -54.838515 9.180244 9
21.155855 -54.886070 9.229901 9
18.507692 -54.864809 9.296418 9
15.866253 -54.812360 9.370474 9
13.221812 -54.837555 9.424941 9
10.588144 -54.760077 9.504819 9
7.952218 -54.748096 9.568143 9
5.317419 -54.760230 9.625236 9
2.686453 -54.728506 9.693119 9
0.056297 -54.699290 9.760209 9
-2.573832 -54.694890 9.820918 9
-5.203198 -54.643041 9.893388 9
-7.833288 -54.671307 9.945597 9
-10.464393 -54.613015 10.019437 9
-13.096385 -54.606489 10.080143 9
-15.730452 -54.583813 10.144809 9
-18.367212 -54.553156 10.211396 9
-21.005178 -54.556398 10.269347 9
-23.650043 -54.494666 10.343635 9
-26.294495 -54.501871 10.400443 9
-28.944725 -54.484298 10.463462 9
-31.597279 -54.492577 10.519889 9
-34.258724 -54.460132 10.586602 9
-36.927226 -54.418576 10.655615 9
-39.594448 -54.442169 10.708079 9
-42.267297 -54.468020 10.759952 9
-45.018893 -53.988182 10.940506 9
-47.891821 -52.828469 11.294451 9
-50.926181 -50.873867 11.851566 9
-54.098720 -48.402203 12.541503 9
-57.303689 -46.079255 13.194605 9
-60.592009 -43.623274 13.882795 9
-66.272756 -29.760390 17.490058 8
-69.276309 -29.753642 17.556045 8
-72.291535 -29.750540 17.621204 8
-75.323713 -29.730887 17.690724 8
-78.384009 -29.654051 17.775058 8
-81.455058 -29.597332 17.854399 8
-84.527766 -29.594930 17.919952 8
-87.617092 -29.589243 17.986518 8
-90.744583 -29.508353 18.072638 8
-93.863079 -29.520338 18.135044 8
-97.005928 -29.510303 18.203334 8
-100.188294 -29.435528 18.288571 8
-103.371369 -29.421626 18.358341 8
-106.770807 -28.836071 18.576268 8
-111.020281 -25.944564 19.391859 8
-117.417391 -17.407198 21.672371 8
-119.858836 -19.950428 21.082676 7
-123.300780 -19.827012 21.184506 7
-126.753702 -19.745688 21.275792 7
-130.250221 -19.625779 21.377508 7
-133.775070 -19.508904 21.478863 7
-137.332115 -19.388203 21.581659 7
-140.943214 -19.217221 21.698036 7
-144.543903 -19.143099 21.789634 7
-148.144490 -19.138809 21.863466 7
150.200973 -25.664405 17.359281 6
146.593453 -25.537449 17.464719 6
142.980078 -25.484879 17.550929 6
139.406783 -25.417537 17.640392 6
138.764344 -19.371592 19.240705 6
132.362388 -25.262777 17.823068 6
128.908004 -25.133445 17.926944 6
125.434208 -25.106642 18.004465 6
122.000641 -25.052058 18.088641 6
118.603340 -24.974422 18.178308 6
115.680374 -23.812157 18.543375 6
113.750996 -20.181477 19.536735 5
106.937485 -28.880117 17.391307 5
103.006988 -30.576398 17.026560 5
99.761150 -30.582121 17.092077 5
96.555997 -30.535680 17.170629 5
93.354513 -30.536488 17.236856 5
90.191820 -30.482245 17.316912 5
87.021464 -30.508008 17.376265 5
83.886508 -30.482543 17.448511 5
80.786666 -30.398850 17.535494 5
77.693190 -30.346339 17.614311 5
74.612078 -30.304785 17.690152 5
71.558765 -30.215991 17.777992 5
68.512330 -30.151882 17.859359 5
66.783011 -24.872789 19.284231 5
59.016774 -44.389618 14.317224 9
55.525954 -47.082843 13.683440 9
52.131230 -49.647150 13.081661 9
48.840781 -52.019610 12.528255 9
45.837204 -53.243991 12.270796 9
42.951939 -54.024957 12.127567 9
40.219695 -54.086508 12.170413 9
37.515964 -54.037201 12.241950 9
34.813439 -54.025724 12.303657 9
32.119260 -54.007750 12.367039 9
29.429294 -54.008151 12.425643 9
26.751623 -53.963465 12.495986 9
24.072334 -53.976716 12.551270 9
21.402534 -53.955414 12.615582 9
18.738559 -53.921379 12.683262 9
16.074764 -53.929492 12.739996 9
13.417787 -53.903124 12.805797 9
10.764013 -53.873470 12.872538 9
8.110553 -53.880937 12.929651 9
5.462083 -53.838666 12.999886 9
2.813211 -53.839368 13.058968 9
0.166777 -53.806712 13.126919 9
-2.479654 -53.796711 13.189055 9
-5.125810 -53.797002 13.248623 9
-7.772041 -53.752405 13.320149 9
-10.419295 -53.730970 13.385750 9
-13.067420 -53.730692 13.445950 9
-15.717588 -53.711638 13.511283 9
-18.371254 -53.664395 13.584259 9
-21.026908 -53.642988 13.650628 9
-23.686407 -53.613394 13.719386 9
-26.351292 -53.564684 13.793443 9
-29.018146 -53.551154 13.858436 9
-31.691277 -53.520423 13.928246 9
-34.366074 -53.527324 13.988340 9
-37.056253 -53.444834 14.072456 9
-39.742243 -53.458287 14.131380 9
-42.454035 -53.324405 14.229813 9
-45.220261 -52.878237 14.411821 9
-48.137683 -51.554579 14.828356 9
-51.231585 -49.366484 15.476579 9
-54.438380 -46.836249 16.217608 9
-57.761426 -44.007099 17.040155 9
-61.132869 -41.279950 17.837169 9
-66.906381 -27.146570 21.691315 8
-69.972178 -27.018229 21.797866 8
-73.037185 -26.960896 21.885888 8
-76.118641 -26.894883 21.976749 8
-79.214573 -26.832011 22.067294 8
-82.324556 -26.776187 22.156488 8
-85.461377 -26.681387 22.256741 8
-88.588848 -26.684626 22.331156 8
-91.755552 -26.609425 22.427308 8
-94.948541 -26.509837 22.530673 8
-98.162582 -26.407667 22.635394 8
-101.378720 -26.364509 22.724821 8
-104.623638 -26.296662 22.821606 8
-108.345386 -24.905001 23.278132 8
-116.897562 -10.044576 27.392681 7
-118.746953 -14.469400 26.275131 7
-122.303175 -14.169173 26.441292 7
-125.914008 -13.809491 26.624596 7
-129.560260 -13.445914 26.809976 7
-133.253531 -13.053097 27.004378 7
-136.989015 -12.647320 27.203409 7
-140.835847 -12.073190 27.449606 7
-144.700047 -11.556998 27.681199 7
-148.742954 -10.745083 27.995091 7
150.442722 -19.283652 23.023355 6
146.772366 -19.162848 23.111232 6
143.111116 -19.088073 23.186952 6
139.516048 -18.943223 23.281366 6
135.921108 -18.859744 23.359553 6
132.372019 -18.741308 23.447134 6
128.843339 -18.639252 23.530461 6
125.350500 -18.517452 23.619165 6
121.864716 -18.439320 23.696350 6
118.392094 -18.391524 23.765559 6
116.851468 -13.628808 25.094524 6
111.234875 -19.027933 23.708655 5
104.539002 -27.641874 21.460798 5
101.068778 -28.133888 21.384256 5
97.825717 -28.086145 21.452273 5
94.599587 -28.048286 21.517804 5
91.385352 -28.033859 21.577216 5
88.203808 -27.979053 21.647638 5
85.026971 -27.966017 21.707030 5
81.886583 -27.892470 21.782877 5
78.750600 -27.858382 21.848325 5
75.641752 -27.785352 21.924470 5
72.532248 -27.768303 21.985767 5
69.454790 -27.686405 22.064774 5
66.813041 -25.920737 22.598385 5
59.879078 -41.904710 18.339893 9
56.288576 -44.868302 17.593871 9
52.786271 -47.766850 16.864506 9
49.453549 -50.197050 16.260982 9
46.340431 -51.829699 15.872740 9
43.418246 -52.681591 15.695710 9
40.633233 -52.915173 15.686308 9
37.899073 -52.927145 15.737238 9
35.181268 -52.889408 15.801949 9
32.471937 -52.841348 15.869772 9
29.764920 -52.821574 15.930221 9
27.061839 -52.819968 15.986042 9
24.367869 -52.792647 16.049189 9
21.677266 -52.781047 16.108388 9
18.993421 -52.749879 16.173270 9
16.314468 -52.707878 16.241471 9
13.635569 -52.706936 16.298825 9
10.963394 -52.658581 16.369515 9
8.290959 -52.651279 16.429365 9
5.622262 -52.615726 16.497345 9
2.955240 -52.571178 16.568205 9
0.288206 -52.551523 16.632662 9
-2.378125 -52.529543 16.698185 9
-5.044347 -52.509023 16.763746 9
-7.723983 -47.711831 18.143707 9
-10.378692 -52.439592 16.904048 9
-13.047668 -52.421891 16.970224 9
-15.719373 -52.375258 17.044863 9
-18.393450 -52.340113 17.116840 9
-21.068985 -52.336783 17.180546 9
-23.749110 -52.308072 17.251783 9
-26.436483 -52.234887 17.335865 9
-29.122843 -52.239390 17.399005 9
-31.819640 -52.178469 17.480829 9
-34.520026 -52.142914 17.556211 9
-37.222299 -52.145614 17.621568 9
-39.939197 -52.077887 17.707090 9
-42.672224 -51.948478 17.810413 9
-45.495909 -51.254478 18.071627 9
-48.431451 -49.973860 18.497321 9
-51.605714 -47.445727 19.272327 9
-54.929921 -44.404550 20.192576 9
-58.309070 -41.456033 21.089230 9
-61.848822 -38.047374 22.116898 9
-67.842565 -23.068851 26.386827 8
-70.973527 -22.877517 26.521091 8
-74.154730 -22.538198 26.697816 8
-77.314043 -22.378617 26.825111 8
-80.486913 -22.235134 26.948851 8
-83.675257 -22.101077 27.070923 8
-86.887015 -21.948399 27.199243 8
-90.115343 -21.806409 27.325587 8
-94.945712 -16.203199 28.994507 8
-96.579625 -21.699972 27.531303 8
-99.808151 -21.751932 27.605979 8
-103.076522 -21.736600 27.700728 8
-106.381458 -21.672810 27.810298 8
-111.743346 -15.701513 29.597462 8
-169.261245 136.514461 72.937279 0
-174.401550 136.552608 73.093370 0
-179.543609 136.498377 73.225003 0
-184.752375 136.523141 73.380987 0
-189.998741 136.544115 73.537820 0
-195.287766 136.570432 73.698161 0
-200.620694 136.601143 73.861793 0
-205.998820 136.635424 74.028540 0
-211.413500 136.650245 74.191855 0
-216.461680 135.766994 74.099514 0
107.577842 -20.802424 27.087473 5
102.927596 -24.228299 26.170484 5
99.641605 -24.147118 26.236877 5
96.351587 -24.134959 26.284497 5
93.091808 -24.094923 26.340528 5
89.864678 -24.014376 26.408534 5
86.650974 -23.947405 26.473333 5
83.442943 -23.918353 26.528075 5
80.246691 -23.908138 26.578116 5
77.096214 -23.796588 26.657293 5
75.759679 -17.098647 28.592989 5
72.564441 -16.995376 28.672199 5
67.663536 -23.712261 26.828045 5
61.077813 -38.053392 22.830087 9
57.282295 -41.678059 21.854684 9
55.484583 -36.643870 23.325810 9
50.150851 -47.994121 20.165794 9
46.947340 -49.915130 19.670606 9
43.950520 -51.008374 19.409703 9
41.131072 -51.290412 19.378842 9
38.369811 -51.315123 19.421432 9
35.618537 -51.332875 19.466588 9
32.886181 -51.278351 19.532866 9
30.160395 -51.220946 19.600600 9
27.433126 -51.218691 19.653300 9
24.714241 -51.197664 19.711973 9
22.007419 -51.113554 19.789250 9
19.301026 -51.060507 19.858360 9
16.594369 -51.051215 19.915672 9
13.894627 -51.003615 19.984581 9
11.195619 -50.984462 20.046061 9
8.502580 -50.908828 20.124370 9
5.807454 -50.899759 20.184369 9
3.114843 -50.874419 20.249731 9
0.424372 -50.810313 20.326917 9
-2.267523 -50.815717 20.384933 9
-4.958172 -50.745974 20.465234 9
-7.650088 -50.700093 20.539461 9
-10.342800 -50.698767 20.601668 9
-13.037992 -50.630129 20.683996 9
-15.734171 -50.617792 20.750937 9
-18.435673 -50.531965 20.839840 9
-21.138786 -50.494994 20.915511 9
-23.844811 -50.470770 20.988344 9
-26.555880 -50.431724 21.066301 9
-29.277647 -50.321150 21.165795 9
-31.993465 -50.347332 21.226657 9
-35.252779 -45.135968 22.804453 9
-37.449058 -50.311983 21.376406 9
-40.187222 -50.286522 21.454910 9
-42.966323 -50.007624 21.607915 9
-45.859997 -49.020100 21.967888 9
-48.874012 -47.431498 22.504157 9
-52.121831 -44.666763 23.384637 9
-55.550835 -41.240124 24.460535 9
-59.207541 -37.015317 25.772208 9
-64.939124 -22.651940 30.047174 8
-68.026799 -22.668677 30.129434 8
-71.127485 -22.680296 30.214371 8
-74.239260 -22.698897 30.298469 8
-77.365712 -22.711212 30.385635 8
-80.518056 -22.675449 30.488163 8
-83.731569 -22.463519 30.643752 8
-86.961840 -22.264312 30.797051 8
-90.233007 -21.992677 30.973144 8
-93.518717 -21.750111 31.142222 8
-96.834434 -21.484751 31.319591 8
-100.159721 -21.267059 31.484494 8
-103.516908 -21.025610 31.658041 8
-159.484648 136.619319 78.437443 0
-164.553380 136.597720 78.591836 0
-169.654801 136.575290 78.748368 0
-174.781683 136.528930 78.900229 0
-179.961832 136.530664 79.068878 0
-185.170736 136.510032 79.233436 0
-190.424782 136.506255 79.405639 0
-195.717544 136.498933 79.579473 0
-201.061309 136.513807 79.762697 0
-206.442460 136.514482 79.944507 0
-211.900406 136.586417 80.150579 0
-217.387344 136.616890 80.347227 0
-222.924947 136.651401 80.548153 0
-227.934767 135.494021 80.393338 0
108.692144 -19.027217 31.430135 5
104.314477 -21.624168 30.699564 5
100.946480 -21.657174 30.721275 5
97.616388 -21.647708 30.756455 5
94.299099 -21.663021 30.785381 5
91.001587 -21.681889 30.814271 5
87.730667 -21.680688 30.850058 5
84.472185 -21.700839 30.880578 5
81.222359 -21.754879 30.902137 5
78.014360 -21.727628 30.948588 5
74.818452 -21.715205 30.991687 5
71.628360 -21.740478 31.024696 5
68.454534 -21.764079 31.059192 5
65.296698 -21.784029 31.095761 5
58.667945 -36.831025 26.704168 9
54.807137 -40.863353 25.557263 9
51.107856 -44.585870 24.501495 9
47.706013 -47.267339 23.752832 9
44.615699 -48.658111 23.385474 9
42.755146 -43.426980 24.975535 9
38.904040 -49.350534 23.269917 9
36.132858 -49.314502 23.326451 9
33.367942 -49.284810 23.382055 9
30.607479 -49.271953 23.433624 9
27.862506 -49.189971 23.506632 9
25.118464 -49.139316 23.571330 9
22.377313 -49.105809 23.631916 9
19.653872 -48.938619 23.733178 9
16.921637 -48.886337 23.801332 9
14.188466 -48.886243 23.854969 9
11.462089 -48.840296 23.923239 9
8.735614 -48.834538 23.980557 9
6.016774 -48.722118 24.070665 9
3.294711 -48.691253 24.137519 9
0.573873 -48.652014 24.207910 9
-2.147203 -48.643708 24.270117 9
-4.867494 -48.588663 24.347342 9
-7.588829 -48.526309 24.427836 9
-10.311799 -48.468034 24.508208 9
-13.036362 -48.433223 24.582662 9
-15.764338 -48.359626 24.669855 9
-18.495172 -48.300044 24.753988 9
-21.231967 -48.197115 24.852289 9
-23.971285 -48.135079 24.939491 9
-26.715347 -48.073530 25.027732 9
-29.467440 -47.978892 25.127133 9
-32.221754 -47.930264 25.213908 9
-34.984863 -47.855415 25.309819 9
-37.751481 -47.812875 25.397238 9
-40.528544 -47.742794 25.494240 9
-43.353657 -47.373844 25.682917 9
-46.295152 -46.298195 26.086994 9
-49.391346 -44.412009 26.738577 9
-52.917077 -40.198310 28.098495 9
-56.606385 -35.597708 29.579775 9
-60.678792 -29.493635 31.522173 9
-159.556801 135.816045 83.983524 0
-164.929585 136.651363 84.421523 0
-170.044094 136.616910 84.594014 0
-175.197416 136.594849 84.773465 0
-180.383137 136.563680 84.953287 0
-185.601271 136.520747 85.132711 0
-190.873552 136.517528 85.327817 0
-196.199547 136.546186 85.536288 0
-201.518142 136.457257 85.711593 0
-206.929298 136.484937 85.926859 0
-212.355997 136.445414 86.124788 0
-217.927178 136.619479 86.393402 0
-223.426200 136.530466 86.583429 0
-229.042672 136.584388 86.822263 0
61.955528 -23.863925 34.190746 9
56.668009 -33.640631 31.223603 9
52.427905 -39.500131 29.459382 9
48.693047 -43.515888 28.261900 9
45.459887 -45.398656 27.720825 9
42.467769 -46.218315 27.507714 9
39.633277 -46.266585 27.533179 9
36.821193 -46.235276 27.584420 9
34.014244 -46.219517 27.632154 9
31.217254 -46.184142 27.687221 9
28.429714 -46.124150 27.751179 9
25.649633 -46.045323 27.822258 9
22.868984 -46.011072 27.880886 9
20.094342 -45.963144 27.945050 9
17.328179 -45.862971 28.026694 9
14.557392 -45.850293 28.082607 9
11.796582 -45.742977 28.169149 9
9.030170 -45.749649 28.221736 9
6.271429 -45.656130 28.306721 9
3.510633 -45.623893 28.374072 9
0.752833 -45.520790 28.464792 9
-2.006862 -45.469966 28.540676 9
-4.766821 -45.400275 28.623823 9
-7.528000 -45.379392 28.693199 9
-10.290612 -45.310591 28.778904 9
-13.055633 -45.238781 28.866990 9
-15.821355 -45.236103 28.934973 9
-18.591953 -45.166741 29.025211 9
-21.366725 -45.092700 29.118399 9
-24.145336 -45.030069 29.209526 9
-26.926371 -45.000915 29.291697 9
-29.713679 -44.952877 29.381301 9
-32.507713 -44.893046 29.476149 9
-35.309654 -44.818703 29.577123 9
-38.116709 -44.763275 29.673758 9
-40.964305 -44.439429 29.856377 9
-43.848744 -43.940671 30.095823 9
-46.926141 -42.223365 30.720964 9
-50.309597 -38.801709 31.886118 9
-54.228653 -32.605298 33.930746 9
-60.350031 -14.598609 39.711861 9
-175.329338 135.884682 90.438874 0
-180.835529 136.670621 90.903795 0
-186.080152 136.646967 91.111294 0
-191.363342 136.622514 91.322607 0
-196.685763 136.595433 91.537226 0
-202.039256 136.543374 91.747967 0
-207.442680 136.507826 91.968405 0
-212.895434 136.482685 92.196669 0
-218.410013 136.490640 92.440292 0
-224.000821 136.555956 92.707378 0
-229.585181 136.501279 92.939968 0
55.306779 -27.138497 36.894245 9
50.339568 -36.544245 33.917681 9
46.650049 -40.372092 32.725711 9
43.467749 -41.900043 32.270776 9
40.531177 -42.232672 32.199926 9
37.673635 -42.171798 32.256704 9
34.817291 -42.149739 32.302691 9
31.974037 -42.086159 32.363633 9
29.136169 -42.026134 32.425091 9
26.301761 -41.981997 32.483106 9
23.472751 -41.935425 32.543559 9
20.647269 -41.898938 32.602433 9
17.830586 -41.810758 32.679591 9
15.013254 -41.763579 32.745246 9
12.199375 -41.708152 32.815237 9
9.390395 -41.606486 32.901811 9
6.579993 -41.548519 32.976020 9
3.771996 -41.455609 33.063207 9
0.964120 -41.352026 33.155574 9
-1.844489 -41.237715 33.253156 9
-4.654847 -41.131759 33.349808 9
-7.467258 -41.020768 33.449866 9
-10.283044 -40.850929 33.570763 9
-13.101588 -40.756020 33.669234 9
-15.924745 -40.624014 33.781546 9
-18.751087 -40.528246 33.883960 9
-21.585176 -40.370740 34.008269 9
-24.421747 -40.274668 34.114525 9
-27.264277 -40.173867 34.224211 9
-30.114859 -40.051421 34.342857 9
-32.969228 -39.966343 34.451281 9
-35.836783 -39.821760 34.581055 9
-38.711315 -39.693564 34.707491 9
-41.616745 -39.388603 34.893688 9
-44.643380 -38.276663 35.345886 9
-47.951969 -35.418780 36.372195 9
-52.141718 -27.287382 39.130026 9
-191.558458 135.991078 97.115500 0
-197.189146 136.677389 97.594699 0
-202.568274 136.639135 97.834394 0
-207.995478 136.611613 98.082845 0
-213.461260 136.569482 98.331574 0
-218.948116 136.472706 98.567049 0
-224.532427 136.482213 98.844150 0
-229.733340 135.603259 98.823491 0
48.825420 -30.284648 39.563303 9
45.059645 -34.380756 38.230509 9
41.862578 -35.721366 37.815640 9
38.933926 -35.629143 37.879362 9
36.007177 -35.568346 37.934668 9
33.086431 -35.512601 37.990329 9
30.178900 -35.403429 38.065829 9
27.270544 -35.339034 38.128458 9
24.371815 -35.231815 38.207412 9
21.480732 -35.082794 38.302376 9
18.586914 -34.987145 38.381602 9
15.697765 -34.865277 38.471656 9
12.806518 -34.795162 38.546500 9
9.926351 -34.571668 38.674704 9
7.046231 -34.313142 38.816771 9
4.161609 -34.094936 38.947512 9
1.277422 -33.769404 39.116370 9
-1.613344 -33.507669 39.266074 9
-4.508537 -33.221164 39.426304 9
-7.409423 -32.934652 39.588783 9
-10.316872 -32.620899 39.762680 9
-13.231163 -32.330658 39.930973 9
-16.153425 -32.023602 40.107232 9
-19.085449 -31.682644 40.297246 9
-22.024827 -31.384631 40.475176 9
-24.975038 -31.061885 40.663831 9
-27.938202 -30.703516 40.866935 9
-30.911152 -30.368032 41.064783 9
-33.899419 -29.994692 41.277922 9
-36.897250 -29.656327 41.481771 9
-39.897611 -29.410843 41.656718 9
-42.922970 -29.058255 41.870505 9
-46.138544 -27.393795 42.532110 9
-208.229792 135.984605 103.989297 0
-214.003605 136.595080 104.494437 0
-219.525718 136.530573 104.767755 0
-224.626900 135.485048 104.699587 0
41.533462 -20.901980 46.517735 9
38.499644 -20.482785 46.694330 9
35.474372 -20.001733 46.894895 9
32.443000 -19.551338 47.087481 9
29.420504 -19.010819 47.313852 9
26.453731 -17.926760 47.730905 9
-147.652551 1.099411 -29.979052 7
-144.295742 -1.167974 -29.962912 7
-141.162135 -3.652254 -29.775313 7
-138.417526 -6.544482 -29.263761 7
-136.248646 -10.074344 -28.249353 7
-135.965983 -15.735047 -25.536134 7
-146.317738 8.708187 -28.697211 7
-142.417691 7.014147 -29.161593 7
-138.641311 5.234492 -29.551792 7
-135.045292 3.303032 -29.813765 7
-131.574328 1.266712 -29.990913 7
-128.348316 -1.012539 -29.970190 7
-125.311021 -3.489807 -29.794399 7
-122.610273 -6.346169 -29.318791 7
-120.458207 -9.852420 -28.330230 7
-108.287032 -1.576712 -36.912476 8
-104.202882 -2.582252 -37.907005 8
-101.466828 -5.190458 -37.619154 8
-98.931375 -8.064086 -37.137614 8
-96.854325 -11.553993 -36.192857 8
-95.658404 -16.259789 -34.331070 8
-146.574205 14.707957 -26.131861 7
-142.352713 13.311670 -26.876999 7
-138.263647 11.838030 -27.546651 7
-134.275120 10.311892 -28.165168 7
-130.406696 8.707409 -28.711733 7
-126.666659 7.008619 -29.174819 7
-123.073255 5.187686 -29.533105 7
-119.596775 3.267570 -29.809300 7
-116.905349 0.486225 -29.362154 7
-105.780865 7.417938 -37.068384 8
-102.261908 5.799542 -37.552439 8
-99.029549 3.868010 -37.780344 8
-95.879114 1.852948 -37.946493 8
-92.860239 -0.315071 -37.996677 8
-89.989415 -2.668815 -37.907964 8
-87.320136 -5.292472 -37.617284 8
-84.868220 -8.226686 -37.098109 8
-82.811106 -11.738427 -36.147636 8
-81.661302 -16.592442 -34.183328 8
-143.692398 18.241121 -23.416471 7
-139.089627 17.222373 -24.534550 7
-134.829757 15.935905 -25.394159 7
-130.654373 14.621809 -26.219875 7
-126.672260 13.163593 -26.908544 7
-122.738779 11.701806 -27.589180 7
-118.909034 10.174712 -28.208022 7
-112.328103 11.722047 -31.510592 8
-105.399024 13.841112 -35.259875 8
-101.723528 12.415247 -35.909069 8
-98.206912 10.843700 -36.432143 8
-94.790934 9.184895 -36.882055 8
-91.452795 7.459340 -37.278259 8
-88.233096 5.609787 -37.575041 8
-85.067222 3.709614 -37.835742 8
-82.022713 1.664985 -37.985160 8
-79.120699 -0.563856 -37.994396 8
-76.347014 -2.971247 -37.872005 8
-73.739442 -5.624002 -37.568648 8
-71.388472 -8.671186 -36.971812 8
-69.398333 -12.295962 -35.946151 8
-60.362507 -5.291800 -43.196156 9
-54.544563 -2.847288 -46.831486 9
-49.602582 -1.577252 -49.524056 9
-46.107101 -2.507258 -50.521486 9
-43.239612 -4.436779 -50.766740 9
-40.778778 -7.063823 -50.503611 9
-38.512047 -10.068582 -49.981217 9
-36.441560 -13.484443 -49.182231 9
-34.775943 -17.730443 -47.810313 9
-34.224091 -24.221938 -44.862585 9
-146.086731 22.225085 -19.051927 7
-141.532721 21.085217 -20.110002 7
-137.085542 19.910045 -21.120326 7
-132.553723 18.882840 -22.256341 7
-127.842431 18.106260 -23.610419 7
-123.477874 17.052817 -24.691870 7
-119.424059 15.738584 -25.523025 7
-116.893992 12.838272 -24.913179 7
-105.977851 19.144178 -32.568794 8
-102.050965 17.983880 -33.468588 8
-98.359191 16.607519 -34.170713 8
-94.739738 15.189650 -34.833024 8
-91.209049 13.705711 -35.435714 8
-87.766881 12.149610 -35.975506 8
-84.374895 10.562938 -36.489796 8
-81.069803 8.894636 -36.936612 8
-77.853557 7.134870 -37.309881 8
-74.704456 5.305085 -37.629678 8
-71.658381 3.349416 -37.851902 8
-68.711131 1.263624 -37.976021 8
-62.210496 4.331845 -42.273731 9
-57.033176 5.687098 -45.139246 9
-52.065714 6.890609 -47.848552 9
-47.913629 6.982585 -49.649650 9
-44.580692 5.869448 -50.492358 9
-41.656638 4.128981 -50.848426 9
-38.946051 2.039756 -50.944368 9
-36.298469 -0.166972 -50.963259 9
-33.691128 -2.460773 -50.930512 9
-31.205225 -4.996287 -50.732166 9
-28.815011 -7.745282 -50.393894 9
-26.582802 -10.844339 -49.819267 9
-24.575637 -14.453779 -48.897855 9
-22.995482 -19.023348 -47.313605 9
-23.391998 -27.849710 -42.718141 9
-143.884935 25.110279 -15.779096 7
-139.211270 24.076837 -16.980285 7
-134.612000 23.045145 -18.165288 7
-130.141846 21.958538 -19.280593 7
-125.794444 20.816689 -20.328263 7
-121.529242 19.654633 -21.343651 7
-117.429054 18.381367 -22.243004 7
-110.391440 20.317832 -26.106665 8
-103.380570 22.426024 -30.066265 8
-99.190870 21.572000 -31.267248 8
-95.410627 20.316328 -32.092490 8
-91.685839 19.044723 -32.897137 8
-88.063890 17.696983 -33.628775 8
-84.516735 16.300280 -34.313583 8
-81.042332 14.851848 -34.950772 8
-77.628989 13.361305 -35.550286 8
-74.273985 11.827551 -36.112562 8
-71.015955 10.193668 -36.590666 8
-67.797635 8.530133 -37.046469 8
-64.700672 6.717711 -37.381501 8
-56.299147 12.618842 -44.102204 9
-51.438264 13.647910 -46.725192 9
-47.396376 13.580036 -48.423719 9
-44.034367 12.545975 -49.326744 9
-41.042131 10.966160 -49.790742 9
-38.144472 9.248867 -50.150776 9
-35.317862 7.421893 -50.431737 9
-32.529523 5.532269 -50.672708 9
-29.781972 3.569670 -50.867172 9
-27.086221 1.507381 -50.996303 9
-24.499949 -0.771243 -50.973621 9
-21.948105 -3.140440 -50.898205 9
-19.496717 -5.738456 -50.668678 9
-17.145597 -8.584494 -50.275292 9
-14.964852 -11.846138 -49.599768 9
-13.029873 -15.721175 -48.505944 9
-11.607579 -20.853148 -46.540673 9
-13.348820 -33.388879 -39.327627 9
-147.277752 28.278613 -10.507596 7
-142.254299 27.468344 -12.005236 7
-137.358402 26.624820 -13.444384 7
-132.585089 25.746944 -14.826102 7
-127.940547 24.822870 -16.140820 7
-123.441193 23.829704 -17.368528 7
-119.113709 22.732239 -18.478044 7
-115.092441 21.379615 -19.328496 8
-106.979390 24.464239 -24.383174 8
-102.659774 23.646321 -25.680906 8
-98.647463 22.556868 -26.709068 8
-94.337247 21.868661 -28.097063 8
-88.999305 22.464359 -30.644201 8
-85.290345 21.238252 -31.500448 8
-81.638189 19.991215 -32.331280 8
-78.093226 18.656234 -33.077983 8
-74.593077 17.305427 -33.806923 8
-71.161750 15.904099 -34.488549 8
-67.794867 14.452704 -35.124884 8
-64.695932 12.664158 -35.470211 8
-56.473599 18.157558 -42.038837 9
-51.637677 19.104430 -44.656514 9
-47.520085 19.129291 -46.466618 9
-44.057657 18.254997 -47.508964 9
-40.963212 16.859617 -48.115341 9
-37.967957 15.332528 -48.615723 9
-34.993243 13.791556 -49.108760 9
-32.097327 12.135962 -49.514028 9
-29.237906 10.428762 -49.884412 9
-26.389000 8.710946 -50.253626 9
-23.596540 6.896689 -50.554858 9
-20.885218 4.930721 -50.747321 9
-18.203229 2.899463 -50.900831 9
-15.578985 0.740345 -50.969058 9
-12.979887 -1.491738 -50.996259 9
-10.493856 -3.988122 -50.840292 9
-8.074696 -6.672758 -50.563013 9
-5.775965 -9.681789 -50.067595 9
-3.650625 -13.166110 -49.249796 9
-1.784231 -17.371558 -47.940159 9
-0.705383 -23.653736 -45.176636 9
-146.678926 29.736253 -5.737236 7
-141.265073 29.241126 -7.627971 7
-136.056415 28.657053 -9.393397 7
-131.127154 27.902918 -10.954898 7
-126.244882 27.189813 -12.532013 7
-121.597495 26.329419 -13.936343 7
-118.014743 24.460423 -14.319366 7
-110.436022 26.798444 -18.832330 8
-104.836780 27.244780 -21.427106 8
-100.562742 26.375592 -22.712098 8
-96.500313 25.340947 -23.822135 8
-92.462590 24.340560 -24.951446 8
-88.489811 23.327079 -26.055494 8
-84.692302 22.164537 -27.008931 8
-80.071669 22.067158 -28.935101 8
-75.470926 22.047921 -30.907025 8
-71.867165 20.849501 -31.785543 8
-68.375063 19.551455 -32.568459 8
-64.908605 18.260777 -33.353835 8
-58.550335 21.017362 -37.703901 9
-52.607213 23.425034 -41.683677 9
-48.107320 23.955379 -43.978398 9
-44.508555 23.269207 -45.199272 9
-41.294769 22.059394 -45.964220 9
-38.205035 20.692557 -46.594792 9
-35.141098 19.312866 -47.215468 9
-32.152395 17.836243 -47.757116 9
-29.175536 16.360926 -48.302956 9
-26.248012 14.820499 -48.799103 9
-23.370237 13.207632 -49.241297 9
-20.508847 11.576350 -49.674637 9
-17.714136 9.829183 -50.022285 9
-14.939591 8.045386 -50.349321 9
-12.216277 6.158955 -50.605139 9
-9.516961 4.215896 -50.827655 9
-6.880742 2.127905 -50.950367 9
-4.286694 -0.073256 -51.000509 9
-1.762077 -2.459487 -50.926171 9
0.710716 -5.007739 -50.748343 9
3.094023 -7.823174 -50.392220 9
5.359205 -11.001864 -49.792318 9
7.448113 -14.726660 -48.822209 9
9.167933 -19.556892 -47.087688 9
8.643723 -30.685835 -40.885840 9
-147.001401 30.383172 -0.047325 7
-141.019737 30.342297 -2.507056 7
-135.521605 29.978093 -4.579325 7
-130.175292 29.578284 -6.576811 7
-125.150207 28.971149 -8.324359 7
-120.215048 28.368228 -10.046599 7
-118.002066 25.084095 -9.016468 7
-108.075332 29.808490 -16.070188 8
-103.156553 29.529085 -18.008639 8
-98.811245 28.725083 -19.398576 8
-94.561722 27.889566 -20.738096 8
-90.456271 26.962007 -21.970309 8
-86.409886 26.032539 -23.185148 8
-82.531086 24.968108 -24.256808 8
-78.632799 23.986168 -25.394720 8
-74.890531 22.869449 -26.394338 8
-71.191971 21.750392 -27.382480 8
-66.199244 22.392791 -29.979797 8
-59.401474 25.615295 -34.889176 9
-54.478800 26.503988 -37.615821 9
-49.155255 28.109910 -40.945845 9
-45.294943 27.767771 -42.500620 9
-41.962444 26.720845 -43.419214 9
-38.780967 25.489221 -44.171556 9
-35.653353 24.209275 -44.880087 9
-32.565420 22.898390 -45.561185 9
-29.523886 21.541387 -46.203042 9
-26.498196 20.184915 -46.846294 9
-23.534066 18.747784 -47.423552 9
-20.604668 17.269981 -47.969961 9
-17.703117 15.759440 -48.493208 9
-14.827977 14.214811 -48.993186 9
-12.020634 12.551367 -49.402611 9
-9.217847 10.884254 -49.816221 9
-6.453129 9.142998 -50.178513 9
-3.736924 7.297754 -50.467797 9
-1.052054 5.375664 -50.707535 9
1.589143 3.340978 -50.871871 9
4.200226 1.213853 -50.978664 9
6.758224 -1.070286 -50.980912 9
9.258156 -3.539630 -50.860638 9
11.707290 -6.194392 -50.621420 9
14.053755 -9.190762 -50.151467 9
16.291550 -12.580607 -49.419396 9
18.306722 -16.728174 -48.168065 9
19.785907 -22.635149 -45.690236 9
-142.329261 30.046239 4.208169 7
-135.995134 30.372462 1.290074 7
-130.090826 30.435601 -1.290537 7
-124.633533 30.194689 -3.500610 7
-119.438274 29.806754 -5.516494 7
-117.510817 26.202281 -4.148774 8
-106.657828 31.833383 -12.334293 8
-101.825398 31.440989 -14.217470 8
-97.369840 30.735595 -15.753703 8
-93.035745 29.976119 -17.212634 8
-88.802941 29.178490 -18.612649 8
-84.632775 28.382105 -19.994545 8
-80.603994 27.489692 -21.264404 8
-78.312437 24.532030 -20.523689 8
-72.805946 25.583700 -23.641471 8
-69.043041 24.550538 -24.733801 8
-60.793380 29.499114 -31.437494 9
-55.689038 30.545542 -34.395243 9
-50.695219 31.595889 -37.313016 9
-46.350131 31.880200 -39.487435 9
-42.840800 31.062517 -40.633590 9
-39.671186 29.796126 -41.366105 9
-36.444761 28.652230 -42.205182 9
-33.273088 27.463111 -43.000243 9
-30.163700 26.211180 -43.737391 9
-27.090285 24.933307 -44.450493 9
-24.039168 23.649030 -45.157349 9
-21.024164 22.332041 -45.836045 9
-18.048859 20.971591 -46.478584 9
-15.110588 19.567424 -47.086058 9
-12.210806 18.111582 -47.653136 9
-9.326255 16.643680 -48.213884 9
-6.495902 15.082895 -48.702840 9
-3.687954 13.485528 -49.167845 9
-0.905218 11.841066 -49.601491 9
1.841535 10.120328 -49.981780 9
4.557033 8.325797 -50.312482 9
7.250951 6.472062 -50.606741 9
9.880032 4.447928 -50.779720 9
12.499870 2.374403 -50.928080 9
15.071316 0.144816 -50.971664 9
17.616941 -2.197349 -50.946580 9
20.100428 -4.764773 -50.770760 9
22.510587 -7.614187 -50.406583 9
24.843158 -10.789587 -49.827211 9
27.033836 -14.525923 -48.867491 9
28.955305 -19.295704 -47.196292 9
29.087891 -30.281788 -41.116036 9
-138.987250 28.457351 9.828599 7
-131.621294 29.777385 5.738637 7
-125.211926 30.365929 2.523591 7
-119.467540 30.451991 -0.089575 7
-117.098024 27.246890 0.855484 8
-105.795913 33.282417 -7.982296 8
-100.957589 32.861539 -9.900240 8
-96.254382 32.391874 -11.735741 8
-91.761047 31.782730 -13.398492 8
-87.360177 31.154301 -15.015979 8
-83.146011 30.391607 -16.474081 8
-78.980637 29.646697 -17.929349 8
-74.968632 28.789532 -19.253703 8
-70.984000 27.967229 -20.595234 8
-67.134672 27.040548 -21.818711 8
-57.552993 33.747233 -30.369721 9
-52.327418 35.003259 -33.579797 9
-47.596010 35.742164 -36.252346 9
-43.806325 35.282103 -37.763646 9
-40.417583 34.315592 -38.787356 9
-37.259731 33.055087 -39.532093 9
-34.141980 31.768591 -40.249842 9
-31.031045 30.504825 -40.985698 9
-27.917170 29.279732 -41.753829 9
-24.803714 28.089172 -42.550082 9
-21.726524 26.873008 -43.321170 9
-18.682236 25.633278 -44.069883 9
-15.673589 24.361367 -44.789712 9
