ply
format ascii 1.0
element vertex 1352
property float x
property float y
property float z
property int scalar_Label
end_header
-28.951609 116.575836 -40.754778 3
-33.664818 120.734379 -39.383351 3
-38.480162 124.946045 -37.991595 3
-43.415256 129.313958 -36.548163 3
-48.463820 133.758237 -35.077029 3
-53.567499 137.901517 -33.692477 3
-19.398005 103.801279 -39.958991 3
-23.864694 107.701797 -38.622244 3
-28.430020 111.698180 -37.250878 3
-33.093723 115.755915 -35.855560 3
-37.863599 119.910946 -34.424826 3
-42.742765 124.156103 -32.960740 3
-47.732291 128.472462 -31.469075 3
-15.126625 101.284488 -35.990405 3
-18.974462 99.175942 -36.562553 3
-23.397806 102.996319 -35.200301 3
-27.911231 106.849783 -33.822229 3
-32.530146 110.844309 -32.392927 3
-37.247728 114.888214 -30.942123 3
-42.079152 119.068305 -29.441239 3
-47.019775 123.319455 -27.911350 3
-14.299902 91.354928 -34.441661 3
-18.558539 94.633668 -33.216849 3
-22.934063 98.324189 -31.847579 3
-27.407304 102.136987 -30.431401 3
-31.977999 106.031006 -28.981991 3
-36.648276 109.995240 -27.502873 3
-41.426716 114.066238 -25.981424 3
-10.118504 88.366253 -30.788873 3
-14.113647 89.171648 -30.390269 3
-18.211975 90.839157 -29.685471 3
-22.484607 93.793383 -28.524630 3
-26.909933 97.486286 -27.098838 3
-31.430057 101.257341 -25.639396 3
-36.051405 105.128366 -24.138402 3
-40.780865 109.117772 -22.589113 3
-6.141319 87.955968 -26.242486 3
-10.082800 88.113460 -26.068745 3
-14.033232 88.268953 -25.891680 3
-18.040519 88.930393 -25.526847 3
-22.143756 90.317835 -24.893737 3
-26.420386 92.908688 -23.817897 3
-30.896000 96.601370 -22.334941 3
-35.470658 100.388427 -20.810694 3
-40.148473 104.270249 -19.244741 3
1.432105 18.357468 -47.574670 9
-1.593074 15.164192 -48.676187 9
-4.682426 13.705488 -49.125615 9
-7.799710 12.889595 -49.331128 9
-10.904516 12.062001 -49.537983 9
-13.996446 11.216720 -49.748443 9
-17.099366 10.563619 -49.883534 9
-20.197195 9.920087 -50.011838 9
-23.285543 9.246806 -50.148161 9
-26.377780 8.638500 -50.256763 9
-29.474798 8.083993 -50.341775 9
-32.565373 7.501695 -50.433980 9
-35.655107 6.924933 -50.520770 9
-38.745398 6.357014 -50.600860 9
-41.852472 5.875668 -50.644698 9
-45.120403 6.157729 -50.394818 9
-49.447109 11.197156 -48.329723 9
57.168560 24.721311 -42.206155 9
53.853911 24.794828 -42.145035 9
48.525280 5.105918 -49.667201 9
45.162098 2.328263 -50.695768 9
42.019381 1.491504 -50.975801 9
38.951484 1.402504 -50.965087 9
35.885951 1.261565 -50.970774 9
32.824195 1.076854 -50.989745 9
29.770759 0.942141 -50.985938 9
26.721449 0.789261 -50.985569 9
23.677500 0.681763 -50.964163 9
20.635292 0.451979 -50.986320 9
17.597906 0.274389 -50.984814 9
14.564004 0.069617 -50.990240 9
11.532460 -0.096861 -50.977320 9
8.504027 -0.305643 -50.977165 9
5.478685 -0.538992 -50.982938 9
2.455664 -0.778710 -50.987603 9
-0.568694 -0.972101 -50.970737 9
-3.586743 -1.252790 -50.984089 9
-6.606472 -1.498515 -50.980285 9
-9.631635 -1.686848 -50.950557 9
-12.649559 -1.963468 -50.951459 9
-15.670531 -2.218940 -50.940480 9
-18.691773 -2.485768 -50.930233 9
-21.717124 -2.737195 -50.910272 9
-24.740849 -3.020302 -50.898929 9
-27.760928 -3.345587 -50.900318 9
-30.789612 -3.634841 -50.883866 9
-33.830387 -3.878217 -50.845636 9
-36.866930 -4.174113 -50.824116 9
-39.911395 -4.455746 -50.793124 9
-42.963489 -4.729732 -50.755200 9
-46.197230 -4.205312 -50.399005 9
-49.824751 -2.073792 -49.404456 9
-54.553258 4.386009 -46.694725 9
-60.919412 16.745012 -41.641440 9
-64.363835 16.873649 -41.410846 9
62.838153 16.249726 -41.484426 9
59.549567 16.036788 -41.549198 9
54.678334 2.908499 -46.731440 9
50.956024 -2.535506 -48.863924 9
47.624580 -5.333856 -49.943871 9
44.495464 -6.628442 -50.423753 9
41.475862 -6.973384 -50.523083 9
38.487956 -7.034636 -50.505979 9
35.502537 -7.135080 -50.500601 9
32.524048 -7.200029 -50.477282 9
29.549093 -7.271492 -50.452709 9
26.576942 -7.360822 -50.431397 9
23.606447 -7.523124 -50.435287 9
20.640618 -7.625032 -50.411306 9
17.677037 -7.759260 -50.396352 9
14.715588 -7.874829 -50.370113 9
11.755751 -8.002101 -50.344677 9
8.797200 -8.137474 -50.318605 9
5.841300 -8.321865 -50.308238 9
2.884934 -8.476715 -50.282191 9
-0.068836 -8.675530 -50.269839 9
-3.025147 -8.836343 -50.238373 9
-5.985909 -8.957311 -50.186996 9
-8.938550 -9.193255 -50.177768 9
-11.899846 -9.352852 -50.133948 9
-14.861624 -9.534038 -50.094798 9
-17.826080 -9.718445 -50.052923 9
-20.791570 -9.921939 -50.014689 9
-23.766020 -10.089877 -49.958053 9
-26.732908 -10.339517 -49.930275 9
-29.708476 -10.561205 -49.887111 9
-32.692989 -10.761880 -49.831293 9
-35.680868 -10.978198 -49.777603 9
-38.663939 -11.252084 -49.743032 9
-41.663863 -11.473877 -49.683082 9
-44.725747 -11.448453 -49.518256 9
-48.007634 -10.526575 -48.983644 9
-51.661503 -8.201216 -47.870826 9
-55.861004 -3.968048 -45.971187 9
-60.639411 2.057294 -43.328364 9
-64.922039 5.727944 -41.637762 9
64.698951 5.717983 -41.745138 9
61.065407 2.509756 -43.048814 9
57.202086 -2.966316 -45.276908 9
53.635586 -7.032888 -46.924053 9
50.264879 -10.182126 -48.191767 9
47.106870 -11.965040 -48.896039 9
44.072197 -12.877068 -49.239608 9
41.122458 -13.047183 -49.275109 9
38.187455 -13.119805 -49.266528 9
35.257909 -13.186517 -49.251397 9
32.331482 -13.277876 -49.242253 9
29.409576 -13.364437 -49.227021 9
26.492295 -13.419470 -49.194717 9
23.577012 -13.495230 -49.166792 9
20.663953 -13.576780 -49.137110 9
17.752726 -13.681455 -49.112801 9
14.843936 -13.854086 -49.112325 9
11.935652 -13.926094 -49.066285 9
9.027639 -14.009144 -49.020614 9
6.120989 -14.135231 -48.988504 9
3.214290 -14.262135 -48.952549 9
0.305963 -14.373123 -48.905817 9
-2.599946 -14.539006 -48.877551 9
-5.507910 -14.691874 -48.839684 9
-8.420319 -14.816548 -48.785890 9
-11.329705 -14.999385 -48.751916 9
-14.244755 -15.153173 -48.701609 9
-17.169910 -15.254170 -48.625041 9
-20.082957 -15.483953 -48.597625 9
-23.008057 -15.652302 -48.540304 9
-25.942306 -15.794126 -48.467509 9
-28.871348 -16.004402 -48.418797 9
-31.812773 -16.174863 -48.348995 9
-34.748898 -16.409806 -48.301631 9
-37.696824 -16.615675 -48.237576 9
-40.663432 -16.766993 -48.146052 9
-43.645076 -16.891242 -48.038459 9
-46.760506 -16.479986 -47.700861 9
-50.131227 -15.104973 -46.951853 9
-53.873758 -12.432471 -45.648767 9
-57.885953 -9.016080 -44.022819 9
-62.101548 -5.191299 -42.214259 9
-66.668593 -0.491703 -40.024314 9
-71.420996 4.419048 -37.732560 8
-74.576782 3.722394 -37.812311 8
-77.747205 3.057478 -37.873616 8
-80.932789 2.420484 -37.917974 8
-84.125051 1.781686 -37.957968 8
-87.339791 1.183886 -37.975205 8
-90.561966 0.579892 -37.989765 8
-93.804818 0.003384 -37.987108 8
-97.039085 -0.625528 -38.001503 8
-100.321120 -1.163384 -37.971071 8
-103.604051 -1.733825 -37.948971 8
-107.516080 -0.854696 -37.292592 8
103.851132 5.340492 -37.605236 5
100.572496 5.519255 -37.585581 5
97.301259 5.677221 -37.569522 5
94.045028 5.844745 -37.544246 5
90.795866 5.993315 -37.521852 5
87.553826 6.123608 -37.502082 5
84.318532 6.234473 -37.485449 5
81.096130 6.355641 -37.459412 5
77.876661 6.442154 -37.442999 5
74.664431 6.514683 -37.427498 5
71.458874 6.571367 -37.413716 5
67.259631 0.616736 -39.934834 9
63.489393 -3.458899 -41.657111 9
59.861947 -7.204042 -43.235057 9
56.390005 -10.440449 -44.593537 9
53.018781 -13.471761 -45.860995 9
49.791826 -15.853403 -46.849654 9
46.724230 -17.236818 -47.412162 9
43.761366 -17.865074 -47.651135 9
40.854427 -18.034324 -47.691653 9
37.963863 -18.083612 -47.677016 9
35.079358 -18.109222 -47.647934 9
32.196624 -18.168483 -47.628669 9
29.315695 -18.271986 -47.623722 9
26.440033 -18.334788 -47.597123 9
23.566726 -18.408579 -47.570758 9
20.695560 -18.492400 -47.544222 9
17.826301 -18.528553 -47.493025 9
14.958132 -18.639398 -47.469086 9
12.091020 -18.737119 -47.435133 9
9.224310 -18.831952 -47.395497 9
6.358053 -18.941075 -47.357467 9
3.490346 -19.029785 -47.306263 9
0.621618 -19.124444 -47.253080 9
-2.245053 -19.273017 -47.218361 9
-5.117908 -19.362212 -47.153773 9
-7.992437 -19.466596 -47.091089 9
-10.863341 -19.638389 -47.052633 9
-13.742637 -19.758564 -46.987499 9
-16.620259 -19.925752 -46.937859 9
-19.505544 -20.064070 -46.871188 9
-22.391849 -20.229519 -46.811463 9
-25.284586 -20.385686 -46.743027 9
-28.182249 -20.546960 -46.672021 9
-31.086277 -20.707711 -46.595982 9
-33.991203 -20.900361 -46.528860 9
-36.909765 -21.058719 -46.442054 9
-39.832702 -21.235267 -46.358167 9
-42.767478 -21.396290 -46.262568 9
-45.798397 -21.181794 -45.998955 9
-49.003792 -20.321397 -45.449042 9
-52.505524 -18.419900 -44.439457 9
-56.259923 -15.776228 -43.098261 9
-59.360901 -15.779611 -42.903538 9
-62.474519 -15.796935 -42.709173 9
-66.490391 -12.836021 -41.204269 9
-72.029253 -5.212782 -37.642864 8
-75.208887 -5.566731 -37.570485 8
-78.382916 -5.975327 -37.516400 8
-81.563984 -6.398435 -37.462954 8
-84.770399 -6.785126 -37.387582 8
-87.989266 -7.176268 -37.308210 8
-91.226967 -7.556691 -37.218022 8
-94.450218 -8.014994 -37.156302 8
-97.718405 -8.398327 -37.055038 8
-100.999047 -8.793885 -36.952863 8
-104.303630 -9.175690 -36.838074 8
-108.261468 -8.107933 -36.066218 8
-118.199529 6.137375 -29.357624 7
-121.377077 4.918384 -29.582874 7
-124.627066 3.845590 -29.736479 7
-127.907056 2.818904 -29.863218 7
-131.249835 1.898718 -29.935406 7
-134.624911 1.015813 -29.984087 7
-138.055784 0.210345 -29.990675 7
-141.510681 -0.584157 -29.985192 7
-145.005499 -1.341565 -29.955463 7
-148.524028 -2.095099 -29.916494 7
108.549184 -2.388505 -36.742921 5
104.661010 -4.400703 -37.699307 5
101.431557 -4.334748 -37.740471 5
98.225230 -4.241865 -37.764298 5
95.036918 -4.135159 -37.776580 5
91.862844 -4.024817 -37.781819 5
88.700260 -3.918696 -37.783488 5
85.542392 -3.843535 -37.793291 5
82.394031 -3.779044 -37.802402 5
79.261480 -3.693591 -37.797063 5
76.130000 -3.654216 -37.806536 5
73.007751 -3.621967 -37.813864 5
69.891604 -3.611927 -37.825648 5
65.364869 -12.076774 -41.525489 9
62.105241 -13.673569 -42.226942 9
59.111666 -13.742232 -42.257479 9
55.826187 -16.026793 -43.248711 9
52.565325 -18.555482 -44.341554 9
49.430105 -20.509479 -45.179282 9
46.428717 -21.630494 -45.649327 9
43.513919 -22.135955 -45.846390 9
40.646676 -22.254860 -45.870217 9
37.794454 -22.258584 -45.839086 9
34.940427 -22.348666 -45.840906 9
32.094526 -22.376191 -45.810710 9
29.250979 -22.418607 -45.782292 9
26.408637 -22.509066 -45.770139 9
23.570089 -22.569767 -45.740272 9
20.733497 -22.632943 -45.706761 9
17.898384 -22.689475 -45.665612 9
15.064339 -22.775643 -45.632691 9
12.230470 -22.829166 -45.580726 9
9.397530 -22.926290 -45.543101 9
6.565298 -23.042126 -45.508918 9
3.731896 -23.139585 -45.461896 9
0.894202 -23.186434 -45.387834 9
-1.938776 -23.337345 -45.354670 9
-4.779809 -23.405011 -45.280057 9
-7.617232 -23.549012 -45.234169 9
-10.455449 -23.709142 -45.190525 9
-13.307541 -23.771159 -45.098690 9
-16.155832 -23.906561 -45.034274 9
-19.009346 -24.035648 -44.962089 9
-21.864984 -24.185095 -44.893900 9
-24.724060 -24.346126 -44.825807 9
-27.597344 -24.455518 -44.729725 9
-30.475148 -24.580545 -44.635420 9
-33.347146 -24.776650 -44.567540 9
-36.235609 -24.923469 -44.472528 9
-39.120869 -25.125310 -44.396784 9
-42.026489 -25.270097 -44.290278 9
-44.984679 -25.229431 -44.095390 9
-48.107438 -24.569017 -43.617061 9
-51.445749 -23.170944 -42.801004 9
-55.027685 -21.024469 -41.640683 9
-58.315161 -20.176534 -41.055957 9
-61.397845 -20.166599 -40.841837 9
-64.659486 -19.614760 -40.376676 9
-70.399754 -11.144560 -36.320325 8
-73.535825 -11.458222 -36.226597 8
-76.683280 -11.777112 -36.129083 8
-79.843786 -12.098090 -36.026280 8
-83.043586 -12.349237 -35.885299 8
-86.213347 -12.728480 -35.796301 8
-89.419965 -13.049314 -35.674137 8
-92.640412 -13.378167 -35.549019 8
-95.869695 -13.728856 -35.427215 8
-99.121003 -14.069744 -35.294096 8
-102.386478 -14.422174 -35.159372 8
-105.776683 -14.535108 -34.906706 8
-110.327495 -12.132290 -33.478536 8
-117.351494 -4.584580 -29.642674 7
-120.749489 -5.123095 -29.553097 7
-124.173259 -5.650068 -29.450658 7
-127.623679 -6.166652 -29.335714 7
-131.072902 -6.729831 -29.234870 7
-134.570016 -7.245054 -29.103571 7
-138.083047 -7.777032 -28.972065 7
-141.638037 -8.279563 -28.818340 7
-145.202737 -8.813682 -28.671125 7
-148.805821 -9.329873 -28.506748 7
147.910694 0.436067 -30.010504 6
144.497092 0.855275 -29.981774 6
141.091956 1.250541 -29.957165 6
137.686645 1.600558 -29.946410 6
134.300423 1.952788 -29.927970 6
130.911854 2.253259 -29.926415 6
127.570336 2.633826 -29.881982 6
124.240527 3.005443 -29.835173 6
120.891796 3.280681 -29.825602 6
115.812451 -1.688588 -32.180924 5
110.897554 -6.563307 -34.483639 5
106.493860 -10.209699 -36.222350 5
103.161802 -10.609584 -36.487962 5
100.001167 -10.506706 -36.520650 5
96.853745 -10.409039 -36.549809 5
93.725872 -10.290610 -36.563789 5
90.600112 -10.214336 -36.590979 5
87.492089 -10.118879 -36.603799 5
84.384649 -10.072178 -36.632862 5
81.296349 -9.994687 -36.642418 5
78.209330 -9.962970 -36.666938 5
75.142331 -9.887563 -36.666235 5
72.074358 -9.868157 -36.685150 5
67.781429 -16.746903 -39.797556 9
64.444757 -18.876750 -40.770488 9
61.392780 -19.546534 -41.082121 9
58.418918 -19.838987 -41.218984 9
55.386689 -20.660672 -41.588308 9
52.212734 -22.800452 -42.544475 9
49.149436 -24.428540 -43.265774 9
46.192760 -25.423052 -43.697498 9
43.314308 -25.866563 -43.876711 9
40.481536 -25.932952 -43.881467 9
37.655946 -25.976274 -43.870827 9
34.832576 -26.054557 -43.870883 9
32.016999 -26.072331 -43.838710 9
29.203356 -26.109878 -43.810407 9
26.393174 -26.121267 -43.765305 9
23.582922 -26.206203 -43.748287 9
20.775537 -26.258009 -43.711328 9
17.969395 -26.316881 -43.672519 9
15.164110 -26.377550 -43.629478 9
12.359139 -26.437878 -43.581229 9
9.555170 -26.539129 -43.546394 9
6.749083 -26.587068 -43.482402 9
3.942887 -26.664411 -43.426595 9
1.136001 -26.755858 -43.372056 9
-1.670283 -26.880974 -43.327639 9
-4.481057 -26.972077 -43.262669 9
-7.291299 -27.100710 -43.209548 9
-10.107367 -27.199502 -43.137687 9
-12.926895 -27.302468 -43.062482 9
-15.750347 -27.409428 -42.983821 9
-18.578210 -27.520138 -42.901559 9
-21.408855 -27.648943 -42.822207 9
-24.243820 -27.786094 -42.741297 9
-27.083488 -27.931242 -42.658637 9
-29.931452 -28.066092 -42.565817 9
-32.781893 -28.226477 -42.479197 9
-35.643911 -28.365661 -42.377312 9
-38.513047 -28.511081 -42.272682 9
-41.398096 -28.624848 -42.147815 9
-44.302763 -28.698205 -41.998544 9
-47.252617 -28.634012 -41.779857 9
-49.890285 -29.860379 -42.151923 9
-52.987348 -29.306147 -41.694751 9
-56.422423 -27.628125 -40.708994 9
-59.967448 -25.754314 -39.623217 9
-63.598825 -23.789406 -38.485475 9
-67.317835 -21.742867 -37.299714 9
-72.252931 -16.114544 -34.429492 8
-75.385970 -16.349124 -34.287847 8
-78.520595 -16.624124 -34.158426 8
-81.665383 -16.913727 -34.029102 8
-84.836750 -17.174061 -33.879143 8
-87.999809 -17.501970 -33.754077 8
-91.213857 -17.741893 -33.580388 8
-94.425844 -18.035330 -33.424788 8
-97.651861 -18.341011 -33.267704 8
-100.904039 -18.631603 -33.096028 8
-104.154701 -18.973398 -32.941234 8
-107.864206 -18.345791 -32.314732 8
-113.217226 -14.278264 -30.027090 8
-118.429461 -10.785967 -27.997423 7
-121.855769 -11.188604 -27.829039 7
-125.299789 -11.604120 -27.658546 7
-128.761581 -12.033517 -27.486313 7
-132.257959 -12.446037 -27.297260 7
-135.769028 -12.881721 -27.110671 7
-139.331046 -13.275691 -26.894710 7
-142.915796 -13.682640 -26.675841 7
-146.523118 -14.104084 -26.454660 7
148.605495 -7.209737 -29.131777 6
145.181044 -6.941740 -29.188466 6
141.774052 -6.685516 -29.243299 6
138.383332 -6.442624 -29.297093 6
135.021370 -6.181041 -29.334909 6
131.643893 -6.009520 -29.407815 6
128.322493 -5.746013 -29.430582 6
124.996971 -5.542476 -29.474464 6
121.688510 -5.343088 -29.513392 6
118.399691 -5.138339 -29.543006 6
113.669275 -9.295807 -31.599373 5
108.898230 -13.936792 -33.870948 5
105.248307 -15.380170 -34.644328 5
102.094244 -15.342183 -34.721330 5
98.964883 -15.276566 -34.779165 5
95.862075 -15.170612 -34.812019 5
92.761007 -15.109498 -34.859524 5
89.676938 -15.036581 -34.895422 5
86.611955 -14.938824 -34.913727 5
83.541671 -14.914012 -34.959829 5
80.500542 -14.815259 -34.965673 5
77.452275 -14.799048 -35.003820 5
74.433536 -14.693277 -34.994582 5
71.397399 -14.725464 -35.043354 5
67.277444 -20.844868 -37.903536 9
64.009110 -22.762611 -38.812679 9
60.772322 -24.796110 -39.769502 9
57.620984 -26.600516 -40.614596 9
54.514156 -28.415205 -41.458863 9
51.514375 -29.743507 -42.072661 9
48.727359 -29.536937 -41.971006 9
46.000189 -28.777595 -41.608204 9
43.150119 -29.196851 -41.785351 9
40.347113 -29.219175 -41.773490 9
37.546808 -29.266422 -41.767826 9
34.753343 -29.277096 -41.739896 9
31.961384 -29.319196 -41.721189 9
29.173841 -29.334726 -41.684845 9
26.387207 -29.389061 -41.661154 9
23.603524 -29.419253 -41.620944 9
20.820770 -29.486816 -41.592733 9
18.039596 -29.561920 -41.562692 9
15.259536 -29.628838 -41.523514 9
12.480143 -29.705836 -41.483668 9
9.699931 -29.751538 -41.423907 9
6.927157 -30.007055 -41.456396 9
4.162542 -30.368509 -41.532949 9
1.404586 -30.766414 -41.621284 9
-1.341555 -31.264028 -41.750946 9
-4.081733 -31.758959 -41.874241 9
-6.849838 -31.893580 -41.824033 9
-9.631787 -31.919060 -41.717322 9
-12.409573 -32.028402 -41.644294 9
-15.194793 -32.111861 -41.553590 9
-17.983216 -32.211035 -41.464651 9
-20.772982 -32.339208 -41.383698 9
-23.574973 -32.424686 -41.277013 9
-26.378523 -32.542927 -41.180009 9
-29.196306 -32.620172 -41.057914 9
-32.011016 -32.758272 -40.958686 9
-34.831221 -32.907487 -40.858865 9
-37.662329 -33.043324 -40.746819 9
-40.506954 -33.158756 -40.619127 9
-43.355468 -33.300809 -40.498009 9
-46.226747 -33.390961 -40.346108 9
-49.202015 -33.119274 -40.015583 9
-52.327055 -32.361279 -39.446106 9
-55.678059 -30.903200 -38.534194 9
-59.193062 -29.045111 -37.421613 9
-62.704600 -27.395311 -36.398908 9
-66.347698 -25.499804 -35.248203 9
-71.219587 -19.980905 -32.342226 8
-74.322826 -20.204195 -32.188815 8
-77.437764 -20.438830 -32.033757 8
-80.564316 -20.686164 -31.877633 8
-83.713201 -20.918090 -31.706723 8
-86.870517 -21.174759 -31.540396 8
-90.056583 -21.404275 -31.353303 8
-93.230367 -21.712684 -31.197052 8
-96.466833 -21.915183 -30.981252 8
-99.742249 -22.078265 -30.738044 8
-103.013574 -22.304998 -30.517872 8
-106.434848 -22.252443 -30.151576 8
-110.567153 -20.740520 -29.054064 8
-116.250649 -16.130788 -26.406626 8
-120.146508 -15.466287 -25.699744 7
-123.582325 -15.816279 -25.487205 7
-127.041968 -16.171153 -25.268007 7
-130.520785 -16.541431 -25.047260 7
-134.046945 -16.876264 -24.799250 7
-137.587771 -17.239024 -24.555593 7
-141.049322 -17.794607 -24.399682 7
-144.520687 -18.379048 -24.248953 7
-148.175977 -18.701132 -23.954966 7
146.812974 -12.311156 -27.363905 6
143.419215 -12.085041 -27.451343 6
140.045183 -11.867093 -27.534890 6
136.687118 -11.664709 -27.618228 6
133.347584 -11.470630 -27.697927 6
130.013933 -11.315357 -27.788807 6
126.706701 -11.146396 -27.865587 6
123.421546 -10.971750 -27.932246 6
120.165318 -10.769348 -27.978263 6
116.901288 -10.639740 -28.052107 6
110.938743 -18.603088 -32.006020 5
107.731487 -18.694540 -32.168276 5
104.344016 -19.429622 -32.632180 5
101.247614 -19.315306 -32.681758 5
98.155615 -19.237110 -32.741992 5
95.075797 -19.168866 -32.800393 5
92.009402 -19.104448 -32.854085 5
88.967810 -18.997249 -32.880854 5
85.925500 -18.942422 -32.926235 5
82.899953 -18.869950 -32.956817 5
79.886302 -18.795911 -32.980333 5
76.875151 -18.760986 -33.016233 5
73.873818 -18.731999 -33.048721 5
70.890685 -18.662725 -33.055803 5
66.881985 -24.317571 -35.784390 9
63.656949 -26.134033 -36.677023 9
60.498406 -27.833350 -37.507593 9
57.361040 -29.689877 -38.406939 9
54.293218 -31.384043 -39.222986 9
51.331101 -32.585665 -39.798640 9
48.462397 -33.260036 -40.117488 9
45.655351 -33.542586 -40.244081 9
42.876662 -33.645354 -40.279414 9
40.112961 -33.651800 -40.263240 9
37.354003 -33.650831 -40.237908 9
34.596318 -33.684162 -40.223307 9
32.033685 -30.154647 -38.504509 9
29.246389 -30.165212 -38.467275 9
26.459917 -30.214036 -38.442605 9
23.597585 -33.765257 -40.083924 9
20.851524 -33.839987 -40.061047 9
18.107262 -33.878066 -40.015058 9
15.363267 -33.897980 -39.954755 9
12.620655 -34.014180 -39.934852 9
9.876358 -34.041799 -39.866941 9
7.131959 -34.102346 -39.809114 9
4.385588 -34.149586 -39.739225 9
1.635374 -34.168878 -39.650210 9
-1.111303 -34.282729 -39.600823 9
-3.863690 -34.349598 -39.523140 9
-6.616712 -34.445998 -39.453868 9
-9.372776 -34.545090 -39.380094 9
-12.133593 -34.636076 -39.296581 9
-14.899723 -34.721079 -39.204304 9
-17.671808 -34.801018 -39.103654 9
-20.442994 -34.927848 -39.019696 9
-23.225461 -35.018037 -38.912028 9
-26.012525 -35.122009 -38.804973 9
-28.807370 -35.222762 -38.690251 9
-31.614613 -35.299604 -38.557744 9
-34.418330 -35.439099 -38.449464 9
-37.236612 -35.548696 -38.320376 9
-40.062758 -35.665817 -38.188613 9
-42.898883 -35.783036 -38.050491 9
-45.722048 -35.997035 -37.953269 9
-48.670915 -35.753871 -37.625463 9
-51.773503 -35.008152 -37.043564 9
-55.030180 -33.822136 -36.236806 9
-58.473599 -32.137187 -35.174960 9
-61.969733 -30.459930 -34.106660 9
-65.539927 -28.724426 -32.999049 9
-70.530186 -22.770414 -29.789263 8
-73.622456 -22.962753 -29.613111 8
-76.755196 -23.085131 -29.394546 8
-79.900475 -23.224741 -29.176724 8
-83.050516 -23.403249 -28.970400 8
-86.235820 -23.539256 -28.734789 8
-89.401378 -23.778709 -28.542898 8
-92.567604 -24.064216 -28.366060 8
-95.764583 -24.321809 -28.166978 8
-98.985613 -24.571548 -27.955553 8
-102.232334 -24.812476 -27.731115 8
-105.461966 -25.141536 -27.542754 8
-109.064567 -24.718533 -26.962396 8
-113.920702 -21.769484 -25.080081 8
-118.578056 -19.442687 -23.498359 7
-122.034410 -19.677829 -23.216343 7
-125.493382 -19.964057 -22.950760 7
-129.019033 -20.179254 -22.638498 7
-132.541865 -20.458314 -22.348960 7
-136.059747 -20.802657 -22.082958 7
-139.629488 -21.110501 -21.787469 7
-143.218920 -21.441488 -21.493295 7
-146.945378 -21.600544 -21.097835 7
148.888608 -16.545016 -25.045042 6
145.514008 -16.303017 -25.144432 6
142.125309 -16.146046 -25.277964 6
138.783888 -15.936942 -25.377079 6
135.441334 -15.784183 -25.496116 6
132.115958 -15.645545 -25.614048 6
128.833288 -15.455423 -25.698336 6
125.553459 -15.310526 -25.797230 6
122.288841 -15.179536 -25.895214 6
119.062018 -14.998705 -25.960771 6
114.623712 -18.343759 -27.764549 5
109.780186 -23.183160 -30.296498 5
106.236529 -24.433555 -31.042843 5
103.176406 -24.296093 -31.095603 5
100.305786 -23.582213 -30.856992 5
97.413036 -22.948307 -30.651304 5
94.437543 -22.617989 -30.588614 5
91.420694 -22.472949 -30.610404 5
88.391724 -22.421214 -30.671304 5
85.380450 -22.351784 -30.716718 5
82.379253 -22.291518 -30.759915 5
79.387955 -22.239517 -30.800500 5
76.414402 -22.157240 -30.819598 5
73.434997 -22.152683 -30.870267 5
70.475332 -22.102555 -30.892030 5
66.552482 -27.408165 -33.533601 9
63.394939 -28.959337 -34.326796 9
60.259212 -30.638089 -35.175909 9
57.156738 -32.390177 -36.054470 9
54.129269 -33.926146 -36.820773 9
51.197332 -35.026158 -37.367263 9
48.333859 -35.796470 -37.746142 9
45.547527 -36.051773 -37.866685 9
42.792933 -36.087452 -37.873650 9
40.045842 -36.098258 -37.862477 9
37.302672 -36.113871 -37.847720 9
34.562959 -36.135174 -37.829823 9
31.827376 -36.142829 -37.799308 9
29.092526 -36.192048 -37.783259 9
26.362573 -36.180173 -37.731313 9
23.631923 -36.244858 -37.711018 9
20.903815 -36.272982 -37.666852 9
18.176445 -36.326562 -37.629260 9
15.449805 -36.375901 -37.583647 9
12.722813 -36.400153 -37.519742 9
9.995541 -36.446692 -37.460827 9
7.268368 -36.521059 -37.409635 9
4.539006 -36.571826 -37.340818 9
1.808737 -36.640981 -37.275044 9
-0.922955 -36.720964 -37.208572 9
-3.659688 -36.770470 -37.120973 9
-6.395298 -36.872136 -37.053054 9
-9.140440 -36.912590 -36.948713 9
-11.883252 -37.017619 -36.870171 9
-14.635241 -37.083187 -36.765863 9
-17.388043 -37.184489 -36.673034 9
-20.144817 -37.296049 -36.579027 9
-22.916128 -37.352206 -36.451115 9
-25.683843 -37.475170 -36.350071 9
-28.465355 -37.558785 -36.222971 9
-31.250006 -37.669230 -36.102759 9
-34.046178 -37.763337 -35.967817 9
-36.845295 -37.887144 -35.841122 9
-39.656380 -37.998463 -35.701488 9
-42.476629 -38.113796 -35.557110 9
-45.311279 -38.213790 -35.398172 9
-48.226018 -38.045899 -35.097140 9
-52.299189 -33.602819 -32.627990 9
-54.475980 -36.397400 -33.807876 9
-57.858749 -34.860105 -32.788235 9
-61.337763 -33.174813 -31.682890 9
-64.844389 -31.581117 -30.613140 9
-69.887317 -25.409931 -27.197049 8
-72.948136 -25.637469 -27.031000 8
-76.046182 -25.802036 -26.824781 8
-79.133806 -26.044926 -26.650597 8
-82.244714 -26.269851 -26.459043 8
-85.356865 -26.538295 -26.281631 8
-88.487357 -26.805070 -26.095023 8
-91.667176 -26.996170 -25.860731 8
-94.825506 -27.289491 -25.670716 8
-98.034898 -27.510025 -25.434093 8
-102.509682 -24.926191 -23.724413 8
-104.573837 -27.837117 -24.873840 8
-107.976433 -27.797985 -24.473073 8
-112.185335 -26.149259 -23.214835 8
-117.651451 -22.105873 -20.677339 7
-121.074917 -22.365346 -20.394273 7
-124.523345 -22.631437 -20.104377 7
-128.026895 -22.849244 -19.778226 7
-131.557073 -23.076604 -19.446245 7
-135.097422 -23.344425 -19.124800 7
-138.661062 -23.629169 -18.801194 7
-142.284638 -23.869487 -18.442167 7
-145.920355 -24.150148 -18.093084 7
148.458114 -18.596609 -21.882958 6
145.024145 -18.510175 -22.075746 6
141.596550 -18.471224 -22.283856 6
138.212859 -18.394867 -22.463669 6
134.833542 -18.369241 -22.660680 6
131.514434 -18.260038 -22.806042 6
128.192244 -18.216542 -22.976519 6
124.886423 -18.191976 -23.148180 6
121.617738 -18.130093 -23.292377 6
118.375314 -18.054820 -23.421506 6
113.563033 -22.521393 -25.857334 5
109.069028 -26.416319 -27.989180 5
105.547968 -27.671301 -28.766475 5
102.446602 -27.747046 -28.935713 5
99.412457 -27.666627 -29.018087 5
96.389205 -27.601639 -29.100929 5
93.389821 -27.505230 -29.160552 5
90.386375 -27.474142 -29.246058 5
87.412586 -27.383964 -29.294480 5
84.450128 -27.297803 -29.337862 5
81.486675 -27.265345 -29.401373 5
78.546952 -27.182051 -29.432212 5
75.614130 -27.115285 -29.464485 5
72.682771 -27.091131 -29.511396 5
69.769696 -27.026398 -29.530992 5
66.290848 -30.111587 -31.132548 9
63.163482 -31.593622 -31.918090 9
60.061849 -33.169625 -32.744003 9
57.000478 -34.757958 -33.569258 9
53.982160 -36.336115 -34.382659 9
51.073659 -37.377521 -34.919007 9
48.245528 -37.980320 -35.227930 9
45.470310 -38.263814 -35.369635 9
42.737573 -38.224519 -35.342399 9
40.004068 -38.238023 -35.335491 9
37.273637 -38.268327 -35.330789 9
34.549611 -38.263914 -35.302333 9
31.826932 -38.287096 -35.281540 9
29.105598 -38.345154 -35.272097 9
26.389224 -38.346792 -35.227955 9
23.672772 -38.409529 -35.208403 9
20.959190 -38.407879 -35.150102 9
18.245652 -38.467478 -35.116477 9
15.532580 -38.475828 -35.050694 9
12.819797 -38.537016 -35.005345 9
10.105986 -38.568765 -34.938817 9
7.392747 -38.647726 -34.889884 9
4.678257 -38.719345 -34.830923 9
1.960315 -38.760459 -34.750153 9
-0.756943 -38.849806 -34.687482 9
-3.478509 -38.914970 -34.606144 9
-6.203879 -38.975635 -34.516085 9
-8.932523 -39.043708 -34.423322 9
-11.664755 -39.119309 -34.327887 9
-14.402216 -39.191940 -34.224391 9
-17.149377 -39.233587 -34.098476 9
-19.891626 -39.354767 -34.006547 9
-22.646890 -39.428868 -33.883875 9
-25.403498 -39.537895 -33.772352 9
-28.169377 -39.634536 -33.647702 9
-30.945415 -39.719400 -33.510150 9
-33.730802 -39.801472 -33.364228 9
-36.518410 -39.917790 -33.228950 9
-39.311302 -40.052325 -33.096046 9
-42.122893 -40.147819 -32.935874 9
-44.930288 -40.305680 -32.800781 9
-47.810300 -40.220314 -32.532292 9
-50.816641 -39.723853 -32.042414 9
-53.973403 -38.782311 -31.312184 9
-57.345221 -37.227762 -30.252563 9
-60.774840 -35.654769 -29.172250 9
-64.263496 -34.064798 -28.071688 9
-67.819878 -32.436257 -26.939217 9
-72.265025 -28.332717 -24.493325 8
-75.346097 -28.487349 -24.273298 8
-78.412861 -28.731396 -24.091888 8
-81.522550 -28.904378 -23.864335 8
-84.659329 -29.056398 -23.616822 8
-87.800383 -29.249257 -23.381983 8
-90.943179 -29.487701 -23.162348 8
-94.122687 -29.686546 -22.912416 8
-97.314858 -29.906952 -22.664630 8
-100.545042 -30.092187 -22.388428 8
-103.750230 -30.385120 -22.160436 8
-107.103637 -30.410354 -21.778178 8
-110.991649 -29.390285 -20.819038 8
-116.346012 -25.527725 -18.301570 8
-120.296980 -24.689379 -17.408104 7
-123.746584 -24.921936 -17.085428 7
-127.256734 -25.097830 -16.720489 7
-130.776476 -25.316357 -16.367353 7
-134.348010 -25.501553 -15.984074 7
-137.937894 -25.716136 -15.604917 7
-141.542733 -25.966066 -15.233074 7
-145.220948 -26.154326 -14.814379 7
-148.914572 -26.381295 -14.404315 7
147.689335 -21.360323 -19.112484 6
144.370626 -21.068233 -19.210913 6
141.004787 -20.931409 -19.382406 6
137.686261 -20.743929 -19.517691 6
134.371632 -20.601660 -19.667715 6
131.085496 -20.446452 -19.801816 6
127.832375 -20.263448 -19.912327 6
124.569437 -20.158393 -20.055091 6
121.377693 -19.920365 -20.119198 6
118.164356 -19.789381 -20.231032 6
112.760498 -25.943209 -23.629845 5
108.473108 -29.296478 -25.545997 5
105.093013 -30.183417 -26.159746 5
102.051951 -30.124167 -26.269962 5
99.027596 -30.064686 -26.372200 5
96.023163 -29.991453 -26.459491 5
93.029364 -29.933053 -26.546839 5
90.048084 -29.881716 -26.630253 5
87.074338 -29.854778 -26.718824 5
84.122711 -29.794148 -26.782381 5
81.176769 -29.761237 -26.852946 5
78.249284 -29.700859 -26.901886 5
75.329321 -29.656332 -26.951774 5
72.416832 -29.627219 -27.002424 5
69.516923 -29.586485 -27.039851 5
66.628970 -29.531962 -27.062986 5
62.976345 -33.959953 -29.402638 9
59.909663 -35.411425 -30.191451 9
56.867630 -36.961585 -31.024148 9
53.886609 -38.368481 -31.775515 9
50.984320 -39.454141 -32.353544 9
48.177665 -39.983762 -32.636791 9
45.407770 -40.331328 -32.819076 9
42.684874 -40.325983 -32.811957 9
39.966831 -40.316736 -32.796212 9
37.251262 -40.325799 -32.783361 9
34.537486 -40.363934 -32.778993 9
31.830557 -40.345999 -32.739000 9
29.124060 -40.363819 -32.710966 9
26.419709 -40.384010 -32.677595 9
23.717071 -40.404863 -32.637999 9
21.015142 -40.463509 -32.611445 9
18.314747 -40.482236 -32.557598 9
15.614737 -40.540880 -32.517896 9
12.914842 -40.587077 -32.465137 9
10.213916 -40.613920 -32.395701 9
7.512592 -40.666248 -32.332887 9
4.808700 -40.696074 -32.251703 9
2.104904 -40.767616 -32.185572 9
-0.602487 -40.818678 -32.102067 9
-3.311983 -40.882011 -32.018231 9
-6.027769 -40.914438 -31.911479 9
-8.740849 -41.017608 -31.834903 9
-11.462800 -41.075486 -31.727804 9
-14.185008 -41.173069 -31.634624 9
-16.912637 -41.267163 -31.532714 9
-19.654608 -41.301655 -31.392527 9
-22.387980 -41.438168 -31.298931 9
-25.142793 -41.482070 -31.149533 9
-27.891505 -41.607208 -31.035788 9
-30.653753 -41.699492 -30.897534 9
-33.423639 -41.796639 -30.754581 9
-36.208857 -41.864531 -30.588791 9
-38.993734 -41.980551 -30.441076 9
-41.794930 -42.069464 -30.271487 9
-44.598442 -42.194647 -30.113606 9
-47.474600 -42.079819 -29.820103 9
-50.443285 -41.683504 -29.368045 9
-53.573304 -40.796063 -28.644284 9
-56.880613 -39.423008 -27.650134 9
-60.334153 -37.725396 -26.470399 9
-63.785959 -36.214192 -25.378843 9
-67.318339 -34.619767 -24.230331 9
-71.714800 -30.627759 -21.773149 8
-74.769631 -30.812304 -21.560200 8
-77.844091 -30.989832 -21.334488 8
-80.918779 -31.215319 -21.125766 8
-84.059559 -31.315065 -20.839310 8
-87.181795 -31.516230 -20.598693 8
-90.348978 -31.656543 -20.315196 8
-93.501367 -31.885418 -20.070517 8
-96.692326 -32.074235 -19.793979 8
-99.900933 -32.275398 -19.514178 8
-103.110208 -32.527057 -19.252117 8
-106.433466 -32.586641 -18.873058 8
-110.199601 -31.791709 -18.006751 8
-115.308179 -28.400442 -15.675286 8
-119.765008 -26.526865 -14.171272 7
-123.228389 -26.714151 -13.807327 7
-126.736507 -26.876753 -13.417526 7
-130.244025 -27.101160 -13.050414 7
-133.804957 -27.289289 -12.650367 7
-137.405766 -27.469407 -12.232999 7
-141.056989 -27.626534 -11.789396 7
-144.742358 -27.791452 -11.336765 7
-148.383753 -28.092056 -10.948472 7
146.989503 -23.969737 -16.291458 6
143.637548 -23.791058 -16.463684 6
140.298794 -23.639038 -16.640501 6
136.979731 -23.498804 -16.813895 6
133.692496 -23.340501 -16.967756 6
130.424514 -23.190659 -17.116683 6
127.164768 -23.075218 -17.274859 6
123.936386 -22.935499 -17.410574 6
120.724709 -22.805720 -17.542512 6
117.053804 -23.989071 -18.374362 5
112.193883 -28.681569 -21.087741 5
109.645159 -26.986401 -20.345884 5
104.763499 -32.307169 -23.371838 5
101.739139 -32.237232 -23.486088 5
98.730843 -32.168400 -23.592675 5
95.733567 -32.115325 -23.699549 5
92.743195 -32.091794 -23.814162 5
89.787586 -31.996637 -23.882390 5
86.826074 -31.973415 -23.981209 5
83.893791 -31.888617 -24.039231 5
80.964755 -31.839390 -24.108495 5
78.052092 -31.770406 -24.159488 5
75.139869 -31.748988 -24.228212 5
72.244857 -31.698169 -24.273637 5
69.357365 -31.659317 -24.317890 5
65.960471 -34.437416 -25.855698 9
62.858185 -35.920110 -26.694946 9
59.804694 -37.355397 -27.501120 9
56.770328 -38.923743 -28.370480 9
53.799260 -40.336998 -29.149764 9
50.931800 -41.241550 -29.650978 9
48.115699 -41.932017 -30.031125 9
45.719289 -38.952601 -28.451386 9
42.654882 -42.188366 -30.171969 9
39.946191 -42.197879 -30.168832 9
37.240133 -42.228823 -30.170178 9
34.540251 -42.229542 -30.148528 9
31.844916 -42.201992 -30.104923 9
29.148016 -42.249928 -30.094611 9
26.455446 -42.255433 -30.054809 9
23.763897 -42.278054 -30.017227 9
21.074062 -42.264576 -29.953499 9
18.383924 -42.341726 -29.931185 9
15.694558 -42.353351 -29.867010 9
13.005113 -42.394816 -29.811828 9
10.314743 -42.423556 -29.742904 9
7.624778 -42.496822 -29.690815 9
4.931101 -42.515872 -29.602755 9
2.235997 -42.555402 -29.518628 9
-0.460796 -42.610391 -29.435739 9
-3.162583 -42.641485 -29.332963 9
-5.867192 -42.686237 -29.230391 9
-8.573719 -42.754567 -29.133331 9
-11.287794 -42.795647 -29.014433 9
-14.002213 -42.878543 -28.910798 9
-16.725112 -42.937756 -28.787134 9
-19.449831 -43.027805 -28.672771 9
-22.185353 -43.089084 -28.535496 9
-24.931461 -43.131947 -28.380788 9
-27.674270 -43.240440 -28.254089 9
-30.423272 -43.356604 -28.124020 9
-33.797177 -40.411021 -26.322341 9
-35.957016 -43.537904 -27.813251 9
-38.726859 -43.680277 -27.674416 9
-41.538142 -43.686091 -27.453224 9
-44.335212 -43.802886 -27.284610 9
-47.180555 -43.775735 -27.029104 9
-50.132649 -43.407457 -26.577946 9
-53.223845 -42.626510 -25.890630 9
-56.513506 -41.280311 -24.881621 9
-59.924784 -39.689992 -23.726157 9
-63.396615 -38.080030 -22.547321 9
-66.891951 -36.569593 -21.410799 9
-71.247443 -32.673787 -18.936129 8
-74.316207 -32.781360 -18.671352 8
-77.380333 -32.954129 -18.433382 8
-80.467478 -33.113975 -18.178622 8
-83.583755 -33.248426 -17.899867 8
-86.709796 -33.410718 -17.626769 8
-89.864753 -33.553787 -17.332750 8
-93.021120 -33.746649 -17.056537 8
-96.195449 -33.949087 -16.775382 8
-99.408877 -34.115115 -16.463014 8
-102.639310 -34.297923 -16.149357 8
-105.908330 -34.452589 -15.808620 8
-111.915307 -29.020274 -12.255435 8
-114.491867 -30.821335 -12.828330 8
-119.422958 -27.991832 -10.725641 7
-122.909378 -28.125859 -10.313608 7
-126.426937 -28.263392 -9.890875 7
-129.973449 -28.410406 -9.460652 7
-133.580309 -28.512947 -8.991184 7
-137.181929 -28.689759 -8.551487 7
-140.872930 -28.778383 -8.046141 7
-144.549077 -28.958963 -7.580588 7
-148.310521 -29.066407 -7.057255 7
149.902393 -26.232304 -13.006209 6
146.517512 -26.093590 -13.225663 6
143.164697 -25.944520 -13.428572 6
139.811675 -25.853396 -13.653472 6
136.495850 -25.737639 -13.854113 6
133.215464 -25.596879 -14.030530 6
129.953106 -25.468557 -14.203853 6
126.698888 -25.376047 -14.387230 6
123.471853 -25.271509 -14.554089 6
120.273132 -25.148410 -14.700973 6
116.965319 -25.377600 -15.033878 5
111.848631 -30.786197 -18.227713 5
107.801122 -33.507784 -19.917197 5
104.535489 -34.119935 -20.427647 5
101.500391 -34.114118 -20.587140 5
98.487618 -34.093969 -20.729973 5
95.504025 -34.032123 -20.841196 5
92.531809 -33.983385 -20.951146 5
89.590172 -33.876607 -21.020751 5
86.651754 -33.805782 -21.101844 5
83.712957 -33.787272 -21.203439 5
80.794586 -33.738904 -21.280443 5
77.885461 -33.702134 -21.355703 5
74.993838 -33.637797 -21.407802 5
72.106883 -33.600287 -21.466628 5
69.227105 -33.578015 -21.525869 5
65.861019 -36.236377 -23.044516 9
62.775454 -37.672846 -23.885626 9
59.721280 -39.163342 -24.748047 9
56.702699 -40.686863 -25.620440 9
53.758550 -41.971589 -26.354361 9
50.886515 -42.970713 -26.924460 9
48.095130 -43.530746 -27.247048 9
45.354371 -43.790985 -27.398414 9
42.646624 -43.826138 -27.419463 9
39.948416 -43.814295 -27.407549 9
37.253196 -43.813437 -27.394376 9
34.559988 -43.835096 -27.386260 9
31.870654 -43.848936 -27.366630 9
29.183052 -43.884456 -27.351621 9
26.500797 -43.841557 -27.286488 9
23.817453 -43.860755 -27.248081 9
21.134821 -43.914487 -27.221341 9
18.453629 -43.941027 -27.172477 9
15.772729 -43.974643 -27.120238 9
13.091350 -43.991072 -27.051309 9
10.408587 -43.996906 -26.969273 9
7.726509 -44.066634 -26.914989 9
5.041963 -44.108075 -26.837861 9
2.356936 -44.177629 -26.768836 9
-0.334722 -44.184733 -26.658086 9
-3.026807 -44.235734 -26.564057 9
-5.722681 -44.285404 -26.461843 9
-8.420766 -44.354799 -26.363017 9
-11.123397 -44.422926 -26.255968 9
-13.828702 -44.509601 -26.151605 9
-16.544991 -44.553620 -26.016023 9
-19.268276 -44.595484 -25.871532 9
-21.988488 -44.703102 -25.755754 9
-24.717042 -44.799659 -25.626074 9
-27.456797 -44.874586 -25.476521 9
-30.202672 -44.961412 -25.325655 9
-32.961936 -45.025216 -25.153938 9
-35.721052 -45.136080 -25.000404 9
-38.493170 -45.231130 -24.829887 9
-41.292615 -45.254414 -24.610878 9
-44.077636 -45.387787 -24.445233 9
-46.910612 -45.377350 -24.190291 9
-49.857468 -44.998735 -23.719015 9
-52.970776 -44.111898 -22.951007 9
-56.216740 -42.895183 -21.985355 9
-59.614394 -41.326458 -20.808156 9
-63.069176 -39.747920 -19.612349 9
-66.559352 -38.230533 -18.437988 9
-70.878493 -34.426873 -15.945290 8
-73.929553 -34.557968 -15.683442 8
-76.997746 -34.692497 -15.413601 8
-80.078627 -34.844237 -15.143533 8
-83.179978 -34.993638 -14.861882 8
-86.325013 -35.084838 -14.536198 8
-89.483033 -35.199961 -14.213590 8
-92.663651 -35.316391 -13.880840 8
-95.857206 -35.458368 -13.551862 8
-99.070349 -35.611077 -13.217917 8
-102.308117 -35.764855 -12.873186 8
-105.554498 -35.955559 -12.538501 8
-109.215523 -35.348037 -11.721998 8
-114.088218 -32.411943 -9.515101 8
-119.300128 -29.030662 -7.020489 7
-122.778481 -29.181715 -6.599458 7
-126.341152 -29.237184 -6.108107 7
-129.905889 -29.355051 -5.640107 7
-133.530132 -29.431825 -5.133364 7
-137.191124 -29.511953 -4.614075 7
-140.882793 -29.607784 -4.089378 7
-144.621702 -29.693425 -3.543292 7
-148.481233 -29.654309 -2.905552 7
149.635756 -27.909061 -9.678558 6
146.262971 -27.759835 -9.907682 6
142.881662 -27.687001 -10.169706 6
139.521626 -27.628909 -10.429012 6
136.216105 -27.509046 -10.641695 6
132.918304 -27.428880 -10.866445 6
129.661690 -27.309174 -11.057852 6
126.421691 -27.204793 -11.247622 6
123.199050 -27.112897 -11.434246 6
120.001814 -27.011099 -11.605054 6
116.100581 -28.878552 -12.888903 5
111.574510 -32.687235 -15.265388 5
107.606898 -35.195544 -16.886811 5
104.361860 -35.767607 -17.395240 5
101.353812 -35.701669 -17.531573 5
98.345360 -35.690583 -17.689886 5
95.374323 -35.611201 -17.800463 5
92.406767 -35.571179 -17.924414 5
89.460257 -35.508900 -18.026949 5
86.529415 -35.439167 -18.116550 5
83.603657 -35.400104 -18.214818 5
80.693494 -35.349573 -18.298036 5
77.786138 -35.338492 -18.394978 5
74.907513 -35.251459 -18.440702 5
72.016374 -35.271451 -18.538299 5
69.154459 -35.201248 -18.576830 5
65.795976 -37.848305 -20.134344 9
62.712812 -39.309115 -21.015943 9
59.676377 -40.734260 -21.868827 9
56.678372 -42.165349 -22.716558 9
53.731790 -43.507333 -23.505956 9
50.877102 -44.425263 -24.049256 9
48.080601 -45.078787 -24.436295 9
45.356066 -45.259214 -24.550141 9
42.655135 -45.293763 -24.574484 9
39.961250 -45.309853 -24.580844 9
37.276413 -45.266903 -24.546468 9
34.589660 -45.291603 -24.542452 9
31.906873 -45.308346 -24.526387 9
29.227477 -45.311983 -24.495384 9
26.550041 -45.315573 -24.456776 9
23.873162 -45.353877 -24.430086 9
21.197981 -45.384647 -24.391588 9
18.523759 -45.391958 -24.332320 9
15.849562 -45.424583 -24.279682 9
13.175140 -45.454427 -24.217871 9
10.500133 -45.491234 -24.152351 9
7.823979 -45.529026 -24.079740 9
5.145149 -45.547757 -23.988708 9
2.464154 -45.574957 -23.894737 9
-0.217095 -45.641250 -23.815101 9
-2.903993 -45.672677 -23.708008 9
-5.591525 -45.741174 -23.614070 9
-8.283727 -45.801814 -23.507855 9
-10.983875 -45.833211 -23.377176 9
-13.682814 -45.920418 -23.270205 9
-16.385795 -46.015870 -23.159962 9
-19.097140 -46.092319 -23.030903 9
-21.818449 -46.147298 -22.881519 9
-24.546128 -46.209729 -22.728194 9
-27.281624 -46.273557 -22.567411 9
-30.025034 -46.341221 -22.400491 9
-32.779171 -46.401236 -22.220781 9
-35.537620 -46.487791 -22.047792 9
-38.313037 -46.543383 -21.848454 9
-41.090057 -46.640337 -21.664221 9
-43.881830 -46.722406 -21.462675 9
-46.711047 -46.706254 -21.195519 9
-49.645191 -46.356575 -20.726126 9
-52.732123 -45.546352 -19.979601 9
-55.996119 -44.249629 -18.939108 9
-59.385907 -42.693420 -17.734868 9
-62.825152 -41.151354 -16.525286 9
-66.335529 -39.559125 -15.272480 9
-70.623267 -35.844235 -12.761349 8
-73.684956 -35.929392 -12.461847 8
-76.768360 -36.008515 -12.148238 8
-79.863645 -36.110654 -11.837466 8
-82.960434 -36.262685 -11.545347 8
-86.091006 -36.381468 -11.222602 8
-89.250077 -36.484984 -10.879580 8
-92.424947 -36.606691 -10.535953 8
-95.639614 -36.692279 -10.159119 8
-98.870340 -36.799783 -9.783476 8
-102.151506 -36.855202 -9.364395 8
-105.370696 -37.101572 -9.047955 8
-109.041287 -36.474044 -8.190661 8
-113.895845 -33.581611 -5.943037 8
-119.365236 -29.708233 -3.073257 7
-122.898591 -29.766035 -2.575449 7
-126.482337 -29.796284 -2.046393 7
-130.104014 -29.825813 -1.502087 7
-133.749538 -29.881824 -0.958968 7
-137.454525 -29.903700 -0.379298 7
-141.249611 -29.844940 0.266442 7
-145.045172 -29.860321 0.882623 7
-148.956956 -29.762228 1.586680 7
149.600089 -29.118606 -6.069782 6
146.160865 -29.109736 -6.398718 6
142.815795 -28.965490 -6.635105 6
139.467144 -28.886807 -6.898733 6
136.154743 -28.786985 -7.138284 6
132.848504 -28.731744 -7.392829 6
129.572069 -28.666108 -7.630006 6
126.311726 -28.620538 -7.867950 6
123.102149 -28.506387 -8.054691 6
119.888391 -28.458744 -8.269829 6
116.014409 -30.257182 -9.555774 5
111.472808 -34.104264 -12.026571 5
107.538515 -36.519173 -13.644378 5
105.251262 -34.232872 -12.505832 5
101.303943 -36.989804 -14.299413 5
98.308294 -36.949192 -14.451303 5
95.320470 -36.937430 -14.610490 5
92.370433 -36.851231 -14.717044 5
89.415711 -36.832399 -14.853470 5
86.486250 -36.773871 -14.957690 5
83.578063 -36.683256 -15.034265 5
80.661339 -36.676184 -15.150237 5
78.394774 -33.913243 -13.663595 5
74.868203 -36.651763 -15.349478 5
71.998376 -36.595352 -15.410348 5
69.128493 -36.588787 -15.491292 5
65.771560 -39.242960 -17.098570 9
62.681997 -40.764212 -18.042560 9
59.660062 -42.132201 -18.889046 9
56.668335 -43.552239 -19.756621 9
53.716444 -44.963832 -20.610591 9
50.878178 -45.801862 -21.125664 9
48.101813 -46.332915 -21.455690 9
45.376450 -46.559770 -21.602441 9
42.673851 -46.660457 -21.668521 9
39.981589 -46.722137 -21.704160 9
37.302424 -46.686285 -21.675682 9
34.624444 -46.674181 -21.652928 9
31.947401 -46.693823 -21.640517 9
29.274508 -46.685723 -21.604197 9
26.601685 -46.724055 -21.586700 9
23.931658 -46.736752 -21.546510 9
21.262749 -46.745352 -21.496025 9
18.594247 -46.757915 -21.439884 9
15.925863 -46.793062 -21.388826 9
13.257581 -46.840259 -21.336770 9
10.588578 -46.876478 -21.270405 9
7.917354 -46.886635 -21.180974 9
5.245770 -46.935664 -21.105992 9
2.569852 -46.946819 -21.001034 9
-0.105157 -47.018156 -20.922843 9
-3.046040 -43.894089 -18.982989 9
-5.471405 -47.078503 -20.694342 9
-8.162141 -47.100313 -20.562915 9
-10.850867 -47.186997 -20.460944 9
-13.554342 -47.192947 -20.303686 9
-16.254682 -47.272692 -20.181031 9
-18.966960 -47.311615 -20.026151 9
-21.688266 -47.340270 -19.856751 9
-24.409892 -47.415594 -19.706059 9
-27.144774 -47.460704 -19.529044 9
-29.884616 -47.527350 -19.355928 9
-32.639876 -47.563431 -19.156046 9
-35.388019 -47.682100 -18.995855 9
-38.169823 -47.692591 -18.762974 9
-40.940412 -47.803056 -18.579965 9
-43.734448 -47.862443 -18.357623 9
-46.526754 -47.977285 -18.158844 9
-49.498550 -47.472624 -17.582735 9
-52.556879 -46.756512 -16.869910 9
-55.800097 -45.521393 -15.835989 9
-59.221130 -43.852663 -14.529861 9
-62.674458 -42.261128 -13.255482 9
-66.172071 -40.705461 -11.987988 9
-70.505302 -36.859430 -9.327770 8
-73.549103 -36.993556 -9.045749 8
-76.633420 -37.067041 -8.716172 8
-79.737093 -37.144204 -8.377559 8
-82.850266 -37.252335 -8.046311 8
-85.994146 -37.337907 -7.689772 8
-89.147324 -37.456985 -7.341862 8
-92.338918 -37.540411 -6.960182 8
-95.572223 -37.585920 -6.542937 8
-98.783451 -37.740429 -6.180156 8
-102.095524 -37.731987 -5.704219 8
-105.397583 -37.808655 -5.267633 8
-109.027561 -37.275603 -4.438828 8
-114.159380 -33.847712 -1.789377 8
-119.693319 -29.882696 1.224207 7
-123.288766 -29.847448 1.803139 7
-126.902198 -29.849624 2.373992 7
-130.594485 -29.779559 3.006177 7
-134.351140 -29.670335 3.679581 7
-138.129872 -29.599618 4.345445 7
-141.980145 -29.484627 5.056807 7
-145.876405 -29.372710 5.784064 7
149.826929 -29.803616 -2.120713 6
146.388748 -29.779909 -2.460045 6
142.965732 -29.789120 -2.806718 6
139.597636 -29.744642 -3.108114 6
136.250185 -29.716547 -3.407229 6
132.954282 -29.632347 -3.660253 6
129.661667 -29.599625 -3.932705 6
126.392858 -29.570300 -4.195551 6
123.160127 -29.511207 -4.428953 6
119.950776 -29.450214 -4.649962 6
116.160056 -31.014299 -5.837327 5
111.550139 -35.025405 -8.480545 5
107.581289 -37.525981 -10.200265 5
104.292334 -38.235695 -10.832850 5
101.331486 -38.042367 -10.913910 5
98.330571 -38.021446 -11.088152 5
95.340611 -38.020635 -11.264437 5
92.385580 -37.956764 -11.393263 5
89.425951 -37.961734 -11.553406 5
86.490553 -37.933368 -11.684056 5
83.571261 -37.896273 -11.799994 5
80.654198 -37.903321 -11.932726 5
77.767809 -37.835515 -12.011657 5
74.894360 -37.758586 -12.075946 5
72.027171 -37.699741 -12.141799 5
69.158645 -37.696920 -12.231732 5
65.808038 -40.315965 -13.864639 9
62.718738 -41.839111 -14.838619 9
59.678278 -43.324295 -15.780521 9
56.690054 -44.736545 -16.669902 9
53.757558 -46.029801 -17.479778 9
50.906669 -46.974956 -18.075013 9
48.130323 -47.531274 -18.431827 9
45.408483 -47.759254 -18.586180 9
42.717458 -47.782452 -18.611177 9
40.031907 -47.802757 -18.626116 9
37.351736 -47.813006 -18.626790 9
34.677965 -47.785173 -18.596657 9
32.002865 -47.822685 -18.596825 9
29.333155 -47.814785 -18.561873 9
26.663643 -47.849738 -18.543958 9
23.997682 -47.827147 -18.483740 9
21.330945 -47.879977 -18.459827 9
18.665915 -47.844542 -18.375402 9
