ply
format ascii 1.0
element vertex 1385
property float x
property float y
property float z
property int scalar_Label
end_header
40.657932 -51.779656 1.932171 9
37.931952 -51.789988 1.915015 9
35.224995 -51.746804 1.924676 9
32.513484 -51.777778 1.907187 9
29.815416 -51.779155 1.906367 9
27.124117 -51.786428 1.907201 9
24.443353 -51.769004 1.922600 9
21.767170 -51.763947 1.936892 9
19.096234 -51.764074 1.953098 9
16.430368 -51.767408 1.972044 9
13.770829 -51.755845 2.001377 9
11.114419 -51.755858 2.029900 9
8.460102 -51.779353 2.052568 9
5.811882 -51.765353 2.095177 9
3.168396 -51.707581 2.160401 9
0.523732 -51.702791 2.207286 9
-2.121344 -51.762457 2.230946 9
-4.761666 -51.710695 2.305916 9
-7.402705 -51.688333 2.372540 9
-10.044060 -51.667781 2.442518 9
-12.686165 -51.651974 2.514618 9
-15.329110 -51.654705 2.582988 9
-17.973481 -51.655054 2.656527 9
-20.619456 -51.663226 2.730912 9
-23.268278 -51.660447 2.814151 9
-25.921876 -51.629495 2.913618 9
-28.574842 -51.664757 2.989107 9
-31.234595 -51.657804 3.086863 9
-33.900377 -51.636665 3.194986 9
-36.572471 -51.608102 3.310631 9
-39.243404 -51.644536 3.402838 9
-41.925988 -51.630908 3.520868 9
-44.628621 -51.520696 3.684787 9
-47.397594 -51.020358 4.020850 9
-50.232031 -50.218494 4.491585 9
-53.223601 -48.626059 5.308061 9
-56.324341 -46.659794 6.291989 9
-59.495230 -44.595169 7.325231 9
-62.711719 -42.575898 8.346009 9
-66.985542 -35.766561 11.446839 8
-69.939381 -35.674473 11.650076 8
-72.893082 -35.646743 11.830693 8
-75.883447 -35.525346 12.057315 8
-78.879669 -35.446975 12.270704 8
-81.887772 -35.386105 12.481980 8
-84.925870 -35.277337 12.719744 8
-87.984004 -35.163609 12.965405 8
-91.059205 -35.057993 13.213337 8
-94.156015 -34.947364 13.469377 8
-97.242174 -34.935578 13.687976 8
-100.401067 -34.763071 13.983321 8
-103.571090 -34.628090 14.268430 8
-107.024412 -33.760885 14.883643 8
-113.018664 -26.061403 18.533257 8
-117.363876 -23.267704 20.025450 7
-120.398398 -24.072385 19.928890 7
-123.878354 -23.782155 20.325750 7
-127.438947 -23.377014 20.781498 7
-131.016781 -23.018352 21.224379 7
-134.639415 -22.641855 21.683285 7
-138.322793 -22.216072 22.172592 7
-142.093004 -21.691055 22.715164 7
-145.860018 -21.267015 23.221037 7
146.295913 -23.228888 21.033509 6
142.455537 -23.453861 20.731450 6
138.652915 -23.688815 20.432732 6
134.945410 -23.819746 20.187978 6
131.234199 -24.034154 19.913453 6
127.562728 -24.246652 19.647085 6
123.979689 -24.351749 19.435513 6
120.422017 -24.474893 19.222851 6
112.171174 -35.119144 14.362363 5
110.864486 -30.533239 16.249475 5
104.123378 -38.537490 12.580919 5
100.917651 -38.509492 12.467783 5
97.692363 -38.590039 12.312743 5
96.062299 -34.639346 13.937654 5
91.351552 -38.661831 12.059574 5
88.216687 -38.695398 11.942611 5
85.094207 -38.755915 11.819441 5
81.991380 -38.822496 11.699176 5
78.921797 -38.852331 11.600512 5
75.874033 -38.874719 11.510512 5
72.846797 -38.890526 11.428726 5
69.836188 -38.909587 11.350787 5
66.844389 -38.922104 11.280922 5
63.058571 -41.873425 9.932025 9
59.487785 -44.314904 8.812104 9
57.490327 -40.821320 10.289271 9
52.680123 -48.655508 6.826448 9
49.510911 -50.203173 6.113532 9
46.553703 -50.997355 5.734392 9
43.720466 -51.336916 5.558345 9
40.960732 -51.397857 5.508463 9
38.217665 -51.430369 5.475583 9
35.492843 -51.417160 5.467205 9
32.774833 -51.414249 5.458887 9
30.065053 -51.411035 5.455225 9
27.363312 -51.404873 5.457353 9
24.671281 -51.378658 5.472707 9
21.978914 -51.403003 5.470499 9
19.301798 -51.351347 5.505873 9
16.623408 -51.353779 5.522123 9
13.948043 -51.376866 5.533805 9
11.280446 -51.365151 5.565092 9
8.616282 -51.355696 5.599823 9
5.952812 -51.384763 5.622171 9
3.295544 -51.360056 5.672409 9
0.640353 -51.327294 5.730599 9
-2.014519 -51.317540 5.783179 9
-4.668538 -51.314681 5.837188 9
-7.322071 -51.323819 5.890396 9
-9.975243 -51.306618 5.959581 9
-12.629004 -51.303382 6.027130 9
-15.284498 -51.261718 6.116000 9
-17.941507 -51.245134 6.198400 9
-20.599762 -51.253985 6.274173 9
-23.261957 -51.230577 6.368646 9
-25.927517 -51.209116 6.466846 9
-28.596068 -51.201312 6.563648 9
-31.272005 -51.155247 6.681918 9
-33.945685 -51.193295 6.767823 9
-36.631853 -51.152652 6.893080 9
-39.314189 -51.203054 6.982908 9
-42.008132 -51.201809 7.100270 9
-44.740595 -50.965769 7.326282 9
-47.513136 -50.539216 7.641729 9
-50.397031 -49.508356 8.230404 9
-53.419086 -47.831767 9.111728 9
-56.596757 -45.531459 10.277100 9
-59.804386 -43.385743 11.381416 9
-63.140221 -40.880134 12.653830 9
-67.471355 -33.940199 15.913091 8
-70.461975 -33.813702 16.142274 8
-73.462654 -33.711408 16.366430 8
-76.474228 -33.629461 16.587317 8
-79.557645 -33.327434 16.912885 8
-82.626302 -33.163125 17.182849 8
-85.721818 -32.971603 17.471269 8
-88.823252 -32.831734 17.742734 8
-91.961235 -32.637465 18.045145 8
-95.139285 -32.385911 18.380042 8
-98.310231 -32.232863 18.677036 8
-101.517124 -32.041006 18.998379 8
-104.816612 -31.651747 19.416478 8
-109.044168 -28.733541 20.995353 8
120.054911 -18.715214 25.772062 6
109.275233 -35.250715 18.063154 5
105.413144 -36.579375 17.308854 5
102.114040 -36.690292 17.116819 5
98.853947 -36.773092 16.944161 5
95.627678 -36.836072 16.786965 5
92.404114 -36.957051 16.609796 5
89.229980 -37.012000 16.468857 5
86.079347 -37.064849 16.335019 5
82.945113 -37.133568 16.200064 5
79.855200 -37.133465 16.102220 5
76.777367 -37.154985 16.000477 5
73.668148 -37.338061 15.831608 5
70.633430 -37.344304 15.748365 5
67.607644 -37.378168 15.658337 5
63.990685 -39.608352 14.584152 9
60.291386 -42.391484 13.267510 9
56.710745 -45.006000 12.033428 9
54.731510 -41.342789 13.630741 9
50.001638 -49.202302 10.048715 9
46.969330 -50.240797 9.541668 9
44.114589 -50.598891 9.345854 9
41.317435 -50.761706 9.242915 9
38.567401 -50.747884 9.224361 9
35.817398 -50.785323 9.187727 9
33.089160 -50.751218 9.188161 9
30.355183 -50.801723 9.155488 9
27.635521 -50.814972 9.144426 9
24.927563 -50.797248 9.152131 9
22.229331 -50.751999 9.177036 9
19.529086 -50.768469 9.179042 9
16.836490 -50.767982 9.193475 9
14.152471 -50.729289 9.229873 9
11.472317 -50.687658 9.272389 9
8.792624 -50.680727 9.304102 9
6.115868 -50.678052 9.338685 9
3.441183 -50.688397 9.372194 9
0.770648 -50.659818 9.427997 9
-1.898032 -50.609446 9.498407 9
-4.568001 -50.626663 9.543191 9
-7.236431 -50.600378 9.612369 9
-9.905279 -50.614226 9.668280 9
-12.574520 -50.594922 9.743962 9
-15.245346 -50.561100 9.831049 9
-17.918495 -50.520848 9.925918 9
-20.595026 -50.466144 10.032223 9
-23.272589 -50.462161 10.120525 9
-25.953598 -50.452667 10.216252 9
-28.639434 -50.428353 10.323656 9
-31.331663 -50.382410 10.445872 9
-34.027746 -50.355325 10.564584 9
-36.731446 -50.310298 10.696524 9
-39.436319 -50.313670 10.811589 9
-42.157781 -50.233890 10.969634 9
-44.883527 -50.185668 11.118553 9
-47.726264 -49.392806 11.612469 9
-50.624245 -48.405735 12.201211 9
-53.719069 -46.418016 13.254002 9
-56.960006 -43.899695 14.557457 9
-60.275973 -41.322937 15.896226 9
-63.772713 -38.171227 17.507776 9
-68.307346 -30.458725 21.225930 8
-71.376995 -30.189182 21.533362 8
-74.480507 -29.855778 21.876738 8
-77.586801 -29.598134 22.191814 8
-80.712910 -29.342271 22.512744 8
-83.841622 -29.155784 22.808315 8
-87.001557 -28.929421 23.129172 8
-90.224968 -28.558292 23.524277 8
-93.482973 -28.158189 23.940179 8
-96.685581 -28.025440 24.238838 8
-100.026415 -27.531643 24.713405 8
-103.418588 -26.977771 25.224032 8
-108.206630 -22.467151 27.599450 8
107.557887 -32.652187 23.059189 5
103.910579 -33.455188 22.522930 5
100.558350 -33.639354 22.284868 5
97.257614 -33.766193 22.080824 5
93.959886 -33.955218 21.854671 5
90.720187 -34.060738 21.674491 5
87.475036 -34.249691 21.462104 5
84.285948 -34.350026 21.297793 5
81.104740 -34.494136 21.119635 5
77.958041 -34.601635 20.965033 5
74.833709 -34.704855 20.818813 5
71.756174 -34.719328 20.720172 5
68.681739 -34.783187 20.604753 5
65.489176 -35.335828 20.268445 9
61.427190 -39.250637 18.377746 9
57.686513 -42.305279 16.894030 9
54.009324 -45.431620 15.384274 9
50.633421 -47.618267 14.317074 9
47.513139 -48.927397 13.662858 9
44.595390 -49.470285 13.369477 9
41.786580 -49.584446 13.280201 9
39.015514 -49.567219 13.257162 9
36.248896 -49.576751 13.227086 9
33.491807 -49.584577 13.203121 9
30.741243 -49.605576 13.178355 9
27.996615 -49.642633 13.151427 9
25.263324 -49.655933 13.140734 9
22.539248 -49.651756 13.143349 9
19.825202 -49.613449 13.166957 9
17.116564 -49.569278 13.198471 9
14.403232 -49.617645 13.192346 9
11.700755 -49.602821 13.220628 9
9.000765 -49.603415 13.246937 9
6.305811 -49.578505 13.290211 9
3.611476 -49.585806 13.323726 9
0.920775 -49.565906 13.374998 9
-1.768116 -49.532245 13.437814 9
-4.456754 -49.511674 13.499737 9
-7.144952 -49.477132 13.573323 9
-9.833746 -49.484438 13.632683 9
-12.523161 -49.447498 13.717787 9
-15.214161 -49.414784 13.806161 9
-17.908773 -49.332517 13.922832 9
-20.602545 -49.361773 13.992906 9
-23.303027 -49.296843 14.112105 9
-26.005831 -49.265864 14.220829 9
-28.716324 -49.187078 14.357214 9
-31.429332 -49.148076 14.480452 9
-34.151446 -49.070468 14.627166 9
-36.879843 -48.998667 14.776673 9
-39.615029 -48.931573 14.929524 9
-42.353408 -48.901377 15.070669 9
-45.117722 -48.735559 15.281057 9
-47.969001 -48.049548 15.741623 9
-50.948847 -46.687813 16.526450 9
-54.170930 -44.104562 17.893838 9
-57.525267 -41.142687 19.448695 9
-61.033495 -37.757212 21.213201 9
-64.890893 -33.043772 23.616025 9
-69.826443 -23.749954 28.200040 8
-72.945705 -23.631288 28.452893 8
-76.079124 -23.521338 28.708494 8
-79.230453 -23.406505 28.973384 8
-82.410334 -23.248507 29.265910 8
-85.601821 -23.119430 29.551877 8
-88.818241 -22.970428 29.854674 8
-92.060179 -22.804543 30.173006 8
-95.324709 -22.636171 30.500130 8
-98.885612 -21.586788 31.258379 8
-102.632033 -20.097097 32.238113 8
107.203623 -26.677547 29.779571 5
103.333155 -27.905894 29.014606 5
99.857605 -28.270995 28.675556 5
96.443296 -28.562318 28.380021 5
93.068150 -28.829718 28.103727 5
89.750366 -29.017452 27.873336 5
86.429573 -29.288722 27.610152 5
83.120712 -29.604959 27.332703 5
79.902069 -29.726755 27.155827 5
76.696921 -29.875302 26.973121 5
73.492930 -30.091812 26.764778 5
70.309710 -30.313852 26.560675 5
67.173752 -30.444309 26.407189 5
63.525507 -32.556675 25.312752 9
59.111217 -37.891961 22.685949 9
55.147724 -41.930916 20.687419 9
51.498249 -45.067717 19.127658 9
48.227361 -46.876543 18.208940 9
45.214375 -47.715214 17.759585 9
42.385492 -47.788318 17.681395 9
39.580719 -47.798065 17.639237 9
36.784869 -47.813731 17.600035 9
33.997314 -47.836561 17.563163 9
31.215715 -47.878923 17.522697 9
28.444505 -47.911203 17.492715 9
25.686776 -47.904413 17.486994 9
22.931782 -47.928576 17.472161 9
20.189173 -47.904617 17.485853 9
17.448283 -47.913193 17.489642 9
14.711125 -47.938164 17.491198 9
11.983533 -47.910550 17.523368 9
9.259126 -47.886157 17.559565 9
6.536864 -47.874173 17.595404 9
3.817026 -47.866447 17.634766 9
1.099657 -47.852388 17.682699 9
-1.615975 -47.831663 17.739369 9
-4.330188 -47.784717 17.814119 9
-7.044763 -47.746518 17.890278 9
-9.759978 -47.725712 17.963723 9
-12.476304 -47.670244 18.059339 9
-15.194441 -47.627728 18.154399 9
-17.915826 -47.554849 18.269645 9
-20.640457 -47.488761 18.387337 9
-23.370372 -47.396032 18.523520 9
-26.103700 -47.329756 18.652790 9
-28.839428 -47.300119 18.770259 9
-31.578945 -47.283024 18.887499 9
-34.333621 -47.158013 19.062462 9
-37.089513 -47.098128 19.212038 9
-39.856370 -47.004912 19.383626 9
-42.633247 -46.899065 19.567343 9
-45.456323 -46.520764 19.888738 9
-48.367899 -45.644281 20.457461 9
-51.468460 -43.734849 21.533325 9
-54.844946 -40.476263 23.271570 9
-58.531134 -35.928180 25.645981 9
-62.989392 -27.872479 29.737266 9
57.182536 -34.843189 27.891271 9
52.798336 -40.707082 24.937671 9
49.239302 -43.532892 23.485560 9
46.096777 -44.757777 22.827008 9
43.142885 -45.241098 22.539157 9
40.288824 -45.315073 22.458541 9
37.456669 -45.332084 22.412104 9
34.632863 -45.357070 22.367949 9
31.816220 -45.395238 22.323487 9
29.017655 -45.372312 22.315091 9
26.218691 -45.403079 22.286471 9
23.431960 -45.397729 22.281614 9
20.650992 -45.396563 22.280747 9
17.878540 -45.369658 22.298516 9
15.108466 -45.366331 22.310740 9
12.345814 -45.329848 22.345207 9
9.583104 -45.338197 22.363688 9
6.826711 -45.306066 22.407993 9
4.072991 -45.266815 22.461772 9
1.319673 -45.254577 22.508283 9
-1.429795 -45.174297 22.594168 9
-4.180430 -45.128449 22.669160 9
-6.931168 -45.073245 22.754759 9
-9.682886 -45.026552 22.842204 9
-12.435983 -44.975406 22.937881 9
-15.191769 -44.887826 23.057548 9
-17.950469 -44.813457 23.176822 9
-20.712590 -44.743152 23.300224 9
-23.479763 -44.653324 23.439410 9
-26.251761 -44.566867 23.583139 9
-29.031123 -44.454856 23.745730 9
-31.814572 -44.373752 23.899351 9
-34.605283 -44.285066 24.063046 9
-37.404927 -44.180589 24.240939 9
-40.231074 -43.916070 24.504607 9
-43.038011 -43.903078 24.650135 9
-45.936018 -43.273453 25.108444 9
-49.003676 -41.629517 26.078436 9
-52.328824 -38.624200 27.734868 9
-56.433214 -31.415183 31.497570 9
57.181153 -23.391033 37.460290 9
51.111461 -36.425732 30.798121 9
47.454307 -39.630574 29.113357 9
44.293667 -40.803189 28.462692 9
41.338733 -41.099848 28.261259 9
38.447768 -41.137148 28.197480 9
35.559959 -41.216556 28.119171 9
32.681195 -41.306026 28.042460 9
35.598918 -2.861003 47.394515 9
26.978874 -41.305315 27.999427 9
24.139735 -41.296831 27.991849 9
21.303493 -41.317524 27.976096 9
18.472406 -41.349572 27.961128 9
15.651650 -41.337200 27.975029 9
12.838472 -41.289195 28.013361 9
10.023313 -41.309237 28.023863 9
7.215387 -41.280202 28.065555 9
4.411650 -41.218911 28.129968 9
1.609276 -41.153425 28.202962 9
-1.190632 -41.029971 28.311679 9
-3.992446 -40.934458 28.412795 9
-6.795352 -40.827134 28.526383 9
-9.600231 -40.677878 28.667691 9
-12.408522 -40.539171 28.810242 9
-15.219856 -40.442694 28.938030 9
-18.036031 -40.301894 29.094855 9
-20.855298 -40.209448 29.233851 9
-23.683542 -40.030464 29.423377 9
-26.515174 -39.910331 29.589820 9
-29.356259 -39.746756 29.785088 9
-32.224560 -39.348168 30.106627 9
-35.096125 -39.058694 30.379797 9
-37.974371 -38.817724 30.635368 9
-40.869671 -38.526344 30.923743 9
-43.778019 -38.234459 31.219614 9
-46.840119 -36.910350 32.049998 9
-50.355972 -32.737527 34.345669 9
-54.566854 -24.771892 38.595480 9
50.163814 -28.305424 38.805745 9
46.424819 -31.639594 37.006635 9
43.345955 -32.007910 36.755016 9
40.316485 -32.208635 36.597845 9
37.329003 -32.249090 36.531167 9
34.356424 -32.260518 36.486839 9
31.388720 -32.298889 36.435812 9
28.440568 -32.261148 36.431441 9
25.492302 -32.275437 36.407304 9
22.555245 -32.255252 36.408183 9
19.617229 -32.297229 36.384004 9
16.691858 -32.275916 36.399721 9
13.771143 -32.253040 36.423346 9
10.853623 -32.239231 36.449363 9
7.939477 -32.227023 36.481628 9
5.028994 -32.201287 36.527976 9
2.123741 -32.103789 36.618602 9
-0.786020 -32.137098 36.648494 9
-3.691534 -32.078674 36.733037 9
-6.597463 -32.019542 36.825056 9
-9.504433 -31.966140 36.921222 9
-12.413024 -31.897513 37.032439 9
-15.323738 -31.843982 37.142979 9
-18.237757 -31.769204 37.271759 9
-21.153135 -31.753504 37.377022 9
-24.077507 -31.620674 37.550520 9
-27.002335 -31.580835 37.682894 9
-29.935392 -31.492933 37.847662 9
-32.876232 -31.388297 38.028574 9
-35.819090 -31.341183 38.186895 9
-38.776396 -31.219974 38.391451 9
-41.740440 -31.118229 38.593418 9
-44.725587 -30.921197 38.852992 9
-48.089914 -28.021487 40.538964 9
41.670364 -26.175266 43.755292 9
38.495416 -26.860759 43.337032 9
35.364630 -27.425132 42.991387 9
32.282817 -27.806000 42.751422 9
29.248223 -27.968750 42.635417 9
26.227370 -28.111347 42.537897 9
23.221968 -28.208617 42.472211 9
20.231505 -28.245995 42.446068 9
17.251324 -28.244976 42.447998 9
14.275738 -28.249423 42.454642 9
11.317075 -28.093025 42.554497 9
8.359370 -27.930309 42.665337 9
5.405496 -27.695028 42.822442 9
2.459524 -27.231740 43.108634 9
-0.489586 -26.633333 43.474563 9
-3.447091 -25.915144 43.912176 9
-148.047749 -10.862028 -27.949473 7
-147.125325 -16.342975 -25.149421 7
-143.301500 -18.699628 -25.392851 7
-147.581300 2.781820 -29.856526 7
-143.924396 0.389340 -29.984598 7
-140.480004 -2.211044 -29.908849 7
-137.299744 -5.091805 -29.563976 7
-134.529176 -8.436628 -28.778283 7
-132.443692 -12.594354 -27.226281 7
-131.062025 -17.644928 -24.852784 7
-147.050922 10.089876 -28.202886 7
-142.908320 8.213389 -28.858329 7
-138.957715 6.180789 -29.344968 7
-135.133561 4.048551 -29.725864 7
-131.486422 1.752499 -29.939658 7
-128.019995 -0.724961 -29.973983 7
-124.729405 -3.392754 -29.825562 7
-121.793297 -6.474880 -29.279687 7
-119.271462 -10.073900 -28.247936 7
-109.152437 -4.391476 -36.208066 8
-104.749884 -5.492972 -37.539930 8
-101.885478 -8.505826 -37.044185 8
-99.441433 -12.098518 -36.022057 8
-97.652013 -16.631486 -34.152541 8
-147.779719 16.104621 -25.284491 7
-143.343633 14.497572 -26.253009 7
-139.031238 12.822826 -27.133900 7
-134.870236 11.044047 -27.891917 7
-130.838298 9.174922 -28.545505 7
-126.914365 7.229522 -29.112801 7
-123.140552 5.153248 -29.540795 7
-119.491833 2.963182 -29.851347 7
-115.609908 1.068178 -30.460100 8
-106.601110 5.349062 -37.227277 8
-102.860438 3.503551 -37.820824 8
-99.510728 1.199726 -37.962712 8
-96.298205 -1.271374 -37.948304 8
-93.218749 -3.917995 -37.774482 8
-90.305830 -6.799585 -37.389479 8
-87.667782 -10.085004 -36.640094 8
-85.454582 -14.018940 -35.307686 8
-84.187582 -19.412283 -32.656234 8
-148.596885 22.026286 -22.308813 7
-143.837381 20.699573 -23.626463 7
-139.163554 19.360879 -24.906799 7
-135.755762 16.812823 -24.843163 7
-131.428853 15.226871 -25.825213 7
-127.200874 13.592206 -26.739995 7
-123.108402 11.862882 -27.541285 7
-119.129022 10.054389 -28.249188 7
-116.552943 6.688044 -27.327879 8
-106.278805 12.275090 -35.661012 8
-102.356154 10.667103 -36.496128 8
-98.761918 8.701749 -36.961215 8
-95.212332 6.706721 -37.395547 8
-91.777195 4.588212 -37.707345 8
-88.426998 2.374264 -37.928101 8
-85.211682 -0.011415 -37.986462 8
-82.099829 -2.539601 -37.915629 8
-79.153108 -5.310152 -37.624060 8
-76.394295 -8.376033 -37.068038 8
-73.950342 -11.951336 -36.053961 8
-72.020634 -16.383529 -34.270921 8
-55.808293 -12.998983 -44.319039 9
-50.540108 -11.724485 -47.708402 9
-46.888512 -13.104149 -48.685567 9
-44.098769 -16.001693 -48.318044 9
-41.999844 -20.231088 -46.804439 9
-40.907567 -26.514305 -43.548450 9
-146.482005 24.861982 -18.709722 7
-141.506465 23.733073 -20.298032 7
-136.685042 22.535677 -21.778285 7
-132.042322 21.236286 -23.116857 7
-127.504152 19.900511 -24.391293 7
-124.081535 17.452756 -24.423979 7
-119.834926 15.910538 -25.443856 7
-116.557079 13.348266 -25.351117 8
-106.984882 17.954074 -32.902506 8
-102.754858 16.687933 -34.118639 8
-98.931872 14.998604 -34.875431 8
-95.176931 13.266888 -35.580641 8
-91.508122 11.464746 -36.207484 8
-87.918308 9.594010 -36.760527 8
-84.412767 7.640591 -37.228155 8
-81.000279 5.584487 -37.593296 8
-77.682229 3.414212 -37.847939 8
-74.455878 1.123316 -37.989319 8
-71.356729 -1.350918 -37.960207 8
-68.372785 -4.006116 -37.768057 8
-61.962975 -1.395558 -42.607693 9
-57.014814 -0.835508 -45.435684 9
-52.081695 -0.147428 -48.344650 9
-47.952492 -0.644848 -50.114231 9
-44.558045 -2.313191 -50.788261 9
-41.619110 -4.761468 -50.752344 9
-38.844865 -7.529578 -50.441252 9
-36.209288 -10.597338 -49.880878 9
-33.731737 -14.028744 -49.021609 9
-31.507141 -18.044593 -47.677746 9
-29.739827 -23.115200 -45.452629 9
-144.821968 27.270648 -14.621012 7
-139.675074 26.285010 -16.433463 7
-134.641023 25.280228 -18.187364 7
-129.840790 24.129204 -19.739433 7
-125.107150 22.989466 -21.275183 7
-120.536417 21.756611 -22.678409 7
-117.377214 19.069384 -22.439563 7
-110.113163 20.932394 -27.220648 8
-103.785828 21.956119 -30.997569 8
-99.778801 20.457594 -31.982409 8
-95.832648 18.938177 -32.931511 8
-91.983174 17.349957 -33.795666 8
-88.214169 15.705636 -34.591132 8
-84.524253 14.000439 -35.315395 8
-80.915090 12.225336 -35.961664 8
-77.371679 10.393224 -36.545778 8
-73.918145 8.464219 -37.029662 8
-70.532120 6.460840 -37.439141 8
-67.238911 4.338487 -37.732523 8
-61.174503 6.395487 -42.138852 9
-55.915051 7.443464 -45.492673 9
-51.155708 7.876518 -48.202955 9
-47.166928 7.196807 -49.810951 9
-43.723623 5.683852 -50.611479 9
-40.610931 3.634425 -50.905331 9
-37.629502 1.354182 -50.991097 9
-34.702079 -1.037087 -50.985382 9
-31.835538 -3.562939 -50.869606 9
-29.042596 -6.260722 -50.613376 9
-26.346281 -9.192492 -50.165211 9
-23.794528 -12.478674 -49.423498 9
-21.390288 -16.158790 -48.361710 9
-19.303985 -20.642758 -46.630148 9
-18.093894 -27.268478 -43.086267 9
-143.771470 29.112964 -9.835262 7
-138.285296 28.415561 -12.062680 7
-133.076144 27.554878 -14.050074 7
-128.057987 26.600270 -15.887005 7
-123.209573 25.562270 -17.590979 7
-118.450773 24.515021 -19.251950 7
-114.341859 22.849166 -20.177961 8
-106.387871 25.489529 -25.943237 8
-101.928838 24.430457 -27.469368 8
-97.575576 23.324645 -28.918392 8
-93.059816 22.485308 -30.635846 8
-89.114346 21.033041 -31.661374 8
-85.259162 19.519516 -32.607523 8
-81.494468 17.937228 -33.469087 8
-77.784380 16.325863 -34.290764 8
-74.143596 14.661002 -35.048702 8
-70.586554 12.916190 -35.717848 8
-67.102205 11.098811 -36.308729 8
-61.018492 13.121782 -40.792729 9
-55.905090 13.916172 -43.968963 9
-51.159470 14.306714 -46.694617 9
-47.081258 13.777756 -48.473416 9
-43.581224 12.393378 -49.393988 9
-40.369718 10.564822 -49.878343 9
-37.225132 8.635257 -50.268165 9
-34.152781 6.584978 -50.547725 9
-31.096833 4.504365 -50.805698 9
-28.116132 2.278517 -50.935774 9
-25.181339 -0.049790 -50.981496 9
-22.299352 -2.504710 -50.923464 9
-19.486004 -5.131578 -50.723718 9
-16.756040 -7.978799 -50.342915 9
-14.088250 -11.021408 -49.808760 9
-11.601740 -14.549598 -48.868741 9
-9.305047 -18.632142 -47.473786 9
-7.493173 -24.042206 -44.963298 9
-143.338766 30.387743 -4.298235 7
-137.645938 29.835473 -6.791606 7
-132.001797 29.353063 -9.316522 7
-126.735802 28.611324 -11.476844 7
-121.732357 27.704027 -13.396203 7
-117.378086 26.207853 -14.584179 7
-109.178442 28.916588 -20.651364 8
-103.840266 28.737985 -23.267217 8
-99.534312 27.513673 -24.639605 8
-95.418517 26.136887 -25.816254 8
-91.244334 24.889021 -27.118560 8
-87.166456 23.588135 -28.341643 8
-82.727759 22.800694 -30.110248 8
-78.762791 21.489754 -31.281606 8
-74.947886 20.038107 -32.285558 8
-71.242475 18.486928 -33.171283 8
-67.601718 16.888294 -33.997639 8
-63.063141 16.612810 -36.201294 9
-56.794378 18.989264 -41.121885 9
-51.751307 19.769969 -44.320750 9
-47.536860 19.430376 -46.329514 9
-43.902487 18.267348 -47.480528 9
-40.563815 16.673617 -48.190029 9
-37.342443 14.910677 -48.729368 9
-34.142981 13.127596 -49.249867 9
-30.965725 11.320523 -49.748760 9
-27.867301 9.381604 -50.123185 9
-24.799631 7.388570 -50.451179 9
-21.775385 5.310413 -50.705135 9
-18.788795 3.149597 -50.889840 9
-15.846413 0.883576 -50.986693 9
-12.951386 -1.505538 -50.982074 9
-10.123277 -4.074033 -50.827813 9
-7.346811 -6.805583 -50.543217 9
-4.667603 -9.825305 -50.020069 9
-2.058583 -13.097161 -49.297338 9
0.359709 -16.953745 -48.087765 9
2.496270 -21.697676 -46.140440 9
3.592410 -29.496329 -41.598202 9
-144.206133 30.471015 2.839143 7
-137.751805 30.557341 -0.569567 7
-131.695771 30.409559 -3.612239 7
-126.088801 29.952695 -6.209016 7
-120.673832 29.420004 -8.658909 7
-116.159391 28.057753 -10.058502 8
-106.619718 32.168611 -17.960660 8
-101.861525 31.356224 -19.889385 8
-97.401790 30.298513 -21.495020 8
-93.149834 29.077701 -22.883025 8
-88.931782 27.884658 -24.279097 8
-84.895129 26.538228 -25.478080 8
-80.842327 25.270973 -26.747461 8
-76.982048 23.817788 -27.790901 8
-72.668292 23.014736 -29.536140 8
-68.591238 21.975041 -30.996296 8
-64.136881 21.531842 -33.079927 9
-59.319020 21.711157 -35.797562 9
-53.162139 23.995673 -40.703062 9
-48.387402 24.441441 -43.594392 9
-44.578393 23.533178 -45.032103 9
-41.132254 22.114459 -45.926147 9
-37.797384 20.552223 -46.666582 9
-34.505919 18.946717 -47.359479 9
-31.274922 17.262547 -47.971107 9
-28.061671 15.567527 -48.571492 9
-24.911108 13.775979 -49.077064 9
-21.777097 11.965261 -49.566300 9
-18.688223 10.075972 -49.982694 9
-15.640692 8.106894 -50.327505 9
-12.612208 6.095609 -50.638816 9
-9.649113 3.936702 -50.818827 9
-6.715793 1.693696 -50.930782 9
-3.813988 -0.646947 -50.964504 9
-0.952312 -3.116789 -50.893696 9
1.846537 -5.786353 -50.657645 9
4.595366 -8.645077 -50.270814 9
7.240073 -11.857883 -49.590656 9
9.774668 -15.481592 -48.575313 9
12.111614 -19.814268 -46.973036 9
13.961863 -25.800334 -43.979373 9
-234.444730 144.345600 -28.790715 0
-229.498320 141.910930 -29.408099 0
-225.630617 139.127780 -29.218980 0
-221.900555 136.326105 -28.952602 0
-148.328478 27.576603 14.021220 7
-139.627221 29.621460 7.908833 7
-132.481580 30.418500 3.522994 7
-126.182955 30.565064 0.053499 7
-120.356993 30.384593 -2.933345 7
-114.561890 30.307312 -5.984556 8
-104.825573 34.597174 -14.305743 8
-100.140300 33.690504 -16.175682 8
-95.575274 32.736720 -17.953042 8
-91.190831 31.658302 -19.549462 8
-86.898479 30.546966 -21.078459 8
-82.636352 29.472225 -22.623238 8
-78.629644 28.151421 -23.859227 8
-74.594635 26.926698 -25.185145 8
-70.676419 25.611231 -26.388491 8
-65.557093 25.984039 -29.457030 9
-60.605427 26.271766 -32.378936 9
-55.732023 26.590188 -35.285383 9
-50.234842 27.971054 -39.294803 9
-45.587620 28.266704 -42.071680 9
-41.987590 27.070890 -43.219150 9
-38.562879 25.647430 -44.113987 9
-35.220616 24.127146 -44.900126 9
-31.882075 22.633014 -45.708122 9
-28.607693 21.059784 -46.430036 9
-25.355569 19.473776 -47.135963 9
-22.156815 17.814249 -47.765713 9
-18.968422 16.154834 -48.395164 9
-15.835113 14.405592 -48.935980 9
-12.748541 12.573207 -49.397549 9
-9.665039 10.739833 -49.862123 9
-6.641064 8.781277 -50.210759 9
-3.626882 6.795124 -50.539970 9
-0.649299 4.714986 -50.788110 9
2.279445 2.500275 -50.919870 9
5.182598 0.193313 -50.978105 9
8.054358 -2.231972 -50.941346 9
10.876701 -4.838058 -50.755759 9
13.645542 -7.657888 -50.396121 9
16.361240 -10.716217 -49.845493 9
18.980751 -14.171927 -48.968630 9
21.471729 -18.176247 -47.641855 9
23.665382 -23.352100 -45.334841 9
-234.917012 146.399007 -23.202296 0
-223.601526 146.218242 -28.951460 0
-219.660361 143.497891 -28.880250 0
-215.907758 140.742996 -28.689690 0
-212.209485 138.000150 -28.486051 0
-137.111815 26.732719 15.647039 7
-127.961640 29.520770 8.578931 7
-121.042946 30.338841 4.181615 7
-112.773072 32.758251 -2.143772 8
-106.161846 33.674920 -6.456545 8
-98.792312 35.615389 -11.945553 8
-94.058301 34.826043 -13.980989 8
-89.562006 33.856431 -15.758325 8
-85.048149 32.991417 -17.627524 8
-80.805456 31.883412 -19.173920 8
-76.577132 30.830772 -20.758227 8
-72.466592 29.701611 -22.226470 8
-68.487993 28.467632 -23.550027 8
-62.326571 30.261268 -28.304542 9
-57.306698 30.690484 -31.432133 9
-52.430912 31.064530 -34.443940 9
-48.183689 30.658590 -36.541136 9
-43.659762 30.774445 -39.177750 9
-39.760443 30.046328 -40.855327 9
-36.187067 28.875762 -42.033315 9
-32.777984 27.487747 -42.965953 9
-29.432977 26.030967 -43.817516 9
-26.104862 24.579784 -44.668478 9
-22.823450 23.078772 -45.461847 9
-19.584168 21.529773 -46.201531 9
-16.386328 19.927625 -46.884184 9
-13.200229 18.324271 -47.564177 9
-10.053075 16.662091 -48.184452 9
-6.944748 14.933719 -48.739780 9
-3.861048 13.161829 -49.254612 9
-0.804916 11.333696 -49.718122 9
2.215909 9.423760 -50.107523 9
5.207592 7.436733 -50.429772 9
8.169903 5.362244 -50.677337 9
11.119209 3.231911 -50.882375 9
14.025332 0.956479 -50.963536 9
16.920956 -1.390252 -50.992663 9
19.770435 -3.922133 -50.867684 9
22.565256 -6.688971 -50.548149 9
25.321841 -9.669197 -50.059169 9
28.010483 -12.989850 -49.292856 9
30.608121 -16.777386 -48.145708 9
33.014941 -21.460031 -46.254198 9
34.742480 -29.030229 -41.912350 9
-239.957692 146.915884 -13.843882 0
-230.340522 145.982917 -18.267053 0
-219.253287 145.768979 -24.055766 0
-210.128183 145.026765 -28.376589 0
-206.469407 142.305454 -28.196386 0
-202.878015 139.589146 -27.989079 0
-199.319233 136.889834 -27.782804 0
-126.481718 25.489908 17.742411 7
-117.357378 28.578289 10.283788 7
-103.140076 37.423332 -4.377400 8
-97.923746 37.016950 -7.017400 8
-92.961092 36.444211 -9.394339 8
-88.207873 35.737845 -11.557645 8
-83.599925 34.958614 -13.589051 8
-79.185501 34.037501 -15.409432 8
-74.776635 33.194289 -17.289773 8
-70.629554 32.101975 -18.839971 8
-64.626718 33.536038 -23.337463 9
-59.400571 34.126424 -26.767416 9
-54.271575 34.744160 -30.166807 9
-49.620349 34.838942 -32.908097 9
-45.591292 34.146893 -34.712205 9
-42.008713 32.862254 -35.824265 9
-38.313065 31.805052 -37.174680 9
-34.504363 30.992840 -38.776380 9
-30.703887 30.243567 -40.424415 9
-27.107016 29.226014 -41.760590 9
-23.738074 27.869553 -42.718547 9
-20.421087 26.459282 -43.611038 9
-17.161807 24.977140 -44.421358 9
-13.903643 23.523424 -45.256428 9
-10.709839 21.972784 -45.986935 9
-7.516917 20.444349 -46.737703 9
-4.372168 18.837790 -47.407189 9
-1.265372 17.165683 -48.010628 9
1.819234 15.455291 -48.577318 9
4.891220 13.723407 -49.125221 9
7.917785 11.885838 -49.573207 9
10.930745 10.009856 -49.989423 9
13.918605 8.059339 -50.340604 9
16.888718 6.044247 -50.638422 9
19.829076 3.921321 -50.844103 9
22.743180 1.686356 -50.956686 9
25.639028 -0.651301 -50.987816 9
28.505812 -3.140885 -50.895104 9
31.345489 -5.797181 -50.668984 9
34.138946 -8.711474 -50.231431 9
36.899665 -11.871694 -49.599447 9
39.576851 -15.511887 -48.571893 9
42.135424 -19.849939 -46.968966 9
44.238799 -26.447375 -43.449914 9
-236.754634 145.973595 -7.584523 0
-224.577434 145.987711 -14.342193 0
-213.543734 145.819597 -20.324560 0
-201.175518 146.389150 -27.643888 0
-197.374580 143.789366 -27.672455 0
-193.848871 141.112927 -27.491382 0
-190.348980 138.455400 -27.315651 0
-103.362267 37.709422 2.167805 8
-97.698219 37.719411 -1.114379 8
-92.385683 37.479053 -4.005914 8
-87.307918 37.096762 -6.657291 8
-82.459504 36.561991 -9.063452 8
-77.855255 35.839172 -11.188487 8
-73.349011 35.091139 -13.241659 8
-68.984422 34.255467 -15.149813 8
-61.989312 36.986793 -21.316018 9
-56.589487 37.836731 -25.121470 9
-51.542744 38.372287 -28.485259 9
-47.157136 38.117053 -30.864480 9
-43.381460 37.072555 -32.290232 9
-39.812379 35.779607 -33.410037 9
-36.253565 34.521039 -34.553946 9
-32.793168 33.155093 -35.562503 9
-29.228786 32.006095 -36.800799 9
-25.486705 31.217893 -38.421238 9
-21.769227 30.463879 -40.056951 9
-18.167980 29.577086 -41.527352 9
-14.855024 28.218071 -42.473829 9
-11.587359 26.809686 -43.360054 9
-8.339585 25.395752 -44.234186 9
-5.144099 23.906449 -45.024245 9
-1.955380 22.429472 -45.823478 9
1.184123 20.870005 -46.535079 9
4.305937 19.289618 -47.224262 9
7.394673 17.647552 -47.851129 9
10.452182 15.939657 -48.413672 9
13.503843 14.221638 -48.969018 9
16.527312 12.431221 -49.456939 9
19.528055 10.573193 -49.884336 9
22.518924 8.674651 -50.279321 9
25.469003 6.636298 -50.548739 9
28.407943 4.531260 -50.765404 9
31.336209 2.350859 -50.923125 9
34.248068 0.063884 -50.995082 9
37.130730 -2.391815 -50.927013 9
39.995246 -5.000720 -50.737327 9
42.833358 -7.819806 -50.378438 9
45.534274 -11.344521 -49.412277 9
48.023746 -16.019762 -47.461077 9
50.149477 -22.755130 -43.752223 9
-230.901124 145.946973 -3.536337 0
-218.966140 145.943835 -10.352295 0
-207.795394 145.893331 -16.697192 0
-197.281416 145.812454 -22.645959 0
-188.496679 145.242645 -27.211890 0
-185.067681 142.591403 -27.025400 0
-181.640612 139.967615 -26.864017 0
-178.274048 137.344929 -26.672767 0
-98.716249 37.071388 6.694181 8
-92.576842 37.659136 2.595553 8
-87.053043 37.715463 -0.726301 8
-81.850188 37.538343 -3.679094 8
-76.916371 37.165579 -6.323076 8
-72.204741 36.634030 -8.714783 8
-65.489707 38.788230 -14.398628 9
-59.641895 40.054318 -18.876749 9
-54.096005 41.116273 -23.019255 9
-49.210208 41.447914 -26.202313 9
-45.064737 40.863392 -28.233228 9
-41.305470 39.801625 -29.665312 9
-37.655756 38.638540 -30.956519 9
-34.154959 37.300209 -32.025770 9
-30.636813 36.037076 -33.167328 9
-27.130050 34.805637 -34.330119 9
-23.721069 33.457704 -35.347193 9
-20.301553 32.171823 -36.422173 9
-16.640660 31.373947 -38.024206 9
-13.004661 30.605924 -39.637704 9
-9.406986 29.841260 -41.233999 9
-6.102382 28.563487 -42.259449 9
-2.872764 27.171681 -43.154710 9
0.329129 25.753543 -44.016204 9
3.505779 24.309638 -44.845862 9
6.640806 22.797145 -45.600667 9
9.755526 21.257499 -46.325560 9
12.844555 19.672239 -47.003025 9
15.917060 18.057805 -47.651327 9
18.968704 16.397180 -48.254713 9
22.000744 14.686386 -48.810898 9
25.014274 12.920514 -49.316786 9
28.008895 11.089499 -49.764408 9
30.989356 9.198060 -50.160331 9
33.947447 7.209092 -50.471014 9
36.896800 5.154544 -50.729433 9
39.831123 3.000464 -50.905668 9
42.738450 0.684588 -50.944586 9
45.563551 -2.042281 -50.620895 9
48.266992 -5.416489 -49.729039 9
50.813494 -9.708538 -48.039958 9
53.143512 -15.367257 -45.172989 9
53.786026 -30.101671 -34.307622 9
-225.549799 145.746297 0.892408 0
-210.401796 147.011262 -9.072818 0
-201.312261 146.261691 -13.808939 0
-191.787128 145.863778 -19.095533 0
-180.281713 146.479153 -26.388682 0
-176.539280 144.020441 -26.573184 0
-173.219901 141.412566 -26.388545 0
-169.910504 138.826299 -26.219093 0
-166.801559 136.171396 -25.878108 0
-94.909358 35.449393 12.551709 8
-87.911001 37.058899 7.015511 8
-82.009778 37.608554 2.989006 8
-76.612514 37.721579 -0.385865 8
-71.556222 37.557900 -3.335779 8
-63.670474 41.165478 -11.019747 9
-57.483805 42.871587 -16.155514 9
-51.786538 44.146221 -20.652026 9
-47.187164 44.091234 -23.422470 9
-43.149344 43.355440 -25.310934 9
-39.398531 42.280912 -26.757421 9
-35.674982 41.230593 -28.209474 9
-32.105957 40.003230 -29.429148 9
-28.522811 38.853209 -30.721898 9
-25.061941 37.556809 -31.826351 9
-21.598219 36.313354 -32.977531 9
-18.177456 35.043809 -34.084552 9
-14.806341 33.730759 -35.129464 9
-11.446813 32.439641 -36.187552 9
-7.905820 31.548777 -37.677491 9
-4.338588 30.781651 -39.284465 9
-0.802663 30.027251 -40.885015 9
2.508005 28.862572 -42.024549 9
5.693291 27.464799 -42.905027 9
8.866111 26.068935 -43.782176 9
12.029402 24.680065 -44.661821 9
15.133242 23.171431 -45.412851 9
18.224964 21.650176 -46.149279 9
21.294843 20.086316 -46.841391 9
24.344934 18.478310 -47.489256 9
27.395576 16.878430 -48.146777 9
30.408900 15.169340 -48.697837 9
33.405805 13.401399 -49.195195 9
36.395222 11.594537 -49.660154 9
39.366703 9.704501 -50.051347 9
42.333023 7.764303 -50.402791 9
45.217362 5.465319 -50.423479 9
48.009847 2.707058 -50.028265 9
50.683685 -0.705683 -49.046945 9
53.241180 -4.878858 -47.397877 9
55.722570 -9.757012 -45.150247 9
57.849347 -16.924692 -40.883739 9
58.282219 -34.303996 -27.531026 9
-218.168244 146.293844 3.427296 0
-207.863650 145.830050 -2.434510 0
-194.067445 146.951590 -11.746666 0
-186.268039 145.934652 -15.630617 0
-176.617517 145.847054 -21.419267 0
-168.280296 145.390380 -26.104179 0
-165.010685 142.821161 -25.946460 0
-161.770063 140.264119 -25.783986 0
-158.577008 137.709016 -25.596888 0
-84.284639 35.184758 13.158843 8
-77.350743 37.014477 7.349701 8
-71.628442 37.582499 3.320982 8
-62.206569 43.085864 -7.038201 9
-55.550299 45.391822 -13.070592 9
-49.914644 46.580938 -17.559191 9
-45.423966 46.370713 -20.196294 9
-41.422407 45.575711 -22.054468 9
-37.644306 44.533467 -23.574332 9
-33.882945 43.534428 -25.121345 9
-30.215442 42.457649 -26.548888 9
-26.601881 41.357647 -27.926232 9
-23.053511 40.210316 -29.226719 9
-19.536220 39.067253 -30.513614 9
-16.124945 37.792094 -31.629174 9
-12.709602 36.572243 -32.794589 9
-9.356977 35.283279 -33.866938 9
-6.034734 33.979301 -34.910411 9
-2.738782 32.664595 -35.931046 9
0.729433 31.754608 -37.390507 9
4.225123 30.973718 -38.974203 9
7.683881 30.186981 -40.532190 9
11.010828 29.167471 -41.820864 9
14.181399 27.825390 -42.752058 9
17.322550 26.441821 -43.633454 9
20.438458 25.020419 -44.470648 9
23.519454 23.527687 -45.230440 9
26.595790 22.038804 -45.992767 9
29.647953 20.493903 -46.696882 9
32.681747 18.901341 -47.353230 9
35.704278 17.275531 -47.977972 9
38.711951 15.597332 -48.553380 9
41.705996 13.861305 -49.075867 9
44.657009 11.945750 -49.428537 9
47.500639 9.564620 -49.339715 9
50.247764 6.683986 -48.789102 9
52.915142 3.289989 -47.776364 9
55.525770 -0.603182 -46.327795 9
58.120295 -4.887188 -44.556852 9
60.629133 -10.011421 -42.057151 9
62.277692 -20.593709 -34.613737 9
-202.338968 145.773359 1.470636 0
-188.661815 146.936747 -8.064879 0
-180.248220 146.224320 -12.718221 0
-171.301108 145.909456 -18.045164 0
-160.659233 146.534516 -25.232388 0
-157.025697 144.185729 -25.513241 0
-153.861251 141.652100 -25.345834 0
-150.735116 139.123132 -25.160489 0
-147.622688 136.609388 -24.981543 0
-73.742499 35.058747 13.555851 8
-61.254219 44.348775 -2.145427 9
-53.957799 47.460801 -9.392654 9
-48.345597 48.603029 -13.927311 9
-43.904962 48.307314 -16.519257 9
-39.905090 47.492548 -18.399797 9
-36.004484 46.615156 -20.166788 9
-32.198372 45.672950 -21.821430 9
-28.475401 44.674290 -23.377905 9
-24.794496 43.677477 -24.910930 9
-21.203630 42.598671 -26.320099 9
-17.651717 41.515507 -27.702610 9
-14.139153 40.423814 -29.054721 9
-10.710275 39.237549 -30.276548 9
-7.297093 38.074503 -31.509466 9
-3.970770 36.793241 -32.590415 9
-0.651596 35.542119 -33.693662 9
2.639894 34.278167 -34.770353 9
5.878172 32.941186 -35.754152 9
9.225114 31.889989 -37.046635 9
12.668978 31.126720 -38.641972 9
16.069924 30.337740 -40.190176 9
19.402591 29.451639 -41.615733 9
22.532914 28.096259 -42.523991 9
25.647535 26.727140 -43.412596 9
28.743748 25.332238 -44.269827 9
31.817347 23.892981 -45.077597 9
34.858081 22.368491 -45.795462 9
37.905907 20.876442 -46.546619 9
40.921596 19.283271 -47.195217 9
43.909073 17.585529 -47.740964 9
46.811282 15.545657 -47.950528 9
49.625581 13.094588 -47.765185 9
52.349000 10.147475 -47.112984 9
55.031501 6.840836 -46.139268 9
57.704943 3.260515 -44.935745 9
60.378746 -0.598604 -43.504408 9
63.035883 -4.887421 -41.709681 9
65.113465 -13.029124 -36.359263 9
67.589163 -19.700638 -32.484581 5
70.493352 -24.298003 -30.603693 5
-195.993090 146.048672 4.518229 0
-185.916579 145.842980 -1.783963 0
-174.320717 146.494349 -9.805205 0
-166.087539 145.937417 -14.621680 0
-157.025365 145.925466 -20.443433 0
-149.251387 145.510226 -25.089728 0
-146.154833 143.001628 -24.921319 0
-143.076925 140.505929 -24.753514 0
-140.001340 138.030539 -24.603198 0
-61.869224 43.597395 5.564140 9
-52.857388 48.878311 -4.811162 9
-47.107395 50.173637 -9.667237 9
-42.618286 49.916718 -12.380827 9
-38.558085 49.161584 -14.391922 9
-34.558798 48.406119 -16.364384 9
-30.662397 47.581780 -18.212466 9
-26.832846 46.735322 -19.999456 9
-23.118834 45.781246 -21.620809 9
-19.485568 44.764299 -23.137300 9
-15.841534 43.834562 -24.736335 9
-13.585256 40.477346 -23.365844 9
-8.835656 41.673273 -27.497363 9
-5.384955 40.585468 -28.839630 9
-2.002201 39.422138 -30.074597 9
1.358981 38.267981 -31.304567 9
4.654805 37.027522 -32.419765 9
7.906506 35.735470 -33.463581 9
11.165143 34.500780 -34.561975 9
14.360997 33.160925 -35.531268 9
17.636648 32.054823 -36.752614 9
21.015000 31.267413 -38.313074 9
24.381820 30.528019 -39.907974 9
27.704243 29.747026 -41.439702 9
30.807553 28.403823 -42.351960 9
33.897511 27.048194 -43.246232 9
36.957124 25.621398 -44.061542 9
40.015076 24.206811 -44.887444 9
43.045818 22.713702 -45.630227 9
46.001177 20.948669 -46.094312 9
48.862560 18.792499 -46.166503 9
51.631754 16.184421 -45.796574 9
54.349651 13.221976 -45.094187 9
57.084217 10.154490 -44.315384 9
59.805786 6.815171 -43.299410 9
62.542412 3.296685 -42.143308 9
64.743610 -3.560629 -37.809085 5
67.749056 -6.347001 -37.453720 5
70.731872 -9.508084 -36.767908 5
73.686420 -13.186560 -35.627288 5
76.550788 -18.025041 -33.447373 5
79.398603 -23.749129 -30.509277 5
-180.548697 145.810412 1.917414 0
-167.986913 146.958798 -7.402242 0
-160.924965 145.952412 -11.192784 0
-151.968915 145.957178 -17.124838 0
-142.141471 146.576341 -24.173435 0
-138.624418 144.323492 -24.527160 0
-135.601278 141.856192 -24.366763 0
-132.598652 139.398756 -24.202319 0
-129.622604 136.946763 -24.025930 0
-52.392463 49.454157 0.996766 9
-46.224315 51.258864 -4.690182 9
-41.612358 51.129884 -7.656888 9
-37.411340 50.538347 -9.947732 9
-33.265374 49.967301 -12.220526 9
-29.285407 49.243315 -14.250303 9
-25.387432 48.480970 -16.192813 9
-21.561711 47.688521 -18.061729 9
-17.835552 46.812852 -19.792601 9
-14.175598 45.900322 -21.448017 9
-10.598509 44.913489 -22.984281 9
-7.035216 43.970536 -24.550296 9
-3.590897 42.869067 -25.899795 9
-0.136209 41.848238 -27.327139 9
3.262716 40.776367 -28.673639 9
6.586198 39.602297 -29.881669 9
9.893906 38.444766 -31.094329 9
13.150247 37.220262 -32.215232 9
16.377563 35.971860 -33.296754 9
19.581595 34.708304 -34.350332 9
22.755210 33.406368 -35.351014 9
25.946612 32.189555 -36.438348 9
29.290975 31.449848 -38.043287 9
32.589482 30.658971 -39.573840 9
35.881395 29.927780 -41.152571 9
38.983137 28.664604 -42.142723 9
42.052676 27.325310 -43.046001 9
45.061670 25.793725 -43.742564 9
47.974123 23.900447 -44.061250 9
50.803442 21.636197 -44.003040 9
53.558366 18.971506 -43.548273 9
56.303361 16.120572 -42.926139 9
59.069477 13.195186 -42.254514 9
61.746451 9.620630 -40.960752 9
64.469195 5.992036 -39.651857 9
67.173046 1.920471 -37.947028 5
70.221706 -0.398258 -37.995372 5
73.267089 -2.896723 -37.886558 5
76.304323 -5.664648 -37.539527 5
79.350628 -8.644082 -37.016161 5
82.376868 -12.178237 -35.999293 5
85.368521 -16.631200 -34.163554 5
88.268444 -23.082519 -30.534656 5
91.583960 -25.451069 -30.726422 5
-175.168179 145.792303 5.561629 0
-165.231695 145.879082 -1.276796 0
-155.928906 145.901467 -7.626904 0
-147.104411 145.908521 -13.638189 0
-138.706070 145.908136 -19.353148 0
-131.289730 145.606135 -24.131078 0
-128.324591 143.163449 -23.970595 0
-126.149640 140.318127 -22.913506 0
-45.970297 51.484011 1.572492 9
-41.117902 51.621006 -1.860558 9
-36.538310 51.514958 -4.891506 9
-32.218484 51.156264 -7.520694 9
-28.135103 50.551236 -9.769646 9
-24.052633 50.046528 -12.107521 9
-20.155520 49.343990 -14.143171 9
-16.376939 48.533103 -16.001809 9
-12.621021 47.767393 -17.885450 9
-8.966871 46.903896 -19.612911 9
-5.389405 45.975770 -21.230808 9
-1.868367 45.011997 -22.778750 9
1.649398 44.112461 -24.381871 9
5.041994 43.026019 -25.733551 9
8.436399 42.003612 -27.143698 9
11.777820 40.926100 -28.468922 9
15.059113 39.767122 -29.680900 9
18.328442 38.630926 -30.905240 9
21.555221 37.439923 -32.052046 9
24.765086 36.251795 -33.190126 9
27.912691 34.939266 -34.175319 9
31.051108 33.635264 -35.162090 9
34.177151 32.328643 -36.138350 9
37.464598 31.562718 -37.705948 9
40.733157 30.819134 -39.280764 9
43.958796 30.014005 -40.771787 9
46.934518 28.378676 -41.354126 9
49.853339 26.515308 -41.695106 9
52.624101 24.011952 -41.366177 9
55.324793 21.088065 -40.615780 9
58.104387 18.346053 -40.081325 9
60.871180 15.374817 -39.334651 9
63.605948 12.025883 -38.230637 9
66.362342 8.516554 -36.999161 5
69.440645 6.627284 -37.428265 5
72.506752 4.578940 -37.707926 5
75.579714 2.461268 -37.930956 5
78.651575 0.188005 -38.015243 5
81.721520 -2.302019 -37.905870 5
84.807719 -4.912345 -37.701013 5
87.891440 -7.903584 -37.156235 5
90.986538 -11.278484 -36.278598 5
94.081492 -15.425981 -34.714571 5
97.119128 -21.932312 -31.015327 5
100.430499 -24.849427 -30.693684 5
-167.686876 146.692564 6.868905 0
-160.088784 145.836513 2.331274 0
-161.966523 140.749206 8.262410 0
-142.180270 145.895417 -10.247643 0
-134.101068 145.800827 -15.812016 0
-126.393359 145.700647 -21.111206 0
-122.868834 143.568722 -21.640011 3
-119.909342 141.167559 -21.528928 3
-46.993634 49.962334 10.466030 9
-41.107939 51.425836 5.028696 9
-36.139560 51.798242 1.224502 9
-31.609366 51.684127 -1.830974 9
-27.219575 51.490443 -4.715808 9
-23.013958 51.133828 -7.323609 9
-18.993229 50.591550 -9.633193 9
-15.054874 50.014900 -11.853761 9
-11.238236 49.326427 -13.887384 9
-7.471273 48.641663 -15.889462 9
-3.806650 47.857350 -17.729287 9
-0.220174 47.006080 -19.453397 9
3.294567 46.089685 -21.067934 9
6.762734 45.150159 -22.628669 9
10.187139 44.187468 -24.137534 9
13.577362 43.217157 -25.615362 9
16.895581 42.145689 -26.950632 9
20.180725 41.052870 -28.243139 9
23.427432 39.919100 -29.471301 9
26.663115 38.809002 -30.713061 9
29.859398 37.643618 -31.876755 9
33.043938 36.492673 -33.045142 9
36.147855 35.145409 -33.978316 9
39.260237 33.854479 -34.968412 9
42.362436 32.563028 -35.950666 9
45.527996 31.527093 -37.209479 9
48.449476 29.643351 -37.525902 9
51.447578 28.022937 -38.135226 9
54.183291 25.302857 -37.559988 9
56.994443 22.766430 -37.204242 9
59.864965 20.373869 -37.020563 9
62.596965 17.162078 -35.993933 9
65.470918 14.459899 -35.529992 9
68.512392 12.534314 -35.889748 5
71.595088 10.785508 -36.438928 5
74.674878 8.956655 -36.912871 5
77.754582 7.042106 -37.308384 5
80.841455 5.071126 -37.657174 5
83.933468 3.001529 -37.919390 5
87.024633 0.728266 -37.995158 5
90.128165 -1.684942 -37.951709 5
93.247381 -4.267550 -37.764506 5
96.380449 -7.158946 -37.305270 5
99.536765 -10.400055 -36.543226 5
102.717302 -14.322374 -35.176990 5
105.907100 -20.608522 -31.662989 5
109.254518 -23.579710 -31.278627 5
-155.093291 145.735455 6.074806 0
-145.803514 145.885612 -0.740685 0
-137.396797 145.822277 -6.723293 0
-129.436122 145.728059 -12.355897 0
-124.615597 144.180701 -14.388107 3
-117.049458 144.193741 -19.834599 3
-112.961317 142.452235 -21.159376 3
-110.109307 140.061492 -20.994944 3
-42.935069 48.635590 15.824382 9
-36.713740 50.659651 9.504914 9
-31.531928 51.405965 5.117057 9
-26.693272 51.818576 1.285426 9
-22.288816 51.710777 -1.751264 9
-18.030900 51.499760 -4.586518 9
-11.499082 55.314916 -12.790664 4
-7.581749 54.906531 -15.197775 4
-4.169972 53.684415 -16.485985 4
-1.098904 51.869847 -16.978796 4
1.756382 49.641154 -16.931269 4
4.860922 47.899924 -17.514470 9
8.381089 47.052857 -19.225819 9
11.839625 46.151226 -20.841624 9
15.267526 45.255692 -22.440484 9
18.634917 44.292252 -23.932176 9
21.965551 43.307663 -25.377185 9
25.246634 42.262658 -26.729814 9
28.506638 41.222567 -28.071213 9
31.718510 40.108470 -29.308573 9
34.908641 38.984415 -30.520373 9
38.074825 37.838849 -31.694275 9
41.225196 36.691595 -32.854548 9
44.308654 35.365093 -33.799286 9
47.325125 33.827104 -34.498346 9
50.266848 32.010105 -34.883208 9
52.541290 27.491897 -32.273447 9
55.951587 27.432500 -34.628888 9
58.805187 25.046746 -34.417859 9
61.647303 22.486218 -34.034660 9
64.517375 19.916170 -33.661452 9
67.475169 17.665174 -33.647264 5
70.575569 16.138100 -34.408940 5
73.668983 14.547396 -35.105388 5
76.759979 12.903600 -35.749671 5
79.841760 11.132981 -36.268126 5
82.935780 9.375405 -36.806518 5
86.030801 7.521171 -37.254450 5
89.127140 5.527993 -37.572642 5
92.235693 3.464495 -37.832864 5
