ply
format ascii 1.0
element vertex 1395
property float x
property float y
property float z
property int scalar_Label
end_header
1.313927 85.314992 13.668763 1
1.334790 81.494905 13.633218 1
-2.167375 77.967452 10.580694 1
-0.084922 73.969418 12.327803 1
4.007664 69.913250 15.807867 1
3.936732 66.145598 15.720561 1
4.678563 62.352584 16.337747 4
4.741835 58.592379 16.378918 4
4.686486 54.835338 16.324809 4
5.517477 51.082750 17.038408 9
14.374148 47.501955 24.650292 9
20.555906 44.058860 29.971101 9
25.398138 40.710902 34.147348 9
29.337961 37.431853 37.554259 9
32.483761 34.194737 40.284858 9
33.526429 30.862186 41.215642 9
35.394383 27.630485 42.860312 9
37.514968 24.469169 44.727074 9
39.292672 21.316188 46.304876 9
40.777919 18.164797 47.637066 9
41.975118 15.004115 48.727538 9
42.874230 11.821181 49.567844 9
43.534987 8.614372 50.209363 9
43.934445 5.369936 50.632636 9
44.098688 2.082513 50.860242 9
44.035082 -1.255872 50.898744 9
43.696582 -4.664908 50.708188 9
43.105311 -8.150551 50.307865 9
42.158844 -11.748467 49.610642 9
40.806183 -15.486310 48.573531 9
38.976970 -19.399764 47.137172 9
36.613008 -23.524810 45.252778 9
33.357799 -27.989868 42.617441 9
31.287603 -32.182459 41.001843 9
27.512690 -36.997358 37.943835 9
18.731958 -43.620979 30.637991 9
-3.172277 93.112523 15.827123 3
-3.133476 89.265980 15.787795 3
-6.836243 85.821413 12.617242 1
-6.714752 81.932409 12.661128 1
-16.873376 78.881477 4.085579 1
-17.728436 74.945116 3.323056 1
-0.866428 69.999874 17.440037 1
-0.838530 66.208674 17.435080 1
-1.404264 62.438521 16.938822 4
-1.402011 58.645096 16.926510 4
-1.377017 54.852409 16.940396 4
-0.882028 51.063535 17.356019 9
7.988670 47.442747 24.811276 9
14.224216 43.959729 30.060349 9
19.257222 40.578094 34.305883 9
23.266596 37.262569 37.697968 9
26.502883 33.991669 40.446903 9
27.440595 30.612826 41.272599 9
29.491901 27.357990 43.038805 9
31.628804 24.159659 44.882545 9
33.482531 20.977019 46.494382 9
34.926862 17.782541 47.768563 9
36.129880 14.584524 48.846174 9
37.063350 11.369069 49.703683 9
37.696964 8.120481 50.315899 9
38.121664 4.843453 50.759218 9
38.287296 1.519902 50.991879 9
38.105697 -1.878669 50.940436 9
37.725398 -5.333447 50.729517 9
36.966062 -8.894334 50.208736 9
35.862225 -12.567952 49.407523 9
34.389143 -16.374496 48.305823 9
32.344219 -20.383556 46.735317 9
29.673636 -24.633157 44.652210 9
26.034548 -29.249777 41.772120 9
24.673383 -33.269486 40.799805 9
19.041302 -38.711945 36.283215 9
7.191841 -46.396917 26.612498 9
-11.111332 89.802893 15.012070 3
-12.164721 86.020434 14.078514 3
-20.768547 82.913342 6.959086 1
-18.397902 78.720965 8.848248 1
-18.322351 74.745885 8.862825 1
-2.422104 69.900443 21.872594 1
-2.400058 66.131664 21.860681 1
-8.315157 51.038457 16.959762 9
-8.617808 47.196651 16.718950 9
7.814141 43.860670 30.222675 9
12.982906 40.442883 34.486905 9
17.038483 37.088863 37.843793 9
20.359421 33.782709 40.604010 9
21.153722 30.353629 41.297390 9
23.430289 27.077672 43.213324 9
25.618811 23.844980 45.063153 9
27.471091 20.622858 46.643306 9
28.966791 17.395802 47.937223 9
30.163409 14.158307 48.992190 9
31.071108 10.900395 49.816713 9
31.679424 7.609125 50.402444 9
32.079246 4.289142 50.824039 9
32.142332 0.907619 50.976820 9
31.919334 -2.538222 50.902611 9
31.432243 -6.054888 50.619780 9
30.589156 -9.673936 50.053689 9
29.352128 -13.418575 49.173959 9
27.674241 -17.316297 47.943026 9
25.457736 -21.410654 46.282049 9
22.445854 -25.794781 43.982945 9
18.969706 -30.403083 41.316889 9
17.113723 -34.617845 39.980638 9
9.947121 -40.583107 34.337953 9
-15.548895 51.015205 16.893935 9
-5.460879 47.316391 24.998060 9
1.167605 43.756913 30.333139 9
6.472984 40.301046 34.613471 9
10.653355 36.910927 37.997896 9
14.068173 33.569116 40.774793 9
14.737023 30.090639 41.355880 9
17.217200 26.790588 43.396602 9
19.448358 23.521630 45.244169 9
21.276515 20.256425 46.775181 9
22.815809 16.994391 48.081242 9
24.001156 13.715385 49.110360 9
24.880849 10.413330 49.901432 9
25.524301 7.087965 50.510251 9
25.837856 3.713538 50.862131 9
25.853399 0.283416 50.982935 9
25.553548 -3.217447 50.859161 9
25.032098 -6.781200 50.566177 9
24.033317 -10.474608 49.900260 9
22.663889 -14.290579 48.947310 9
20.778314 -18.280247 47.592069 9
18.256115 -22.495526 45.739596 9
14.921787 -27.009749 43.251524 9
12.024241 -31.493156 41.122946 9
8.664470 -36.201631 38.638918 9
-0.190313 -42.737488 31.804360 9
-22.618215 50.993520 17.117169 9
-12.436947 47.251045 25.112797 9
-5.607450 43.651892 30.486883 9
-0.124061 40.159101 34.812538 9
4.107399 36.728757 38.163511 9
7.419463 33.337243 40.800614 9
8.143636 29.820406 41.415973 9
10.812587 26.493447 43.563261 9
13.098420 23.188059 45.417206 9
14.977785 19.887289 46.959601 9
16.469181 16.578331 48.205099 9
17.665980 13.259631 49.227007 9
18.553508 9.917835 50.014037 9
19.158002 6.545518 50.586969 9
19.413561 3.120354 50.894577 9
19.383967 -0.358941 50.987106 9
19.069467 -3.903263 50.865142 9
18.333865 -7.552460 50.422847 9
17.263340 -11.303280 49.728126 9
15.706476 -15.204502 48.663609 9
13.649922 -19.278107 47.219844 9
10.853937 -23.606001 45.211318 9
7.029156 -28.295723 42.414598 9
4.871349 -32.615207 40.926550 9
-0.447773 -37.944993 36.995925 9
-12.083147 -45.386884 28.182503 9
-30.138411 50.969699 17.146180 9
-19.612182 47.183783 25.226143 9
-12.532338 43.545053 30.671999 9
-6.983739 40.009794 34.951850 9
-2.626869 36.541086 38.325852 9
0.581376 33.098763 40.827086 9
1.489712 29.552251 41.573705 9
4.236221 26.188450 43.736446 9
6.577214 22.845554 45.595929 9
8.447905 19.501299 47.102658 9
9.998533 16.157216 48.371822 9
11.181622 12.794883 49.367273 9
12.011146 9.402738 50.099969 9
12.582817 5.983036 50.643371 9
12.781856 2.506125 50.910086 9
12.719300 -1.021366 50.985341 9
12.283446 -4.631472 50.784297 9
11.471847 -8.338797 50.305680 9
10.222220 -12.171401 49.502700 9
8.535526 -16.145660 48.376924 9
6.221402 -20.325099 46.784434 9
3.069638 -24.787810 44.566763 9
-1.236309 -29.651155 41.485319 9
-2.727670 -33.835370 40.554841 9
-10.106964 -39.807965 35.171208 9
-37.895333 50.945079 17.162596 9
-26.990360 47.114625 25.343222 9
-19.714559 43.433332 30.813414 9
-13.973553 39.858876 35.142133 9
-9.542540 36.348524 38.497670 9
-6.440916 32.854307 40.865580 9
-5.351117 29.276536 41.735251 9
-2.499039 25.877098 43.932540 9
-0.143809 22.491670 45.765733 9
1.770294 19.108482 47.276676 9
3.314046 15.720241 48.518494 9
4.462636 12.310007 49.472860 9
5.298652 8.875483 50.201782 9
5.816529 5.404204 50.701397 9
5.986819 1.879306 50.950083 9
5.850922 -1.704528 50.979173 9
5.264956 -5.386885 50.681885 9
4.375503 -9.154074 50.168138 9
2.992802 -13.059225 49.297276 9
1.025135 -17.141991 48.002049 9
-1.551392 -21.430044 46.265926 9
-5.076299 -26.033034 43.838176 9
-8.848995 -30.798723 41.240738 9
-11.613180 -35.385352 39.405717 9
-20.828706 -41.936826 32.807349 9
-34.622276 47.042768 25.434800 9
-27.024259 43.320705 31.017081 9
-21.170428 39.703319 35.331419 9
-16.710389 36.147592 38.634202 9
-13.653288 32.603780 40.918850 9
-12.350064 28.995784 41.929016 9
-9.397445 25.559342 44.154370 9
-7.031997 22.130139 45.958561 9
-5.111306 18.702970 47.445899 9
-3.593955 15.266890 48.646853 9
-2.442549 11.812328 49.588984 9
-1.612083 8.332550 50.305431 9
-1.121798 4.812768 50.782471 9
-1.030496 1.230535 50.977632 9
-1.279277 -2.418059 50.934367 9
-1.925452 -6.156656 50.611486 9
-2.985160 -10.003227 49.997938 9
-4.490945 -13.980141 49.070856 9
-6.709605 -18.165039 47.637369 9
-9.602904 -22.574921 45.726742 9
-13.564222 -27.334267 43.055286 9
-16.610082 -31.956929 41.062531 9
-21.312835 -37.123261 37.885165 9
-33.332005 -44.530296 29.435144 9
-43.705448 46.947625 24.654734 9
-34.591526 43.203497 31.194001 9
-28.576384 39.543250 35.526429 9
-24.039727 35.943332 38.810755 9
-21.089132 32.345350 40.970224 9
-19.533236 28.708309 42.142061 9
-16.592932 25.223919 44.312287 9
-14.202162 21.750082 46.098643 9
-12.194783 18.285552 47.619943 9
-10.672468 14.804280 48.803800 9
-9.482320 11.309300 49.759605 9
-8.782371 7.765782 50.374969 9
-8.349032 4.191100 50.809708 9
-8.297377 0.556169 50.982213 9
-8.614257 -3.150494 50.902382 9
-9.391606 -6.959903 50.505443 9
-10.558468 -10.874386 49.842630 9
-12.365337 -14.962041 48.736897 9
-14.772096 -19.237021 47.218021 9
-18.045534 -23.784864 45.098299 9
-22.578091 -28.735330 42.101885 9
-24.667528 -33.163790 40.850663 9
-32.084659 -39.113286 35.848640 9
-43.461883 43.052088 30.624307 9
-36.223661 39.377583 35.712727 9
-31.567168 35.734051 39.007445 9
-28.789534 32.076783 40.999728 9
-26.997457 28.407251 42.313717 9
-23.956812 24.882532 44.508681 9
-21.531316 21.364164 46.283593 9
-19.517623 17.852697 47.780490 9
-17.996044 14.323938 48.943597 9
-16.865552 10.773824 49.843640 9
-16.164986 7.182897 50.453922 9
-15.768432 3.555337 50.862514 9
-15.822947 -0.144247 50.967552 9
-16.215753 -3.911927 50.848059 9
-17.118195 -7.792376 50.385646 9
-18.516996 -11.801198 49.590457 9
-20.455892 -15.965577 48.433188 9
-23.173780 -20.358578 46.749586 9
-26.871976 -25.055681 44.402131 9
-31.619415 -30.109194 41.345525 9
-34.054665 -34.685293 39.903631 9
-39.238952 35.522720 39.268319 9
-36.696200 31.802120 41.057642 9
-34.603980 28.103339 42.550084 9
-31.578894 24.527893 44.688315 9
-29.073099 20.967570 46.482366 9
-27.102774 17.402592 47.921409 9
-25.543115 13.829168 49.090682 9
-24.430524 10.228163 49.965712 9
-23.715400 6.590929 50.580625 9
-23.445369 2.896169 50.903509 9
-23.523672 -0.855901 51.000638 9
-24.118141 -4.707206 50.758702 9
-25.101757 -8.652198 50.264676 9
-26.710117 -12.751642 49.359773 9
-28.929631 -17.024822 48.054468 9
-31.976523 -21.541477 46.203972 9
-36.173805 -26.406389 43.592079 9
-40.184526 -31.332860 41.123607 9
-91.819078 33.058660 9.793352 8
-45.029946 31.508084 41.004459 9
-42.509977 27.785365 42.751113 9
-39.434061 24.162661 44.878098 9
-36.844533 20.559172 46.691640 9
-34.893706 16.941962 48.090666 9
-33.342331 13.317246 49.234524 9
-32.304213 9.656499 50.047934 9
-31.620873 5.964170 50.636560 9
-31.384670 2.213852 50.939560 9
-31.566196 -1.605267 50.977030 9
-32.279092 -5.527607 50.674389 9
-33.412394 -9.551180 50.105985 9
-35.189277 -13.734743 49.125155 9
-37.726065 -18.125063 47.656440 9
-41.125535 -22.771354 45.633757 9
-46.776236 -28.024590 42.144036 9
-100.431595 32.834337 10.483976 8
-87.766677 29.128394 18.781965 8
-80.167407 25.335846 23.798193 8
-50.590885 23.532615 43.094342 9
-45.409119 20.086479 46.554334 9
-42.983795 16.461494 48.235148 9
-41.454908 12.781791 49.345122 9
-40.356653 9.076430 50.186905 9
-39.771088 5.319235 50.707771 9
-39.586022 1.509420 50.980946 9
-39.936294 -2.388594 50.919800 9
-40.707514 -6.373568 50.599111 9
-42.100708 -10.497041 49.889892 9
-44.336519 -14.823473 48.651064 9
-50.529826 -20.023306 44.877208 9
-96.745187 28.831475 19.224822 8
-89.098390 24.982772 24.155712 8
-78.002960 21.581874 31.282078 8
-74.504839 17.713344 33.604217 8
-71.872483 13.827419 35.389522 8
-70.041607 9.902549 36.679242 8
-60.244825 7.017886 43.017774 9
-55.145793 3.699412 46.392890 9
-55.382131 -0.303142 46.407407 9
-69.886294 -6.590124 37.432844 8
-71.931971 -11.082631 36.340519 8
-75.152250 -15.841289 34.524187 8
-80.021466 -20.997315 31.687781 8
-103.766250 -30.116982 17.005998 8
-106.039452 28.523345 19.663891 8
-98.241874 24.623731 24.573564 8
-87.145617 21.158417 31.533177 8
-83.568119 17.237474 33.855048 8
-80.927757 13.293662 35.609906 8
-79.185213 9.300470 36.822675 8
-78.102553 5.257847 37.640934 8
-77.830099 1.123349 37.972735 8
-78.296052 -3.119509 37.863367 8
-79.616308 -7.513743 37.242645 8
-81.982484 -12.120303 35.994237 8
-85.648646 -17.019890 33.964085 8
-91.365762 -22.399268 30.694042 8
-139.943135 26.771252 5.452197 7
-124.614405 23.072361 14.794785 7
-96.530860 20.726172 31.836087 8
-92.924203 16.746959 34.125821 8
-90.385986 12.732317 35.784299 8
-88.641696 8.678287 36.977575 8
-87.652991 4.563508 37.729433 8
-87.480521 0.354917 38.004263 8
-88.160570 -3.979702 37.781377 8
-89.722322 -8.473104 37.044609 8
-92.477603 -13.206587 35.608586 8
-96.703343 -18.268915 33.309771 8
-149.487506 26.478899 6.509077 7
-134.579449 22.687042 15.377582 7
-126.758322 18.644363 20.088816 7
-102.708204 16.230252 34.347846 8
-100.106268 12.158691 36.011111 8
-98.423641 8.035472 37.148087 8
-97.607965 3.837149 37.790360 8
-97.570590 -0.452721 37.990903 8
-98.461874 -4.881214 37.662762 8
-100.306560 -9.482521 36.792970 8
-103.465555 -14.347541 35.172347 8
-145.214140 22.265920 15.788514 7
-137.143418 18.171888 20.531362 7
-127.260719 14.406182 26.324119 7
-124.188813 10.163937 28.228318 7
-122.399518 5.840145 29.412869 7
-121.747288 1.411355 29.962263 7
-122.333862 -3.172373 29.819784 7
-124.260247 -7.965284 28.929597 7
-128.055735 -13.091513 26.992189 7
-151.715743 -21.554205 13.761222 7
-148.131127 17.664474 20.860781 7
-138.096102 13.835738 26.599086 7
-135.066153 9.519191 28.440848 7
-133.384957 5.113776 29.545588 7
-132.899786 0.595058 29.999768 7
-133.769358 -4.095684 29.716576 7
-136.184550 -9.028459 28.591919 7
-140.617441 -14.323985 26.366244 7
-149.309215 13.246679 26.904328 7
-146.359957 8.849966 28.664522 7
-144.807939 4.358327 29.681636 7
-144.556108 -0.260545 30.009810 7
-145.750617 -5.066405 29.571528 7
-148.637915 -10.139167 28.235573 7
-149.998226 0.336700 -29.584728 7
-150.321248 13.632146 -25.582064 7
-147.731730 15.661889 -25.577490 7
-148.642511 -2.838803 -26.843810 7
-151.145748 18.463653 -20.239861 7
-147.744056 17.419530 -21.303634 7
-144.638671 17.525178 -21.978036 7
-141.507717 17.607566 -22.668103 7
-138.361219 17.703290 -23.361234 7
-135.199008 17.812981 -24.057321 7
-131.259535 15.689948 -25.565237 7
-112.879288 11.198485 -31.127333 8
-111.496899 16.287582 -30.032651 8
-109.520964 19.747852 -29.537307 8
-106.592328 20.880043 -29.921880 8
-103.871875 22.492431 -30.126268 8
-99.936566 21.423240 -31.371810 8
-94.488092 17.246492 -33.848837 8
-54.959560 14.093043 -44.495308 9
-53.711260 18.687440 -43.561884 9
-51.866030 22.205077 -43.075516 9
-49.436563 24.736500 -43.008365 9
-45.940132 25.608782 -43.665319 9
-149.431786 -10.633295 -24.831510 7
-146.334958 -9.590643 -25.229363 7
-151.691336 22.209489 -15.402673 7
-148.619154 22.167506 -16.095881 7
-145.283920 21.307091 -17.072574 7
-141.964535 20.625656 -18.000074 7
-138.532932 19.705354 -19.020329 7
-134.968809 18.511541 -20.147338 7
-131.381325 17.394876 -21.261712 7
-128.176086 17.504956 -21.961094 7
-124.930400 17.565665 -22.685976 7
-121.686920 17.697857 -23.394080 7
-118.414042 17.815638 -24.115804 7
-114.581842 16.588873 -25.330737 8
-112.616726 20.067676 -24.853924 8
-98.833055 -4.664823 -34.685874 8
-107.375358 23.634387 -25.122578 8
-103.677287 22.956311 -26.171399 8
-99.744314 21.870968 -27.387119 8
-96.333161 22.026655 -28.152135 8
-92.881339 22.162519 -28.935114 8
-89.403245 22.311554 -29.723913 8
-85.939799 22.555944 -30.487019 8
-80.879958 19.787963 -32.432942 8
-64.153887 2.749667 -40.962080 9
-62.115848 6.278261 -40.527658 9
-60.146530 9.845225 -40.069811 9
-60.284837 16.932403 -38.177826 9
-59.534133 22.294025 -36.958531 9
-57.400901 25.238255 -36.713759 9
-55.107714 27.876512 -36.591438 9
-52.769149 30.408146 -36.511309 9
-50.551909 33.095066 -36.363951 9
-48.052168 35.324782 -36.408636 9
-45.093989 36.870352 -36.747978 9
-41.378308 37.349136 -37.555669 9
-35.622732 35.036805 -39.598183 9
-151.657097 -13.015020 -20.952740 7
-148.480253 -12.247432 -21.437919 7
-145.160027 -12.007300 -22.094205 7
-151.741889 24.108555 -11.271600 7
-148.856432 24.629504 -11.765645 7
-145.706011 24.288730 -12.543888 7
-142.497905 23.850550 -13.362555 7
-139.220685 23.291946 -14.230166 7
-135.903236 22.715029 -15.113933 7
-132.583453 22.235236 -15.975628 7
-129.109102 21.415068 -16.962249 7
-125.608314 20.640489 -17.945576 7
-122.022553 19.754582 -18.979249 7
-118.390750 18.870724 -20.025359 8
-115.920657 21.020280 -20.031349 8
-113.687369 23.694485 -19.851481 8
-111.372907 26.097223 -19.762346 8
-108.655595 27.510119 -20.021436 8
-105.391280 27.690331 -20.723903 8
-101.666188 26.924968 -21.776552 8
-97.864101 26.105835 -22.863299 8
-93.911118 25.086910 -24.038520 8
-89.769329 23.809730 -25.325961 8
-85.483142 22.384178 -26.687426 8
-81.593740 21.864409 -27.729037 8
-77.989374 21.978940 -28.545853 8
-74.422855 22.232930 -29.321241 8
-70.807082 22.463309 -30.116978 8
-66.352358 21.295435 -31.466616 8
-60.839189 18.453745 -33.491688 9
-59.102234 22.114847 -32.986158 9
-60.193998 30.300905 -30.672609 9
-57.695810 32.483687 -30.725376 9
-55.169983 34.606246 -30.802613 9
-52.642816 36.713411 -30.886783 9
-50.169556 38.889395 -30.943549 9
-47.504988 40.772952 -31.122155 9
-44.419211 42.055480 -31.555062 9
-40.513847 42.219766 -32.467491 9
-35.370521 40.766026 -34.085296 9
-30.038677 39.203908 -35.778869 9
-24.162233 37.077671 -37.748055 9
-17.924063 34.661720 -39.880481 9
-150.214329 -16.656682 -18.152765 7
-146.992489 -15.940447 -18.658335 7
-143.718031 -15.404058 -19.222245 7
-151.693470 25.619009 -7.327706 7
-148.821867 26.112651 -7.820724 7
-145.738543 25.928543 -8.529492 7
-142.626174 25.728349 -9.250646 7
-139.459949 25.439078 -10.007651 7
-136.234317 25.055438 -10.803050 7
-133.011576 24.770533 -11.575578 7
-129.719666 24.374513 -12.392826 7
-126.361154 23.887219 -13.249369 7
-122.957739 23.377050 -14.123617 7
-119.492430 22.805021 -15.028950 7
-116.576304 23.705895 -15.452826 8
-114.276125 26.119686 -15.370639 8
-111.956492 28.422461 -15.322251 8
-109.279636 29.848262 -15.570755 8
-106.284204 30.554407 -16.068966 8
-102.795173 30.217994 -16.935135 8
-99.142299 29.620715 -17.904131 8
-95.397825 28.934320 -18.917793 8
-91.674242 28.394900 -19.893183 8
-87.782275 27.622629 -20.965741 8
-83.783555 26.755457 -22.087967 8
-79.619696 25.694029 -23.297359 8
-75.397875 24.651038 -24.517899 8
-71.022035 23.457200 -25.812671 8
-66.247676 21.700387 -27.337620 8
-60.816364 18.982867 -29.248450 9
-60.798822 25.474123 -27.690011 9
-58.897239 28.690116 -27.359133 9
-59.370833 35.619781 -25.585983 9
-56.716206 37.458369 -25.765907 9
-54.169868 39.459741 -25.883886 9
-51.589655 41.402787 -26.026110 9
-46.122607 39.136792 -27.853872 9
-46.171954 44.910463 -26.468430 9
-42.762650 45.695188 -27.089130 9
-38.505773 45.369819 -28.176539 9
-33.831868 44.581865 -29.475012 9
-28.840813 43.494151 -30.922329 9
-23.489148 42.073224 -32.536843 9
-18.053366 40.691047 -34.164844 9
-12.236668 38.984542 -35.963009 9
-5.956929 36.879143 -37.968692 9
0.962896 34.195135 -40.266781 9
-151.680302 -22.410234 -15.180009 7
-148.981373 -19.414883 -15.031139 7
-145.661908 -18.989172 -15.623322 7
-142.346764 -18.507134 -16.203310 7
-150.845486 24.243951 -4.293342 7
-148.636091 27.049494 -4.094665 7
-145.588200 26.935011 -4.765465 7
-142.494460 26.745506 -5.465494 7
-139.383146 26.578617 -6.165710 7
-136.258921 26.448595 -6.861780 7
-133.070796 26.206596 -7.599706 7
-129.868525 26.005265 -8.332899 7
-126.613131 25.737302 -9.095007 7
-123.338226 25.499901 -9.855964 7
-119.985908 25.144498 -10.663198 7
-116.965166 25.701834 -11.186305 8
-114.581332 27.836200 -11.203300 8
-112.201452 29.929970 -11.230810 8
-109.630857 31.541629 -11.414594 8
-106.666527 32.258086 -11.895595 8
-103.280595 32.090213 -12.677381 8
-99.774724 31.745718 -13.528587 8
-96.214435 31.375444 -14.399663 8
-92.574551 30.933320 -15.306925 8
-88.907488 30.529977 -16.213088 8
-85.138019 30.021452 -17.168315 8
-81.241959 29.372849 -18.186120 8
-77.335347 28.808358 -19.188735 8
-73.308146 28.129202 -20.246794 8
-69.120388 27.276747 -21.382845 8
-64.839572 26.380585 -22.551875 8
-60.796391 25.996076 -23.551508 9
-60.820138 32.309196 -22.094087 9
-60.530895 37.924667 -20.869793 9
-57.864848 39.681037 -21.071919 9
-55.244199 41.507179 -21.249711 9
-52.617745 43.323578 -21.433024 9
-50.060816 45.241473 -21.579248 9
-47.357171 46.947619 -21.809311 9
-44.257917 48.109546 -22.256005 9
-40.388995 48.252305 -23.113300 9
-35.955439 47.715196 -24.256968 9
-31.369986 47.083124 -25.459222 9
-26.646634 46.383291 -26.710727 9
-21.644741 45.446926 -28.082272 9
-16.559880 44.532670 -29.470168 9
-11.210412 43.424451 -30.965410 9
-5.530117 42.060045 -32.597502 9
0.409546 40.542017 -34.326817 9
6.794019 38.674389 -36.240757 9
13.607848 36.500498 -38.326108 9
30.144574 23.935079 -45.018054 9
-151.200123 -22.072456 -11.132636 7
-147.875864 -21.637156 -11.715611 7
-144.526981 -21.257956 -12.317985 7
-141.139548 -20.977013 -12.952141 7
-151.250012 27.327402 0.019573 7
-148.253089 27.292181 -0.608373 7
-145.248002 27.295737 -1.230735 7
-142.193265 27.204226 -1.886253 7
-139.131770 27.161762 -2.533615 7
-136.057689 27.148591 -3.178490 7
-132.943981 27.086255 -3.844165 7
-129.790776 26.982048 -4.528992 7
-126.588148 26.815248 -5.239720 7
-123.347532 26.623889 -5.965441 7
-120.107799 26.511780 -6.674737 7
-117.040135 26.899163 -7.237441 8
-114.699473 29.084420 -7.245817 8
-112.306530 31.094296 -7.305965 8
-109.723595 32.629479 -7.513954 8
-106.776575 33.341789 -7.984517 8
-103.527121 33.430001 -8.660213 8
-100.091761 33.189449 -9.450389 8
-96.560098 32.831328 -10.288891 8
-93.041652 32.586326 -11.100963 8
-89.526671 32.429646 -11.894238 8
-85.849860 32.042103 -12.775180 8
-82.142462 31.687052 -13.657112 8
-78.368746 31.299909 -14.562098 8
-74.523870 30.876991 -15.492035 8
-68.305214 26.428152 -17.828879 8
-66.552846 29.829377 -17.462514 8
-60.866641 26.633455 -19.410306 9
-60.762154 32.702171 -18.099610 9
-59.025732 35.994851 -17.758484 9
-58.710982 41.424908 -16.637411 9
-56.010510 43.078625 -16.871052 9
-53.393702 44.862160 -17.059408 9
-50.788927 46.664335 -17.242620 9
-48.105939 48.356729 -17.468721 9
-45.147655 49.673021 -17.839523 9
-41.640697 50.265408 -18.491556 9
-37.387271 49.916572 -19.516159 9
-33.054616 49.559048 -20.561959 9
-28.530581 49.052988 -21.684399 9
-23.887505 48.501455 -22.845010 9
-19.093750 47.871834 -24.057990 9
-14.166339 47.192958 -25.313342 9
-9.089076 46.452480 -26.617429 9
-3.681990 45.450102 -28.054021 9
1.805058 44.488556 -29.501657 9
7.593017 43.324713 -31.062587 9
13.697713 41.958045 -32.740581 9
20.190996 40.329027 -34.564765 9
27.156619 38.371152 -36.568476 9
34.807679 35.891695 -38.841446 9
43.088205 121.734173 -22.794119 3
44.807307 124.570809 -22.616491 3
46.502505 127.418874 -22.432572 3
48.198751 130.262333 -22.251504 3
49.879408 133.112371 -22.067088 3
51.614291 135.926752 -21.904372 3
53.278453 138.782609 -21.718207 3
55.320103 141.417923 -21.667576 3
58.450068 143.445845 -21.998823 3
63.983680 144.182121 -23.161443 3
71.054521 144.188851 -24.836974 3
78.371705 144.205309 -26.570728 3
86.025781 144.192745 -28.392072 3
93.949932 144.195870 -30.276278 3
102.197919 144.196851 -32.239803 3
110.777263 144.202460 -34.283199 3
119.759565 144.189891 -36.428178 3
125.780766 145.695796 -37.567624 0
133.814098 146.419002 -39.344338 0
143.202434 146.712535 -41.531701 0
154.106766 146.555841 -44.172392 0
-149.694155 -26.008416 -8.236582 7
-146.938525 -23.171904 -8.184687 7
-143.541673 -22.937169 -8.820747 7
-140.143170 -22.653146 -9.447905 7
-150.759566 27.204568 3.370289 7
-147.766490 27.171494 2.755079 7
-144.805590 27.309301 2.181813 7
-141.760543 27.233805 1.544703 7
-138.728190 27.265585 0.931956 7
-135.675174 27.297615 0.313899 7
-132.590608 27.300894 -0.317895 7
-129.497604 27.344715 -0.943925 7
-126.329869 27.248728 -1.616252 7
-123.166562 27.234968 -2.271318 7
-119.948658 27.148489 -2.954280 7
-116.728482 27.127087 -3.625040 7
-114.541829 29.656363 -3.541034 8
-112.170099 31.681664 -3.603584 8
-109.644524 33.315025 -3.782419 8
-106.703227 34.008300 -4.248252 8
-103.479374 34.122879 -4.896757 8
-100.113895 34.001009 -5.626064 8
-96.725252 33.905434 -6.355829 8
-93.274454 33.758631 -7.110627 8
-89.747976 33.540326 -7.897598 8
-86.237219 33.432030 -8.659246 8
-82.584800 33.136008 -9.491508 8
-78.892191 32.851986 -10.330930 8
-75.161007 32.584595 -11.176221 8
-71.406097 32.361029 -12.018544 8
-67.533190 32.021407 -12.911494 8
-63.562125 31.608996 -13.841804 8
-60.837541 33.306761 -14.065858 9
-59.798446 37.673066 -13.373210 9
-59.200772 42.609158 -12.468406 9
-56.525554 44.262389 -12.694968 9
-53.908217 46.006568 -12.891378 9
-51.276190 47.731786 -13.096118 9
-48.612175 49.415753 -13.317548 9
-45.760094 50.845210 -13.633612 9
-42.404736 51.608166 -14.197839 9
-38.446501 51.614650 -15.050402 9
-34.195616 51.318422 -16.030198 9
-29.804388 50.935643 -17.059529 9
-25.300804 50.509815 -18.123367 9
-20.698568 50.063681 -19.214072 9
-16.044536 49.658240 -20.308912 9
-11.179414 49.106874 -21.481054 9
-6.241467 48.581581 -22.664999 9
-1.112594 47.950990 -23.913570 9
4.216006 47.215537 -25.228643 9
9.739073 46.391316 -26.605811 9
15.525717 45.414355 -28.073366 9
21.507751 44.369497 -29.599045 9
2.500257 69.032733 -20.385822 1
5.259284 70.990336 -20.592980 1
-12.355056 92.988209 -12.232562 3
-8.152704 93.189979 -13.117766 3
-6.827584 96.188132 -12.800908 3
-2.322668 96.213997 -13.791036 3
5.614417 93.216391 -16.154337 3
29.802333 98.331352 -20.495890 3
31.507776 101.240317 -20.292701 3
33.254719 104.105302 -20.108885 3
34.958666 106.993090 -19.912200 3
36.670647 109.864966 -19.721788 3
38.412673 112.706370 -19.545473 3
40.094884 115.583269 -19.349981 3
41.806056 118.432341 -19.167810 3
43.499510 121.287454 -18.981754 3
45.203686 124.129823 -18.801923 3
46.891958 126.978063 -18.618642 3
48.623146 129.794942 -18.452509 3
50.288396 132.650726 -18.265130 3
51.993442 135.479194 -18.093394 3
53.698550 138.306359 -17.923216 3
55.545339 141.050730 -17.802589 3
58.507770 143.166093 -18.058809 3
63.491121 144.195367 -18.986203 3
70.508240 144.210523 -20.573661 3
77.845262 144.194794 -22.241006 3
85.427438 144.197391 -23.961774 3
93.307411 144.199501 -25.751651 3
101.542370 144.182595 -27.627306 3
110.054857 144.195231 -29.561810 3
118.943052 144.200149 -31.584793 3
124.925022 145.699361 -32.659145 0
134.355266 145.777822 -34.794499 0
144.453606 145.753577 -37.103536 0
154.991042 145.744316 -39.511520 0
166.023099 145.741002 -42.032974 0
177.645390 145.721165 -44.694158 0
189.812622 145.720615 -47.478008 0
202.642633 145.712136 -50.416800 0
216.138162 145.715215 -53.507594 0
227.719760 146.652861 -55.984528 0
-149.543901 -24.313469 -3.853021 7
-146.141486 -24.142486 -4.493464 7
-142.018645 -26.645884 -5.820066 7
-139.261553 -23.900028 -5.812252 7
-150.093681 26.458962 6.546022 7
-147.155917 26.624815 5.993515 7
-144.203054 26.792308 5.437524 7
-141.218809 26.912132 4.864808 7
-138.186893 26.941556 4.263458 7
-135.166288 27.065773 3.682731 7
-132.120558 27.173890 3.092896 7
-129.040489 27.244058 2.487679 7
-125.907808 27.232773 1.854611 7
-122.792059 27.330922 1.246219 7
-119.622124 27.351073 0.610337 7
-116.689221 28.019219 0.152157 8
-114.322129 30.071036 0.086423 8
-111.975135 32.124268 0.024217 8
-109.383068 33.578366 -0.209114 8
-106.498731 34.377027 -0.634477 8
-103.241988 34.399793 -1.292384 8
-99.934467 34.381608 -1.969686 8
-96.583313 34.342365 -2.660942 8
-93.225826 34.360237 -3.342863 8
-89.764459 34.243615 -4.073828 8
-86.268011 34.135046 -4.811200 8
-82.718732 34.003446 -5.564858 8
-79.116336 33.852316 -6.334172 8
-75.505634 33.764704 -7.093346 8
-71.789966 33.571711 -7.896030 8
-68.028720 33.383260 -8.708058 8
-64.159507 33.098598 -9.562416 8
-60.827002 33.767856 -10.116640 9
-60.365406 39.018184 -9.165618 9
-59.461388 43.433149 -8.473355 9
-56.819332 45.105761 -8.687588 9
-54.218055 46.842671 -8.881451 9
-51.625342 48.594241 -9.071492 9
-48.956341 50.240290 -9.299201 9
-46.103372 51.638996 -9.615108 9
-42.872998 52.543941 -10.108333 9
-39.129628 52.806565 -10.836564 9
-34.974341 52.600120 -11.744438 9
-30.718854 52.354085 -12.681949 9
-26.367770 52.079662 -13.645944 9
-21.913859 51.772839 -14.638752 9
-17.353257 51.434172 -15.661098 9
-12.684735 51.067472 -16.712515 9
-7.917414 50.688403 -17.788030 9
-2.980581 50.221324 -18.917408 9
2.038904 49.771432 -20.061737 9
-8.203727 66.008444 -14.717853 4
-4.097911 66.419052 -15.502750 1
-3.800257 70.876471 -14.692316 1
-17.718141 89.787591 -8.051969 3
-14.866486 91.228330 -8.373056 3
-12.729691 93.399671 -8.401033 3
-9.447265 94.467815 -8.887727 3
-9.829645 99.040628 -7.915316 2
-9.865796 103.199971 -7.097719 2
-6.588785 104.277522 -7.583955 2
-2.005139 104.239263 -8.565536 2
2.701982 104.184969 -9.577331 2
21.020487 92.605597 -15.722446 3
25.376261 93.265399 -16.522748 3
28.450685 95.050664 -16.832967 3
30.239061 97.900341 -16.663922 3
31.943834 100.805501 -16.467236 3
33.680009 103.674519 -16.285157 3
35.400541 106.545452 -16.100287 3
37.115183 109.411360 -15.916045 3
38.823520 112.273248 -15.732147 3
40.541799 115.120265 -15.554157 3
42.238174 117.975873 -15.370739 3
43.946595 120.816937 -15.193612 3
45.616254 123.678628 -15.005128 3
47.305212 126.522360 -14.825143 3
49.035026 129.336078 -14.660594 3
50.699370 132.188460 -14.475494 3
52.422219 135.002124 -14.311288 3
54.083347 137.851756 -14.127851 3
55.900103 140.609211 -13.996412 3
58.622810 142.855082 -14.158516 3
63.050210 144.182294 -14.863836 3
70.032877 144.196295 -16.370902 3
77.302443 144.195562 -17.943746 3
84.823633 144.207717 -19.569573 3
92.672630 144.202284 -21.270678 3
100.826496 144.201192 -23.038019 3
109.315481 144.199586 -24.879126 3
118.148602 144.203870 -26.794812 3
124.209852 145.642918 -27.840958 0
133.578516 145.721692 -29.861084 0
143.584654 145.708544 -32.037994 0
153.835698 145.788953 -34.251791 0
164.802388 145.777656 -36.639477 0
176.336331 145.756498 -39.153602 0
188.398278 145.758206 -41.779621 0
201.088045 145.761566 -44.543303 0
214.534471 145.739170 -47.477897 0
228.586912 145.767319 -50.536536 0
-151.711671 -27.296729 0.027306 7
-148.932369 -24.540310 0.012878 7
-145.487360 -24.549234 -0.661280 7
-142.037382 -24.503568 -1.326522 7
-151.705003 23.195380 9.688197 7
-149.386569 25.570425 9.688750 7
-146.453375 25.767239 9.151941 7
-143.496364 25.935314 8.604490 7
-140.545750 26.174700 8.071442 7
-137.552676 26.332159 7.513923 7
-134.504495 26.380558 6.924263 7
-131.493477 26.595097 6.373151 7
-128.419900 26.687470 5.785919 7
-125.353892 26.858565 5.214715 7
-122.216858 26.899338 4.604158 7
-119.070243 26.978276 3.998500 7
-116.337655 28.133955 3.679374 8
-113.972860 30.169203 3.600062 8
-111.650482 32.258577 3.538954 8
-109.010815 33.585512 3.269350 8
-106.119405 34.354743 2.843216 8
-102.886483 34.417960 2.214532 8
-99.586368 34.403813 1.557311 8
-96.305090 34.495611 0.923483 8
-92.878784 34.361967 0.217490 8
-89.494355 34.384073 -0.451079 8
-86.069594 34.397432 -1.129835 8
-82.627394 34.447271 -1.805642 8
-79.048455 34.317827 -2.543227 8
-75.477557 34.279275 -3.262475 8
-71.885820 34.278059 -3.979313 8
-68.163335 34.128766 -4.750843 8
-64.380626 33.959948 -5.538625 8
-60.813066 34.219403 -6.202802 9
-60.605641 39.841269 -5.180085 9
-59.538212 43.968764 -4.612845 9
-56.907030 45.633356 -4.825235 9
-54.316213 47.361584 -5.018020 9
-51.697372 49.051598 -5.224165 9
-49.062065 50.723222 -5.437606 9
-46.285233 52.205292 -5.715777 9
-43.082832 53.124985 -6.186118 9
-39.456232 53.520143 -6.841221 9
-35.352475 53.355817 -7.698337 9
-31.210838 53.229186 -8.556509 9
-26.956578 53.047455 -9.448284 9
-22.602177 52.832238 -10.367091 9
-18.178263 52.625435 -11.298883 9
-13.664295 52.405589 -12.251856 9
-12.819929 56.511687 -11.651268 4
-14.088199 62.929209 -10.190135 4
-12.881967 66.438608 -9.775820 4
-12.643726 70.946578 -8.978835 1
-7.695876 70.351539 -10.092694 1
-19.282586 87.114035 -4.604914 3
-19.077763 91.246394 -3.873071 3
-14.723612 91.140916 -4.776448 3
-13.787310 94.481708 -4.342112 3
-9.378888 94.432523 -5.246994 3
-11.251524 100.400834 -3.752119 2
-10.673788 103.953482 -3.206845 2
-6.533866 104.221859 -3.999363 2
-5.745596 107.546643 -3.540413 2
-4.042720 110.031657 -3.424665 2
0.530719 110.056464 -4.352345 2
25.407447 93.183153 -12.563607 3
28.786977 94.706639 -12.970161 3
30.622176 97.512617 -12.823819 3
32.375950 100.374036 -12.651110 3
34.110433 103.240060 -12.474158 3
35.822145 106.113421 -12.291743 3
37.533910 108.977167 -12.111670 3
39.229958 111.843700 -11.928415 3
40.944719 114.688834 -11.753500 3
42.634168 117.544899 -11.571929 3
44.343607 120.380874 -11.398713 3
46.031577 123.226080 -11.219941 3
47.713576 126.070345 -11.040666 3
49.416546 128.897081 -10.869472 3
51.126481 131.716695 -10.701567 3
52.788735 134.563537 -10.519407 3
54.496757 137.380749 -10.352645 3
56.232898 140.181200 -10.195289 3
58.784208 142.518841 -10.291063 3
62.761116 144.086992 -10.821797 3
69.549792 144.188592 -12.200527 3
76.805854 144.174370 -13.697253 3
84.289233 144.184892 -15.236842 3
92.072534 144.190487 -16.839709 3
100.148782 144.204199 -18.502066 3
108.572111 144.209230 -20.238177 3
117.391570 144.193677 -22.060365 3
124.978386 144.913202 -23.494895 0
132.725346 145.703305 -24.950269 0
142.473006 145.772586 -26.950517 0
152.808003 145.784801 -29.083111 0
161.703335 146.587970 -30.775293 0
175.249700 145.708978 -33.734636 0
186.163904 146.118480 -35.916931 0
199.817677 145.710974 -38.814475 0
212.882126 145.787645 -41.503233 0
226.876932 145.790920 -44.398531 0
-151.644010 -25.190629 4.428465 7
-148.443593 -24.274804 3.979110 7
-144.979574 -24.389206 3.293467 7
-141.502710 -24.470741 2.611090 7
-151.467169 23.998826 13.250901 7
-148.545791 24.220602 12.729487 7
-144.799138 21.723723 11.559953 7
-142.675785 24.712394 11.689625 7
-139.719557 24.959771 11.165639 7
-136.741917 25.188912 10.634092 7
-133.741570 25.399913 10.094751 7
-130.713786 25.583177 9.544977 7
-127.682707 25.809741 9.002197 7
-124.618602 25.998552 8.446104 7
-121.496153 26.089430 7.860996 7
-118.401693 26.310066 7.304453 7
-115.859430 27.933729 7.106449 8
-113.522120 30.021149 7.031169 8
-109.988947 29.293792 6.219119 8
-108.489165 33.252106 6.641341 8
-105.517846 33.841124 6.173948 8
-102.347533 34.040113 5.597901 8
-99.107996 34.150833 4.992468 8
-95.807597 34.198906 4.363865 8
-92.453671 34.205607 3.717327 8
-89.103096 34.286214 3.084544 8
-85.671895 34.279014 2.420248 8
-82.295091 34.441550 1.796773 8
-78.784914 34.425855 1.115349 8
-73.699312 31.706522 -0.356196 8
-71.655985 34.418384 -0.264712 8
-68.022200 34.404911 -0.970157 8
-64.361522 34.420478 -1.675768 8
-60.822007 34.703886 -2.310052 9
-60.543262 40.183018 -1.381284 9
-59.480608 44.293545 -0.849934 9
-56.898040 46.011634 -1.042135 9
-54.275026 47.671525 -1.252777 9
-51.698772 49.403900 -1.441536 9
-49.063930 51.056322 -1.656152 9
-46.282724 52.513251 -1.934345 9
-43.131116 53.484035 -2.371631 9
-36.603477 50.006788 -4.260645 9
-35.520747 53.835459 -3.785089 9
-31.436575 53.761819 -4.590863 9
-27.261436 53.657536 -5.419954 9
-22.974614 53.502011 -6.280075 9
-18.674965 53.419914 -7.129726 9
-15.932237 55.255456 -7.334074 4
-16.475629 60.889685 -6.220716 4
-16.923878 66.278854 -5.169853 4
-15.663108 69.648270 -4.812457 1
-22.869302 82.157166 -1.175485 1
-20.865871 84.461581 -1.153186 1
-20.007714 87.951764 -0.696441 3
-18.963820 91.197686 -0.319630 3
-15.070602 91.544068 -1.015232 3
-13.713506 94.451699 -0.760111 3
-12.642857 97.605796 -0.405403 2
-12.943624 102.015762 0.440282 2
-10.973175 104.236314 0.452863 2
-5.292011 103.089710 -0.858120 2
-5.177821 107.024679 -0.178490 2
-2.978128 109.075635 -0.241307 2
1.513074 109.177677 -1.098279 2
25.436842 93.102722 -8.626222 3
29.145790 94.344365 -9.127957 3
31.073273 97.070488 -9.018073 3
32.806142 99.944310 -8.844115 3
34.498646 102.838417 -8.658855 3
36.232464 105.690202 -8.489373 3
37.942829 108.550545 -8.313975 3
39.642774 111.409876 -8.136906 3
41.344213 114.260211 -7.961913 3
43.056520 117.096015 -7.791807 3
44.737592 119.947300 -7.613033 3
46.443081 122.776506 -7.443134 3
48.106149 125.629082 -7.260979 3
49.814269 128.448273 -7.093738 3
51.505935 131.275131 -6.922101 3
53.217408 134.087620 -6.757069 3
54.894700 136.919504 -6.582095 3
56.597794 139.735158 -6.415227 3
58.938641 142.187575 -6.437649 3
62.612715 143.915180 -6.849464 3
69.045915 144.194460 -8.057769 3
76.228313 144.198554 -9.461549 3
83.671495 144.207822 -10.915601 3
91.415874 144.210081 -12.429998 3
99.529219 144.181526 -14.022226 3
107.893522 144.190959 -15.657024 3
116.594026 144.205904 -17.356832 3
125.728724 144.192064 -19.146910 3
131.829284 145.707854 -20.072705 0
141.662178 145.710747 -21.996903 0
151.843895 145.758307 -23.981706 0
162.708233 145.723998 -26.114852 0
171.405981 146.765808 -27.633801 0
183.281791 146.737470 -29.964412 0
195.672011 146.747364 -32.389252 0
211.711740 145.667036 -35.721664 0
225.906702 145.559941 -38.521156 0
238.370734 146.323260 -40.828200 0
-151.598558 -23.030428 8.775963 7
-148.151669 -23.227114 8.091834 7
-144.671903 -23.464302 7.394845 7
-141.174466 -23.677583 6.698740 7
-150.451209 21.996356 16.159398 7
-147.586124 22.468564 15.698671 7
-144.673583 22.811372 15.207307 7
-141.735816 23.111719 14.704177 7
-138.791606 23.434404 14.203766 7
-135.825910 23.734092 13.695583 7
-132.841088 24.021928 13.181957 7
-129.828703 24.277265 12.657812 7
-126.789367 24.506794 12.124394 7
-123.743072 24.767997 11.595181 7
-120.668285 25.004643 11.056620 7
-117.567216 25.226409 10.510764 7
-115.261610 27.439292 10.451210 8
-112.942901 29.565547 10.374712 8
-110.568894 31.515458 10.258172 8
-107.856173 32.666991 9.943152 8
-104.841535 33.163452 9.460799 8
-101.633900 33.288505 8.879547 8
-98.423902 33.468250 8.307265 8
-95.183365 33.643604 7.728673 8
-91.822079 33.638482 7.097049 8
-88.512672 33.801309 6.503745 8
-85.175770 33.972751 5.906908 8
-81.765595 34.070052 5.283949 8
-78.294415 34.122557 4.642137 8
-74.818196 34.233924 4.009517 8
-71.224376 34.209064 3.331962 8
-67.657116 34.301503 2.679421 8
-64.049580 34.396082 2.019872 8
-60.812598 35.155040 1.542447 9
-60.170171 40.033214 2.248933 9
-59.290994 44.412328 2.826697 9
-56.609608 45.966295 2.588514 9
-54.015807 47.657559 2.390164 9
-51.480356 49.436477 2.217760 9
-48.934147 51.201018 2.041078 9
-46.113864 52.588838 1.749427 9
-42.977424 53.567179 1.329386 9
-39.300550 53.864885 0.693037 9
-35.453562 54.006698 -0.001376 9
-31.386192 53.940476 -0.772089 9
-27.295965 53.927951 -1.537776 9
-20.025198 50.106550 -3.543867 9
-18.958813 53.956995 -3.088678 9
-17.566500 57.355831 -2.770853 4
-24.176890 69.919467 0.597431 1
-24.077738 74.497585 1.357229 1
-23.592704 78.549961 1.955863 1
-22.400125 81.757031 2.279025 1
-20.534104 84.203687 2.347506 1
-19.950385 87.972863 2.880080 3
-18.868542 91.167705 3.222293 3
-14.810314 91.338364 2.495593 3
-13.665501 94.446800 2.811701 3
-13.031397 98.009619 3.300427 2
-12.504750 101.619030 3.817253 2
-10.652594 103.945472 3.869004 2
-4.671056 102.520686 2.513405 2
-4.585097 106.480548 3.172434 2
-4.203383 110.115038 3.721152 2
0.368699 110.115354 2.871135 2
4.994897 110.160148 2.018809 2
29.424616 94.047905 -5.270843 3
31.512722 96.637889 -5.216813 3
33.240611 99.511417 -5.047272 3
34.953141 102.385873 -4.874536 3
36.660999 105.253474 -4.701920 3
38.360808 108.117500 -4.528239 3
40.075173 110.962154 -4.360387 3
41.785247 113.802420 -4.192308 3
43.452117 116.666077 -4.012029 3
45.169735 119.488132 -3.848100 3
46.851046 122.329680 -3.673920 3
48.530406 125.167583 -3.499819 3
50.234195 127.985739 -3.333448 3
51.899849 130.825028 -3.156206 3
53.637509 133.617376 -3.000173 3
55.295425 136.457099 -2.821060 3
56.992826 139.272092 -2.653322 3
59.149370 141.825128 -2.615391 3
62.551924 143.696020 -2.925110 3
68.580649 144.181508 -3.958782 3
75.667837 144.216098 -5.265690 3
83.090858 144.214089 -6.640896 3
90.846847 144.188029 -8.081703 3
98.834538 144.198816 -9.558896 3
107.176840 144.194092 -11.104210 3
115.844522 144.198919 -12.707916 3
124.887638 144.200462 -14.381475 3
130.976745 145.696778 -15.251191 0
140.752938 145.695417 -17.060491 0
150.640406 145.837266 -18.865535 0
161.556732 145.746983 -20.900639 0
172.703801 145.777527 -22.957409 0
184.494632 145.774454 -25.138808 0
196.905200 145.766831 -27.435371 0
210.004621 145.748316 -29.860954 0
223.922887 145.693825 -32.443896 0
239.485467 145.344568 -35.381398 0
-151.553918 -20.905976 13.051097 7
-148.110158 -21.197411 12.365421 7
-144.590614 -21.687321 11.634948 7
-151.687837 17.242853 19.086858 7
-149.354614 19.723181 19.045553 7
-146.444196 20.103521 18.566714 7
-143.535499 20.525088 18.095178 7
-140.615603 20.944411 17.621701 7
-137.683275 21.359957 17.145815 7
-134.721004 21.721682 16.656390 7
-131.726344 22.029596 16.152980 7
-128.753699 22.443672 15.670885 7
-125.753280 22.820590 15.178292 7
-122.706129 23.115420 14.664616 7
-119.656537 23.451083 14.157439 7
-116.845126 24.427195 13.795811 8
-113.382161 23.831593 13.066387 8
-112.274893 28.899462 13.665982 8
-109.838844 30.706749 13.506233 8
-107.044749 31.682420 13.149669 8
-104.010399 32.148653 12.668901 8
-100.799156 32.280403 12.103256 8
-97.593215 32.482335 11.550206 8
-94.369029 32.703738 10.997411 8
-91.091840 32.876651 10.427750 8
-87.768354 33.019517 9.845382 8
-84.459628 33.251401 9.280349 8
-81.054223 33.363497 8.679189 8
-77.648952 33.539928 8.088795 8
-74.184890 33.675144 7.481673 8
-70.659206 33.769244 6.857336 8
-67.126202 33.918246 6.240933 8
-63.511469 33.998805 5.599331 8
-60.821055 35.631262 5.373079 9
-59.696829 39.724647 5.823340 9
-58.865813 44.167169 6.382851 9
-56.260098 45.827545 6.177905 9
-53.709692 47.572968 5.997043 9
-51.163163 49.325085 5.818461 9
-48.604558 51.061980 5.635776 9
-45.774611 52.427404 5.345264 9
-42.656067 53.421884 4.943908 9
-38.982086 53.715738 4.330885 9
-35.051243 53.741099 3.629163 9
-31.099358 53.816730 2.932255 9
-24.137229 50.214666 1.105176 9
-22.986877 53.939668 1.498035 9
-18.766342 53.921770 0.739525 9
-17.820757 57.832230 1.199952 4
-23.545350 69.347782 4.078707 1
-23.422804 73.897349 4.790290 1
-23.111563 78.140863 5.419320 1
-21.992919 81.423906 5.749746 1
-20.197148 83.940009 5.836046 1
-19.075748 87.141952 6.153876 3
-18.901582 91.268468 6.790439 3
-14.553707 91.136158 5.995363 3
-13.634038 94.457918 6.369977 3
-9.315205 94.461814 5.603121 3
-10.062339 99.331425 6.525871 2
-9.581430 102.960160 7.029693 2
-6.570166 104.237424 6.703125 2
-3.992493 105.936527 6.522495 2
-2.722817 108.796526 6.762978 2
0.960793 109.570111 6.236810 2
25.562011 92.887164 -0.834931 3
29.647963 93.797190 -1.409014 3
31.938503 96.216436 -1.418911 3
33.663977 99.087451 -1.254659 3
35.405704 101.935002 -1.096565 3
37.090349 104.816347 -0.922326 3
38.774381 107.687968 -0.749026 3
40.496697 110.522576 -0.587993 3
42.170336 113.384660 -0.413337 3
43.882932 116.211950 -0.250707 3
45.553443 119.062277 -0.076344 3
47.276890 121.871273 0.082456 3
48.934074 124.719872 0.259962 3
50.671395 127.512530 0.414719 3
52.290542 130.377356 0.602661 3
54.008189 133.177748 0.763229 3
55.687885 136.000076 0.934617 3
57.359349 138.826159 1.108609 3
59.441106 141.417168 1.172365 3
62.536398 143.452868 0.967215 3
68.078300 144.190858 0.119269 3
75.190666 144.191565 -1.125212 3
82.547732 144.203285 -2.410115 3
90.230988 144.192282 -3.755262 3
98.176430 144.200837 -5.142405 3
106.450370 144.204956 -6.587089 3
115.085636 144.199525 -8.095862 3
124.073402 144.199995 -9.664573 3
130.121172 145.690646 -10.471044 0
139.779331 145.711960 -12.151973 0
149.902911 145.723203 -13.915090 0
160.514674 145.729437 -15.763471 0
171.687455 145.716507 -17.712132 0
183.370619 145.721509 -19.745988 0
195.621982 145.738009 -21.876135 0
208.570929 145.735704 -24.130126 0
222.279098 145.713987 -26.518733 0
234.100732 146.609396 -28.424168 0
-151.676435 -18.124674 17.388222 7
-148.374354 -17.984132 16.805436 7
-144.849969 -18.636377 16.066922 7
-151.131335 16.922671 22.419576 7
-148.076994 16.828400 21.850125 7
-145.115681 17.120985 21.355097 7
-142.212389 17.646965 20.905638 7
-139.316616 18.223874 20.465824 7
-136.372882 18.677734 20.000075 7
-133.436187 19.186365 19.544456 7
-130.468634 19.637142 19.075578 7
-127.499255 20.118607 18.611699 7
-124.509291 20.579007 18.141833 7
-121.456448 20.910599 17.642518 7
-118.488613 21.505125 17.198022 8
-116.005309 23.336860 17.023592 8
-113.756463 25.700090 16.970355 8
-111.456440 27.879974 16.881719 8
-108.954256 29.545527 16.681829 8
-106.108953 30.422920 16.305076 8
-103.018605 30.787159 15.809603 8
-99.836819 31.004384 15.276929 8
-96.627159 31.218910 14.739730 8
-93.433068 31.520595 14.219040 8
-90.189776 31.777661 13.683849 8
-86.890589 31.982408 13.131838 8
-83.569145 32.203681 12.579192 8
-80.185325 32.368872 12.008046 8
-76.772601 32.543879 11.434118 8
-73.330898 32.730057 10.857610 8
-69.858969 32.926689 10.278207 8
-66.363438 33.146345 9.698961 8
-60.814027 30.066696 8.267920 9
-60.830264 36.105158 9.174827 9
-59.007949 39.077586 9.302476 9
-58.385660 43.836765 9.908024 9
-55.841313 45.583597 9.727770 9
-53.268110 47.288016 9.536973 9
-50.735243 49.053209 9.363164 9
-48.190506 50.802883 9.185806 9
-45.300456 52.078863 8.878117 9
-42.133872 53.004172 8.470554 9
-38.422796 53.246788 7.866703 9
-34.565088 53.366111 7.219776 9
-30.645056 53.479213 6.562034 9
-26.638504 53.558932 5.885216 9
-22.553595 53.619910 5.192966 9
-18.458144 53.747189 4.509857 9
-17.235729 57.322523 4.844348 4
-22.935569 68.801133 7.567832 1
-22.822271 73.358495 8.243391 1
-22.613828 77.713272 8.872632 1
-21.557189 81.059666 9.203978 1
-19.803976 83.616369 9.296690 1
-17.697936 85.787169 9.271091 3
-17.318652 89.718616 9.809779 3
-14.603042 91.240099 9.582655 3
-11.920002 92.817063 9.370405 3
-9.304814 94.481680 9.183961 3
-4.929041 94.504799 8.447493 3
-7.139891 100.707009 9.778510 2
-5.755790 103.493021 9.975626 2
-2.080310 104.219098 9.468463 2
2.474582 104.237767 8.704395 2
7.408473 104.021246 7.840900 2
25.599132 92.801102 3.040733 3
29.836657 93.575148 2.449923 3
32.387315 95.776592 2.365285 3
34.061685 98.683873 2.538476 3
35.796704 101.531846 2.693158 3
37.482650 104.407455 2.861274 3
39.178233 107.265863 3.025991 3
40.878618 110.111994 3.188884 3
42.593658 112.939982 3.347387 3
44.263266 115.793240 3.518334 3
45.980715 118.607021 3.676002 3
47.665933 121.437722 3.842598 3
49.352850 124.262607 4.008893 3
51.047704 127.078563 4.173357 3
52.731443 129.898628 4.341215 3
54.389607 132.731959 4.516312 3
56.083574 135.541513 4.682603 3
57.753370 138.364575 4.855939 3
63.913375 138.616828 3.878561 3
127.948502 137.769075 -6.796495 0
128.047909 141.998105 -6.129334 0
128.974693 145.818480 -5.662894 0
140.868868 144.831093 -7.771553 0
153.593152 143.729845 -10.033544 0
167.133923 142.546723 -12.441347 0
181.543950 141.286028 -15.002791 0
196.924308 139.935239 -17.736331 0
213.451624 138.457361 -20.676744 0
-151.453600 -16.813917 21.385536 7
-149.459336 -11.570804 21.736004 7
-145.817405 -12.937085 20.898179 7
-150.139454 15.007528 25.454558 7
-147.471702 16.330439 25.157446 7
-144.614329 16.976715 24.735935 7
-141.614221 17.172054 24.228981 7
-138.507027 17.076987 23.664715 7
-135.381905 16.995695 23.100277 7
-132.234725 16.916961 22.533424 7
-129.058895 16.823919 21.960708 7
-125.965451 17.029804 21.444375 7
-122.967539 17.545792 20.988270 7
-119.966313 18.087280 20.536217 7
-117.233646 19.347693 20.230557 8
