ply
format ascii 1.0
element vertex 1408
property float x
property float y
property float z
property int scalar_Label
end_header
-145.905166 -21.676045 -14.840893 7
-142.332767 -21.132613 -15.743930 7
-138.799888 -20.433072 -16.568919 7
-135.228403 -19.788109 -17.445041 7
-131.687738 -19.018831 -18.261748 7
-147.266617 27.597143 9.711793 7
-144.060973 27.898385 8.759502 7
-140.856030 28.259426 7.826413 7
-137.546657 28.446719 6.763021 7
-134.243270 28.712823 5.729603 7
-129.538755 26.129259 2.821503 7
-127.507265 29.168526 3.549734 7
-123.979647 29.179848 2.283711 7
-120.468968 29.301806 1.066199 7
-114.418457 24.746712 -3.309349 8
-114.418553 31.532937 -0.102117 8
-111.852943 33.502782 -0.128518 8
-109.647007 36.081086 0.255083 8
-107.266565 38.320556 0.403853 8
-104.380159 39.698462 -0.051866 8
-100.757530 39.905513 -1.343903 8
-96.906395 39.825334 -2.867442 8
-92.948996 39.668734 -4.477974 8
-88.894414 39.457713 -6.162075 8
-84.774329 39.245711 -7.883063 8
-80.401455 38.767341 -9.836436 8
-75.942075 38.277226 -11.840502 8
-71.187219 37.493304 -14.107063 8
-65.688896 35.838281 -17.077531 9
-62.495702 37.371567 -17.691701 9
-59.290381 38.916529 -18.316942 9
-56.033602 40.424917 -18.990986 9
-49.447432 37.878679 -22.850522 9
-48.713404 42.565758 -21.095299 9
-43.543199 41.939966 -23.541675 9
-37.134470 40.017746 -27.087875 9
-29.843428 37.287882 -31.370964 9
-18.266009 30.062520 -39.437852 9
-18.439825 76.946413 -19.650469 1
-18.203033 81.408106 -17.935275 1
-14.069257 82.408754 -19.400605 1
-9.443100 83.060830 -21.241824 1
-4.613590 83.630591 -23.220353 1
-147.879329 -25.158484 -10.929886 7
-144.591237 -23.798551 -11.326750 7
-140.984188 -23.300673 -12.249105 7
-137.358545 -22.796093 -13.185388 7
-133.730320 -22.242127 -14.110153 7
-130.113900 -21.605158 -15.002801 7
-145.200328 23.712847 11.469601 7
-143.097153 26.666227 12.156601 7
-139.897242 27.058635 11.256522 7
-136.641133 27.381876 10.295140 7
-133.366406 27.723965 9.326510 7
-130.044536 28.026665 8.313411 7
-126.688095 28.320847 7.274495 7
-121.967893 25.998581 4.529840 7
-119.817542 28.792562 5.057345 7
-114.439630 25.504247 1.611653 8
-113.989142 31.421720 4.169689 8
-111.544843 33.591969 4.274218 8
-109.325992 36.127122 4.618167 8
-106.923276 38.310378 4.724034 8
-103.953089 39.535069 4.173924 8
-100.367915 39.793437 2.946568 8
-96.625095 39.873835 1.569619 8
-92.775084 39.868766 0.103587 8
-88.874000 39.871180 -1.388704 8
-84.856623 39.787974 -2.974065 8
-80.727410 39.634403 -4.644225 8
-76.459129 39.380269 -6.423401 8
-72.158220 39.181406 -8.201463 8
-67.539708 38.656052 -10.258654 8
-63.381426 38.847985 -11.830319 9
-60.098367 40.245651 -12.538423 9
-56.953686 41.850214 -13.112052 9
-53.755365 43.414820 -13.735415 9
-50.076869 44.432276 -14.799878 9
-45.638407 44.611445 -16.544480 9
-40.259233 43.801291 -19.108074 9
-34.526689 42.729034 -21.940020 9
-28.182346 41.132186 -25.258918 9
-21.016776 38.824289 -29.231101 9
-12.014334 34.787033 -34.709363 9
-1.744021 29.724773 -41.161436 9
-18.086952 67.013558 -18.904215 1
-17.263175 71.101037 -17.616006 1
-16.521748 75.200214 -16.298201 1
-6.169418 70.712365 -22.633902 1
-17.386526 85.248836 -11.927009 1
-12.342855 85.468911 -14.077116 1
-7.178119 85.691403 -16.290916 1
-1.600367 85.683686 -18.789863 1
-7.771969 99.499048 -10.688778 2
-7.787414 103.799146 -9.041408 2
-2.484591 104.071823 -11.351878 2
-147.157808 -25.623699 -6.448797 7
-143.533835 -25.205561 -7.388710 7
-139.818570 -24.973429 -8.454410 7
-136.133322 -24.591253 -9.451648 7
-132.446998 -24.148346 -10.431823 7
-147.921489 23.276747 16.453926 7
-145.094321 24.506622 16.095295 7
-141.949718 25.008019 15.288560 7
-138.774444 25.487587 14.452444 7
-135.571400 25.955691 13.592562 7
-132.318335 26.368283 12.681252 7
-129.080660 26.867185 11.805066 7
-125.756686 27.243391 10.834390 7
-122.373051 27.560891 9.807211 7
-119.004723 27.969652 8.817018 7
-114.462558 26.252859 6.451642 8
-113.384054 30.984678 8.185893 8
-111.098753 33.429242 8.460886 8
-108.884646 35.958255 8.789442 8
-104.926279 35.507174 7.158282 8
-103.317316 39.022778 8.123536 8
-99.731156 39.278835 6.920957 8
-96.057972 39.468013 5.647466 8
-92.343740 39.668055 4.353922 8
-88.525828 39.787173 2.976785 8
-84.654974 39.907928 1.570751 8
-80.652965 39.921240 0.058888 8
-76.498094 39.806930 -1.575971 8
-72.341489 39.783321 -3.182541 8
-68.032883 39.646790 -4.905959 8
-61.438987 36.617654 -8.756192 9
-60.651042 41.241531 -7.109708 9
-57.515061 42.820191 -7.679501 9
-54.284101 44.308742 -8.334896 9
-50.813821 45.541836 -9.202427 9
-46.705044 46.069779 -10.628802 9
-41.833867 45.797904 -12.703180 9
-36.629750 45.262865 -15.031078 9
-30.982595 44.364682 -17.698593 9
-24.986844 43.232776 -20.614704 9
-18.609856 41.852924 -23.799042 9
-11.298445 39.676472 -27.702264 9
15.856223 17.684336 -47.820781 9
9.734628 29.597050 -40.506890 9
-20.361627 69.190017 -12.153660 1
-17.622965 71.442221 -12.431133 1
-6.290052 65.919478 -19.418974 4
-7.006963 71.431020 -16.971744 1
-16.441863 84.390981 -7.908619 1
-18.021184 90.239150 -4.981301 3
-16.722249 93.555755 -4.279758 3
-7.822425 90.659676 -9.258970 3
-11.117620 97.704357 -5.160358 2
-12.513603 103.081422 -2.532045 2
-8.968140 104.577669 -3.540791 2
-2.575634 104.004574 -6.587391 2
2.440096 104.577578 -8.609843 2
-0.542429 110.940118 -4.953805 2
-146.408201 -26.181771 -2.057264 7
-142.647523 -26.142974 -3.195976 7
-138.894663 -26.000112 -4.295413 7
-135.127993 -25.815883 -5.390690 7
-131.345441 -25.596286 -6.485276 7
-146.818107 21.662735 19.610218 7
-143.770205 22.398418 18.961502 7
-140.619480 22.930560 18.179992 7
-137.482949 23.539954 17.428642 7
-134.308179 24.108398 16.637715 7
-131.108565 24.669691 15.826520 7
-127.877918 25.213834 14.988493 7
-124.567373 25.646383 14.065569 7
-121.265966 26.152111 13.168866 7
-114.433690 19.989431 8.141538 8
-114.465231 26.952152 11.188285 8
-112.702381 30.403830 12.078059 8
-110.472998 32.943102 12.400604 8
-108.256828 35.462278 12.710038 8
-105.682265 37.338469 12.606847 8
-102.516854 38.236223 11.864397 8
-98.929788 38.496613 10.689208 8
-95.329250 38.805161 9.520625 8
-91.668433 39.089570 8.310785 8
-87.909116 39.296971 7.023183 8
-84.065515 39.456055 5.674976 8
-80.194456 39.654059 4.323655 8
-76.226894 39.794875 2.903098 8
-72.187654 39.919135 1.439347 8
-67.962691 39.878659 -0.172318 8
-63.845461 40.070776 -1.656536 9
-60.772953 41.681235 -2.167828 9
-57.656744 43.260191 -2.718519 9
-54.409634 44.704696 -3.384357 9
-51.068554 46.069387 -4.128874 9
-47.192539 46.844693 -5.330492 9
-42.598722 46.860709 -7.129551 9
-37.578367 46.495581 -9.259685 9
-32.338562 46.004883 -11.537023 9
-26.923973 45.449029 -13.920094 9
-21.251795 44.749700 -16.473415 9
-15.118131 43.710842 -19.356651 9
-8.668771 42.506248 -22.443154 9
-1.360291 40.615812 -26.157107 9
7.100338 37.806096 -30.709317 9
-22.528746 71.263962 -5.642086 1
-17.549729 71.382321 -7.655744 1
-12.393526 71.443042 -9.774816 1
-10.993662 74.943660 -9.034137 1
-15.937909 83.915924 -3.584448 1
-17.725255 89.936472 -0.578800 3
-16.400628 93.223302 0.083790 3
-14.738851 96.205632 0.480952 3
-13.316394 99.361768 1.034542 2
-12.629101 103.066728 2.094050 2
-8.945489 104.442142 1.009307 2
-8.241629 108.092488 2.022874 2
-6.437634 110.897816 2.246944 2
0.530110 110.018550 -1.098624 2
5.171287 110.919176 -2.807193 2
-145.854210 -26.194980 2.598190 7
-142.040831 -26.318439 1.392620 7
-138.228257 -26.346939 0.219296 7
-134.409434 -26.304314 -0.934503 7
-147.959524 17.305616 22.278413 7
-145.308187 19.062262 22.215370 7
-142.215078 19.750140 21.540985 7
-139.145426 20.527952 20.904538 7
-134.842775 18.590583 18.692864 7
-132.825807 21.788778 19.421230 7
-129.672105 22.494617 18.701235 7
-126.457522 23.114879 17.916126 7
-123.216426 23.727047 17.110261 7
-119.935005 24.306986 16.268689 7
-114.499509 20.846571 12.981922 8
-114.456998 27.620167 15.837093 8
-111.947007 29.685681 15.858637 8
-109.797977 32.365727 16.253466 8
-107.506801 34.752072 16.467530 8
-104.776709 36.368140 16.198871 8
-101.453478 37.016362 15.311458 8
-97.944308 37.417307 14.247493 8
-94.394970 37.818182 13.160684 8
-90.807332 38.224326 12.053761 8
-87.095336 38.509470 10.843895 8
-83.306526 38.753708 9.580856 8
-79.541905 39.106570 8.362064 8
-75.635762 39.332536 7.031241 8
-71.655333 39.534462 5.654508 8
-67.542073 39.638776 4.180421 8
-63.618877 40.076243 2.901565 9
-60.605784 41.747657 2.446661 9
-57.484819 43.304525 1.896444 9
-54.398071 44.929518 1.376927 9
-51.019467 46.229999 0.609272 9
-47.223324 47.081312 -0.503539 9
-42.710154 47.171066 -2.198747 9
-37.984290 47.116023 -4.041739 9
-33.058437 46.943028 -6.017431 9
-27.959884 46.692865 -8.099725 9
-22.592776 46.273826 -10.361687 9
-16.993810 45.738845 -12.768953 9
-11.232888 45.170551 -15.262795 9
-14.138438 53.289720 -11.034407 4
-16.056617 60.225457 -7.656067 4
-22.016235 70.802627 -1.302159 1
-17.461085 71.308062 -2.949099 1
-13.735314 72.651341 -3.959060 1
-14.019075 77.604521 -2.017028 1
-15.500760 83.499184 0.749980 1
-15.836217 88.280384 2.631344 3
-15.210132 92.168820 3.783606 3
-14.288789 95.761558 4.697939 3
-11.453130 97.787094 4.246258 2
-10.817466 101.551894 5.322758 2
-8.835596 104.241510 5.445660 2
-6.557606 106.708163 5.356549 2
-5.165250 109.828972 5.860977 2
-0.826816 110.829725 4.371393 2
4.950435 110.902895 1.940628 2
-145.683237 -25.140551 7.773209 7
-141.774767 -25.574939 6.429429 7
-137.877471 -25.868290 5.139871 7
-149.917367 14.909025 26.065652 7
-146.897833 15.774792 25.515085 7
-143.878147 16.664208 24.966408 7
-140.766027 17.360268 24.299685 7
-137.538627 17.829101 23.493540 7
-134.353793 18.442216 22.753122 7
-131.210726 19.188338 22.073383 7
-128.042821 19.918890 21.371097 7
-124.895214 20.729520 20.700450 7
-121.637046 21.355167 19.909190 7
-118.085979 21.457850 18.798181 7
-114.487258 21.543692 17.656382 8
-113.292932 26.143666 19.155302 8
-111.092126 28.784977 19.508714 8
-108.951643 31.483519 19.897412 8
-106.565450 33.710734 20.003159 8
-103.625315 34.984456 19.525833 8
-100.296179 35.642262 18.658383 8
-96.811875 36.102131 17.649644 8
-93.296480 36.573518 16.626581 8
-89.676440 36.945924 15.519232 8
-86.029550 37.344436 14.404613 8
-82.352601 37.765208 13.279921 8
-78.623640 38.178098 12.125295 8
-74.770080 38.485167 10.876072 8
-70.830773 38.748998 9.570634 8
-66.906769 39.109904 8.300185 8
-63.180612 39.802447 7.222218 9
-58.178037 38.927981 5.061485 9
-57.093162 43.071669 6.269721 9
-54.055882 44.747478 5.798618 9
-50.678585 46.039117 5.045358 9
-46.944987 46.953678 4.006543 9
-42.630100 47.259637 2.509781 9
-37.908902 47.194300 0.710658 9
-33.191202 47.234197 -1.056382 9
-28.262896 47.146685 -2.960291 9
-23.224414 47.049354 -4.919041 9
-17.890490 46.756323 -7.073122 9
-16.642237 50.699945 -6.093423 4
-17.351535 56.518480 -3.674434 4
-17.500512 61.660760 -1.730720 4
-21.816750 70.637156 3.230718 1
-17.244266 71.115040 1.609763 1
-13.968782 72.855259 0.947013 1
-12.170939 75.942134 1.344026 1
-14.646617 82.720601 4.750207 1
-13.072338 85.880443 5.244370 1
-13.347105 90.554949 7.006381 3
-12.677510 94.372663 8.078298 3
-9.931772 96.484526 7.706198 3
-8.963094 100.003448 8.535462 2
-7.896455 103.409704 9.277226 2
-3.828947 104.544279 8.003110 2
6.424425 101.231994 2.663384 2
7.777966 104.535799 3.226168 2
-146.086489 -22.494729 13.694586 7
-142.099726 -23.241965 12.225438 7
-149.999491 7.525527 27.229753 7
-147.866946 10.819224 27.954568 7
-144.900359 11.920923 27.523105 7
-141.906953 12.969077 27.053920 7
-138.885679 13.967604 26.548281 7
-135.839824 14.929976 26.012658 7
-132.770540 15.863576 25.450376 7
-129.675142 16.766826 24.859927 7
-126.463543 17.455248 24.138550 7
-123.121755 17.919133 23.277890 7
-119.921342 18.717828 22.588845 7
-114.440699 15.136923 19.408344 8
-114.517280 22.309670 22.304925 8
-112.250585 24.891784 22.605340 8
-110.127531 27.684890 23.028476 8
-107.979756 30.378984 23.396385 8
-105.415869 32.311682 23.318409 8
-102.345087 33.385634 22.726204 8
-98.897276 33.874012 21.770440 8
-95.457965 34.433777 20.837695 8
-91.956322 34.952078 19.859897 8
-88.421366 35.478230 18.865975 8
-84.841544 35.996925 17.845929 8
-81.181696 36.459960 16.768934 8
-77.446436 36.880086 15.641368 8
-73.682520 37.327750 14.506367 8
-69.872546 37.780143 13.348987 8
-65.565393 37.639353 11.782893 9
-62.558403 39.286590 11.346216 9
-59.581714 40.992190 10.934081 9
-56.594556 42.703172 10.511943 9
-53.513050 44.318408 10.011738 9
-50.224998 45.711602 9.345784 9
-46.366675 46.473439 8.229924 9
-42.116086 46.849559 6.819904 9
-37.646454 47.061135 5.260562 9
-32.977381 47.143343 3.571827 9
-28.190634 47.195713 1.820095 9
-23.296033 47.234308 0.014616 9
-18.279030 47.249038 -1.853948 9
-17.569356 51.708861 -0.513279 4
-16.997794 56.226297 0.891214 4
-16.863440 61.085140 2.574282 4
-17.079737 66.180473 4.465957 1
-16.398033 70.339200 5.674905 1
-12.874909 71.856163 4.856202 1
-11.139084 75.003999 5.288138 1
-12.938713 81.200581 8.140423 1
-12.160084 85.054330 9.171473 1
-11.456366 88.917785 10.226689 3
-10.805197 92.771035 11.290646 3
-9.307509 95.896951 11.765765 3
-7.101644 98.449128 11.758811 2
-5.225210 101.256557 11.960104 2
-2.964491 103.770799 11.902180 2
1.716296 104.525062 10.284258 2
7.774951 104.380905 7.808863 2
-148.094472 -15.391519 21.737316 7
-149.983417 -0.435393 28.267114 7
-148.306723 4.300100 29.677237 7
-145.427274 5.759287 29.424094 7
-142.536697 7.180645 29.145204 7
-139.585290 8.449627 28.780452 7
-136.620998 9.692693 28.394173 7
-133.621044 10.862009 27.960647 7
-130.603228 12.004584 27.503757 7
-127.545773 13.077557 27.000021 7
-124.471696 14.136297 26.478168 7
-121.360544 15.142095 25.916730 7
-118.224531 16.125050 25.331199 7
-114.556175 16.108291 24.183181 8
-113.236429 20.595463 25.512533 8
-111.094924 23.431235 25.935662 8
-109.063504 26.405444 26.439695 8
-106.793603 28.898633 26.674896 8
-104.024036 30.499290 26.399460 8
-100.796471 31.340453 25.677848 8
-97.383026 31.919658 24.788410 8
-93.942192 32.509193 23.886508 8
-90.561753 33.247092 23.053272 8
-87.015548 33.781965 22.080922 8
-83.431528 34.319719 21.089527 8
-79.800560 34.849329 20.071776 8
-76.129724 35.383848 19.034816 8
-72.411677 35.915270 17.973052 8
-68.639505 36.436963 16.881539 8
-64.747901 36.865369 15.706860 9
-61.833525 38.635306 15.355383 9
-58.858680 40.342786 14.952202 9
-55.909842 42.100951 14.568759 9
-52.836693 43.724893 14.085069 9
-49.434566 44.980468 13.344174 9
-45.640418 45.819058 12.306172 9
-41.373739 46.177078 10.919496 9
-37.013620 46.511801 9.483150 9
-32.469878 46.729176 7.931051 9
-27.800547 46.902270 6.309866 9
-23.007105 47.039090 4.622748 9
-18.146310 47.204130 2.912820 9
-16.643986 50.850369 3.641518 4
-16.226584 55.521873 5.117591 4
-15.751659 60.050831 6.514609 4
-15.153211 64.381936 7.789247 4
-14.465627 68.557729 8.969119 1
-12.405879 71.423472 9.180291 1
-10.199336 74.147673 9.280134 1
-7.634960 76.556452 9.130339 1
-9.663954 82.881373 12.028177 1
-7.956678 85.940941 12.405594 1
-8.946123 91.179895 14.529011 3
-6.168004 93.304170 14.170824 3
-5.197185 96.860869 14.970969 3
-1.006558 97.920713 13.703777 3
4.037492 98.412904 11.913606 2
6.366722 100.985847 11.843864 2
-147.049344 -7.064080 29.150724 7
-144.736051 -3.826106 29.751037 7
-142.155194 -1.384354 29.960288 7
-139.452862 0.691891 29.986576 7
-136.667474 2.527087 29.888957 7
-133.813137 4.175620 29.692466 7
-130.916440 5.714426 29.434389 7
-127.970949 7.139734 29.111405 7
-125.002328 8.517056 28.756113 7
-121.988272 9.805270 28.346208 7
-118.929613 11.014586 27.885804 7
-114.471224 9.473835 25.953987 8
-114.088617 15.943899 28.279857 8
-111.931797 18.838530 28.708787 8
-109.900283 21.899935 29.231835 8
-107.835538 24.832706 29.689313 8
-105.391959 27.042990 29.751741 8
-102.367748 28.238495 29.247037 8
-99.075614 29.011726 28.493942 8
-95.668403 29.642192 27.644416 8
-92.323514 30.423518 26.863400 8
-88.873924 31.088454 25.998831 8
-85.370220 31.723738 25.098776 8
-81.809940 32.329978 24.162561 8
-78.276732 33.032724 23.263149 8
-74.660807 33.672320 22.306403 8
-70.956760 34.247762 21.290070 8
-67.182103 34.789442 20.230810 8
-63.789181 35.902589 19.496923 9
-60.854304 37.652137 19.137138 9
-57.955276 39.462690 18.803788 9
-54.993498 41.209153 18.418973 9
-51.923988 42.842249 17.949899 9
-48.541586 44.126113 17.243134 9
-44.622646 44.823460 16.138357 9
-40.348567 45.180551 14.784307 9
-36.007468 45.543873 13.401591 9
-31.609798 45.927790 11.998659 9
-27.122949 46.299435 10.552545 9
-22.458284 46.569947 9.001285 9
-17.618121 46.751590 7.349704 9
-15.292179 49.562183 7.479768 4
-14.604562 53.978220 8.731391 4
-13.836712 58.240931 9.894570 4
-12.992157 62.361766 10.974600 4
-11.708371 66.012661 11.730829 4
-11.438394 70.539001 13.138817 1
-7.263185 71.519567 11.940898 1
-5.912239 75.022841 12.600539 1
-4.646966 78.563538 13.296231 1
-5.337633 83.696358 15.225230 1
-7.058406 89.565105 17.766903 3
-6.152616 93.202536 18.604335 3
-2.995083 95.039790 18.016160 3
-0.213340 97.199392 17.664245 3
4.404355 98.009420 16.186313 3
10.298937 97.968384 13.950593 3
-131.876638 -7.827676 28.951026 7
-129.765515 -4.184618 29.704216 7
-127.243128 -1.589801 29.943708 7
-124.571414 0.616248 29.989312 7
-121.771205 2.509823 29.875327 7
-118.920289 4.278092 29.693488 7
-114.469192 2.797280 27.840104 8
-114.473864 10.256410 30.575877 8
-112.396044 13.419198 31.113566 8
-110.304629 16.479419 31.602977 8
-108.606794 20.189090 32.440499 8
-106.345822 22.794351 32.699899 8
-103.613562 24.533831 32.495668 8
-100.414201 25.476448 31.854016 8
-97.115131 26.289347 31.128281 8
-93.755618 27.047141 30.357349 8
-90.415868 27.882802 29.613726 8
-87.009870 28.659926 28.821718 8
-83.553349 29.408357 27.996818 8
-80.006186 30.072793 27.106627 8
-76.492188 30.840284 26.256589 8
-72.870080 31.506348 25.329347 8
-69.211871 32.179650 24.386131 8
-65.444333 32.762918 23.369114 9
-62.603823 34.638540 23.097154 9
-59.751526 36.507981 22.812205 9
-56.848272 38.323214 22.484758 9
-53.928346 40.131645 22.142458 9
-50.845067 41.756663 21.675939 9
-47.321809 42.881811 20.884643 9
-40.951928 40.733772 18.016933 9
-39.225336 44.071666 18.567558 9
-34.890860 44.452061 17.229050 9
-30.509312 44.862685 15.877547 9
-26.106494 45.332671 14.531455 9
-21.545901 45.718448 13.095865 9
-16.805686 46.006231 11.558498 9
-12.241670 46.563948 10.164006 9
-12.213339 51.676390 11.838316 4
-11.171086 55.706506 12.796412 4
-10.052533 59.605702 13.677589 4
-9.012859 63.524838 14.585586 4
-8.211004 67.605941 15.622589 1
-6.866420 71.145176 16.285420 1
-1.296335 70.974731 14.248664 1
0.769392 73.904431 14.444961 1
-1.987505 80.842151 17.634748 1
-0.950041 84.508391 18.418925 1
-4.541783 91.828434 22.015513 3
-2.171861 94.295153 21.927479 3
2.831993 94.756931 20.251156 3
8.610579 94.735017 18.135506 3
14.847984 94.496801 15.778228 3
21.477316 94.110190 13.224378 3
-114.524797 -20.395374 23.954339 8
-114.490755 -12.079438 26.916240 8
-115.360847 -2.241969 30.672307 8
-114.483970 3.647144 32.514562 8
-112.332353 6.812066 33.014616 8
-110.548287 10.603489 33.836978 8
-108.406166 13.618532 34.273910 8
-105.852930 15.816756 34.295684 8
-102.839534 17.170040 33.877982 8
-99.668594 18.265403 33.316634 8
-96.469520 19.342205 32.734009 8
-93.192615 20.321192 32.087481 8
-89.903371 21.317009 31.436664 8
-88.287032 24.996827 32.218577 8
-84.917487 25.882392 31.492289 8
-81.471495 26.695895 30.711267 8
-78.024199 27.555300 29.939178 8
-74.532054 28.396806 29.140571 8
-71.004825 29.237566 28.324271 8
-67.331690 29.926559 27.404039 8
-64.091027 31.258653 26.831718 9
-61.367786 33.307400 26.659000 9
-58.518859 35.195245 26.385488 9
-55.666790 37.089037 26.106384 9
-52.769081 38.936952 25.790675 9
-49.558843 40.418799 25.245433 9
-45.892865 41.388580 24.375678 9
-41.902203 42.032952 23.285804 9
-37.758566 42.570622 22.103995 9
-33.540080 43.098417 20.887599 9
-29.305437 43.684247 19.678067 9
-24.903387 44.165631 18.372152 9
-20.355148 44.574508 16.987131 9
-13.020088 42.205275 13.765285 9
-11.042471 45.429847 14.135915 9
-6.469868 46.071066 12.796475 9
-8.110194 52.790976 15.493269 4
-6.718395 56.477008 16.188381 4
4.022093 51.465644 10.934922 4
-3.503250 63.330770 17.246490 4
-2.101032 66.892912 17.878122 1
-0.139530 69.932395 18.146694 1
3.641370 71.409157 17.292663 1
9.182927 71.470770 15.382046 1
2.581942 81.550407 20.783621 1
-2.652493 90.231773 25.271735 3
-1.273249 93.491979 25.777659 3
3.436146 94.180197 24.323176 3
9.577255 93.882642 22.058257 3
15.859577 93.612562 19.744740 3
22.302923 93.360326 17.372387 3
-112.801431 -14.734781 30.026539 8
-112.879949 -6.504673 32.885892 8
-111.628469 -1.289241 34.327558 8
-110.220316 3.437184 35.550840 8
-108.310291 7.049663 36.243734 8
-105.956056 9.736796 36.487349 8
-103.084112 11.431974 36.237957 8
-99.999415 12.748663 35.792350 8
-96.876534 14.017770 35.313481 8
-93.714103 15.241969 34.801828 8
-90.507984 16.419224 34.255457 8
-87.253518 17.546981 33.672095 8
-83.983800 18.682682 33.080792 8
-80.644504 19.743786 32.437682 8
-77.277947 20.801036 31.778998 8
-75.724822 24.573374 32.563586 8
-72.232540 25.467016 31.800351 8
-68.716427 26.374200 31.028224 8
-65.319106 27.493264 30.356095 9
-62.631630 29.611676 30.224140 9
-59.850970 31.605099 30.016326 9
-57.077216 33.612162 29.808929 9
-54.339218 35.669763 29.622930 9
-51.307784 37.367537 29.222285 9
-45.792703 36.069235 27.066942 9
-44.243699 39.633933 27.722883 9
-40.232900 40.278194 26.655220 9
-36.120133 40.874234 25.533392 9
-31.946480 41.473808 24.386893 9
-27.685342 42.050625 23.198709 9
-23.336229 42.608662 21.969802 9
-18.918363 43.172441 20.713977 9
-14.477532 43.791961 19.461649 9
-9.803132 44.255293 18.077738 9
-4.955977 44.635444 16.604724 9
-0.432186 45.420087 15.356702 9
-1.408741 51.481439 17.545994 4
0.766222 54.487452 17.745510 4
3.780384 56.720202 17.422686 4
20.738315 46.594186 8.673715 9
4.404878 65.945058 20.010968 4
5.177704 70.050261 20.987217 1
5.737033 74.276991 22.065519 1
6.237540 78.490230 23.153240 1
-0.757864 88.630424 28.545909 3
-0.212882 92.562617 29.522390 3
4.423102 93.311096 28.154674 3
10.235971 93.261258 26.142655 3
15.668042 93.610415 24.371930 3
20.710227 94.345063 22.841464 3
24.889910 95.776901 21.804841 3
28.256060 97.831350 21.223423 3
-108.435618 -23.039414 30.561795 8
-109.098734 -13.427384 33.945193 8
-108.692042 -6.367677 36.179721 8
-107.260474 -1.584484 37.369736 8
-105.143782 1.736799 37.879610 8
-102.394412 3.800043 37.791488 8
-99.510401 5.600698 37.573316 8
-96.540985 7.245880 37.274217 8
-93.536450 8.834868 36.941015 8
-90.468560 10.325276 36.551786 8
-87.357093 11.758038 36.125538 8
-84.187654 13.115426 35.652336 8
-80.957336 14.399585 35.132007 8
-77.725191 15.708140 34.613288 8
-74.398730 16.901861 34.024177 8
-71.044846 18.088697 33.419013 8
-67.625731 19.216501 32.769861 8
-66.247369 23.260675 33.652801 9
-63.626576 25.504744 33.585818 9
-60.959868 27.679101 33.477153 9
-58.237680 29.776511 33.321648 9
-55.572648 31.948556 33.201200 9
-52.757800 33.929603 32.969397 9
-49.645500 35.549753 32.527947 9
-46.248732 36.848665 31.893206 9
-42.292748 37.521634 30.885737 9
-38.284989 38.200117 29.858168 9
-34.272816 38.940525 28.842524 9
-30.193980 39.672411 27.797601 9
-25.927757 40.267219 26.646077 9
-21.691533 40.969036 25.530731 9
-17.252139 41.529994 24.302425 9
-12.786830 42.143926 23.075949 9
-8.213424 42.728315 21.800111 9
-3.530704 43.287220 20.475608 9
1.225402 43.860456 19.125728 9
6.123152 44.386352 17.709975 9
11.219032 44.819365 16.196434 9
19.552716 42.413506 12.788177 9
21.736048 45.684382 13.044612 9
27.197856 46.089672 11.384877 9
7.161537 68.310247 24.432468 1
7.733017 72.548494 25.479460 1
44.712519 47.005496 5.908793 9
53.150406 45.460685 2.678274 9
1.673449 90.987221 32.801840 3
2.784373 94.452863 33.424129 3
6.495458 95.937453 32.610528 3
9.556183 97.951725 32.158569 3
12.720507 99.923429 31.654117 3
15.866007 101.943460 31.163758 3
19.088672 103.945092 30.636435 3
22.324510 105.974876 30.106640 3
25.618036 108.004211 29.551302 3
28.938356 110.055518 28.987010 3
32.324097 112.105750 28.394210 3
-98.940548 -25.060858 31.941636 8
-95.366901 -24.012840 31.310586 8
-98.542466 -10.089913 36.622045 8
-96.901150 -5.699045 37.573157 8
-94.587481 -2.653067 37.906421 8
-92.003839 -0.145297 37.988965 8
-89.296848 2.115678 37.953754 8
-86.445074 4.111651 37.789104 8
-83.494899 5.938262 37.538149 8
-80.467152 7.641771 37.221287 8
-77.360257 9.229335 36.840313 8
-74.228253 10.793293 36.439414 8
-71.010745 12.245887 35.973993 8
-67.728506 13.626602 35.462250 8
-66.805780 18.431156 36.685304 9
-64.312369 20.904479 36.728393 9
-61.750168 23.264972 36.711338 9
-59.143963 25.554024 36.654110 9
-56.494242 27.777681 36.558717 9
-53.893049 30.059919 36.490100 9
-50.964764 31.922985 36.191894 9
-47.734083 33.424729 35.688982 9
-44.094321 34.459795 34.917706 9
-40.179005 35.217594 33.975046 9
-36.264379 36.038866 33.046232 9
-32.208921 36.761241 32.039895 9
-28.070147 37.457668 30.995110 9
-23.891258 38.179818 29.940259 9
-19.680272 38.937670 28.880634 9
-15.364286 39.655667 27.771504 9
-10.919222 40.314617 26.599716 9
-6.416768 40.993442 25.410378 9
-1.786930 41.625361 24.162210 9
2.952307 42.234064 22.867556 9
7.797224 42.828118 21.529917 9
12.733679 43.425284 20.158696 9
17.786175 44.007069 18.740739 9
23.014953 44.524969 17.243044 9
28.435650 44.973537 15.658958 9
33.941553 45.452397 14.050406 9
39.637157 45.877215 12.360147 9
45.613710 46.181680 10.540230 9
54.225112 44.496469 7.313575 9
72.288899 35.616333 -0.959997 5
4.149123 93.295861 36.993475 3
4.652373 97.195410 37.909857 3
5.141400 101.055067 38.814524 3
5.693074 104.820934 39.667844 3
7.501069 107.659169 39.853855 3
10.560975 109.632285 39.391060 3
13.665147 111.609626 38.909685 3
16.778803 113.616104 38.427780 3
19.971819 115.607290 37.910392 3
23.192854 117.618944 37.383914 3
26.421365 119.664908 36.858732 3
29.721959 121.706779 36.303225 3
33.088312 123.751311 35.721190 3
36.477821 125.825608 35.133809 3
-81.773421 -25.135421 31.967571 8
-78.046256 -24.130418 31.271385 8
-81.964258 -9.909675 36.675218 8
-80.402921 -5.479483 37.600772 8
-78.087806 -2.404395 37.903367 8
-75.520024 0.212373 37.992531 8
-72.749772 2.480871 37.915439 8
-69.840977 4.523248 37.726672 8
-66.840439 6.425767 37.465210 8
-66.757035 12.619587 39.300860 9
-64.412414 15.383292 39.470824 9
-61.992703 18.010603 39.573900 9
-59.593909 20.642892 39.679345 9
-57.113057 23.141763 39.716883 9
-54.617552 25.605152 39.734739 9
-51.819764 27.664842 39.541972 9
-48.848052 29.509168 39.230885 9
-45.489351 30.889218 38.667013 9
-41.662468 31.737012 37.806949 9
-37.769151 32.564146 36.916537 9
-33.910426 33.491833 36.060391 9
-29.917410 34.324336 35.132281 9
-25.792430 35.072704 34.135997 9
-21.696348 35.920489 33.171711 9
-17.520827 36.748674 32.173126 9
-13.144040 37.433738 31.068653 9
-8.776331 38.203291 29.985719 9
-4.301131 38.938245 28.855544 9
0.202261 39.722054 27.725418 9
4.871821 40.422021 26.516282 9
9.685428 41.067618 25.242974 9
14.590814 41.714208 23.936697 9
19.580984 42.371914 22.602261 9
24.705696 42.999832 21.212993 9
29.918035 43.644689 19.796026 9
35.393377 44.160317 18.257115 9
41.037761 44.637519 16.649946 9
46.961086 44.993667 14.917833 9
56.391110 42.659623 11.361771 9
72.348000 35.444763 4.449771 5
79.292425 35.579813 2.322739 5
86.500749 35.655875 0.091186 5
94.056935 35.621750 -2.285127 5
7.543579 103.347053 42.931628 3
8.072228 107.102371 43.761069 3
8.525355 110.865618 44.611601 3
9.000344 114.569597 45.434807 3
9.476169 118.230835 46.241766 3
11.605141 120.787956 46.230345 3
14.708464 122.741084 45.746796 3
17.788892 124.745449 45.279037 3
20.950882 126.737384 44.777171 3
24.086065 128.783932 44.293078 3
27.377721 130.779001 43.740695 3
30.610974 132.849226 43.221336 3
33.969930 134.891726 42.649477 3
37.358495 136.962737 42.070273 3
40.756009 139.074157 41.493318 3
-67.235985 -19.657033 34.423937 9
-66.348922 -13.970953 35.849858 9
-66.073726 -7.487898 37.667590 9
-65.444374 -1.744291 39.169740 9
-64.687833 3.646423 40.530181 9
-63.649746 8.478811 41.647649 9
-61.217163 11.189925 41.767192 9
-59.007050 14.186157 42.025143 9
-56.791205 17.136157 42.263571 9
-54.515612 19.970499 42.447714 9
-52.199931 22.722720 42.592647 9
-49.689409 25.198921 42.600100 9
-46.873959 27.277958 42.404943 9
-43.670980 28.883308 41.962360 9
-39.816278 29.725845 41.116355 9
-35.172248 29.691414 39.795898 9
-31.252580 30.594067 38.939159 9
-27.266395 31.480365 38.054246 9
-23.218016 32.358764 37.144675 9
-19.156218 33.285692 36.240028 9
-14.982948 34.156174 35.282943 9
-10.703946 34.982491 34.278386 9
-6.358865 35.810976 33.250496 9
-1.996413 36.693549 32.227565 9
2.583021 37.433578 31.097590 9
7.202765 38.213372 29.961771 9
11.888764 39.009484 28.806025 9
16.710370 39.760277 27.593174 9
21.627838 40.508207 26.346271 9
26.717243 41.189712 25.025620 9
31.937498 41.848581 23.655002 9
37.231961 42.538659 22.265492 9
42.702414 43.177459 20.804671 9
48.846857 43.365701 19.017747 9
59.747754 39.869534 14.827333 9
73.208765 34.646167 9.407953 5
79.879270 34.988289 7.487019 5
86.741927 35.315955 5.498542 5
93.788342 35.642552 3.448339 5
101.466651 35.652434 1.118411 5
119.257560 28.700781 -6.090556 6
128.573764 28.045207 -9.102997 6
139.149775 26.738889 -12.673481 6
11.380734 116.792400 49.430144 3
11.799834 120.468016 50.232152 3
12.256963 124.078949 51.001759 3
12.688098 127.667781 51.769501 3
13.107749 131.226173 52.528868 3
15.768599 133.431490 52.251874 3
18.867007 135.412251 51.778924 3
21.985610 137.420323 51.302117 3
25.155526 139.439538 50.807703 3
29.137879 141.065711 49.958762 3
33.999316 142.296018 48.733641 3
39.702356 143.183271 47.156781 3
-64.077500 -17.058216 39.022242 9
-64.208273 -9.894573 41.070565 9
-62.640873 -5.555968 41.876392 9
-61.442570 -0.764037 42.901877 9
-59.909771 3.420135 43.664866 9
-58.118831 7.144111 44.226838 9
-56.218521 10.645415 44.693501 9
-54.184799 13.904932 45.053203 9
-52.016460 16.936239 45.309436 9
-49.663790 19.688408 45.434824 9
-46.986653 21.998762 45.346807 9
-43.907112 23.797167 45.005045 9
-40.377564 25.057666 44.389493 9
-36.735008 26.222646 43.712798 9
-33.061551 27.397361 43.026034 9
-29.273608 28.486494 42.280322 9
-25.449793 29.586930 41.523488 9
-20.511545 29.499728 40.133784 9
-16.305134 30.313402 39.185069 9
-12.186722 31.289047 38.299899 9
-7.920727 32.173180 37.344655 9
-3.670444 33.141683 36.411863 9
0.698720 34.057249 35.427152 9
5.188286 34.924632 34.391266 9
9.764292 35.782703 33.323973 9
14.409222 36.651923 32.235527 9
19.203840 37.460321 31.083994 9
24.092773 38.265378 29.900082 9
29.066503 39.079507 28.689634 9
34.152133 39.882459 27.439512 9
39.407430 40.629698 26.121471 9
44.860443 41.305416 24.723229 9
51.688776 40.955814 22.659328 9
63.881507 36.456052 17.973968 9
74.872943 33.218235 13.954441 5
81.151718 33.871308 12.290915 5
87.835480 34.336755 10.456435 5
94.707164 34.791861 8.559071 5
101.924805 35.129854 6.525447 5
118.186414 29.238596 0.267747 6
126.557540 29.198483 -2.210920 6
135.544351 28.912694 -4.938181 6
145.245111 28.341276 -7.953270 6
14.958803 129.891280 55.700879 3
15.379057 133.430083 56.431631 3
15.839091 136.911077 57.132603 3
16.253592 140.385105 57.841702 3
19.325187 142.370844 57.390893 3
24.601256 143.216696 55.999717 3
30.531753 143.817570 54.348760 3
37.220656 144.144993 52.399657 3
44.723759 144.199214 50.135354 3
-56.530846 -21.381434 40.576440 9
-57.755080 -12.541966 43.276091 9
-57.309563 -6.491689 44.792294 9
-56.241805 -1.521613 45.854078 9
-54.788142 2.773946 46.631390 9
-53.131690 6.693323 47.251587 9
-51.250055 10.228944 47.706917 9
-49.053283 13.283864 47.948186 9
-46.491760 15.822973 47.953148 9
-43.516848 17.816264 47.701127 9
-40.125927 19.295214 47.199769 9
-36.599034 20.638542 46.622883 9
-33.037525 21.978973 46.032194 9
-29.361473 23.224148 45.382195 9
-25.642141 24.464632 44.715535 9
-21.880359 25.703907 44.033295 9
-18.021664 26.883763 43.305673 9
-14.123784 28.073110 42.566027 9
-10.128558 29.211752 41.783031 9
-5.374671 29.613393 40.600614 9
-0.593105 30.074773 39.422049 9
3.744519 31.069598 38.497095 9
8.233626 31.983225 37.505964 9
12.674455 33.016298 36.554402 9
17.265471 33.977385 35.539204 9
21.986716 34.892589 34.472395 9
26.832217 35.773572 33.358478 9
31.782662 36.643203 32.208463 9
36.807435 37.532612 31.038555 9
41.985895 38.376883 29.810344 9
47.570328 38.972205 28.402581 9
56.435223 36.987669 25.432621 9
70.967118 30.676809 19.799247 5
77.089096 31.357222 18.248653 5
83.257371 32.114644 16.699327 5
89.661472 32.807227 15.062882 5
96.307605 33.440070 13.338665 5
103.256650 33.979026 11.500957 5
118.520181 28.789030 5.907373 6
126.382834 29.085902 3.741483 6
134.636443 29.272875 1.432539 6
143.504522 29.217583 -1.115312 6
18.080965 139.112600 61.003772 3
18.447841 142.596529 61.707550 3
22.394107 144.130524 60.915186 3
29.278936 144.190484 58.923204 3
36.547196 144.192115 56.802420 3
44.071235 144.212007 54.607472 3
-50.601916 -22.969557 43.396389 9
-52.319914 -13.484106 46.282385 9
-52.011863 -7.273012 47.811702 9
-50.991645 -2.252913 48.851547 9
-49.479330 1.957676 49.555630 9
-47.488358 5.427104 49.945005 9
-45.098019 8.307682 50.078857 9
-42.190014 10.481028 49.896927 9
-38.923906 12.196826 49.503580 9
-35.583390 13.841727 49.069690 9
-32.172292 15.426486 48.598947 9
-28.701110 16.969243 48.098621 9
-25.119891 18.415357 47.542005 9
-21.472841 19.823887 46.955379 9
-17.809069 21.254948 46.366548 9
-14.012333 22.580085 45.713049 9
-10.153688 23.885336 45.034883 9
-6.233424 25.174584 44.333046 9
-2.240000 26.439182 43.602315 9
1.835462 27.674059 42.839050 9
6.026452 28.850016 42.027148 9
10.605206 29.705516 41.030120 9
16.003142 29.846937 39.636820 9
20.572832 30.877029 38.677748 9
25.292491 31.841010 37.658869 9
30.080992 32.819839 36.621502 9
34.852185 33.892732 35.607868 9
39.794385 34.893742 34.527163 9
44.985322 35.764667 33.344347 9
51.327206 35.763923 31.637616 9
62.787023 31.704399 27.570263 9
73.990107 28.148598 23.689150 5
79.771090 29.130070 22.357597 5
85.778866 30.037885 20.942736 5
92.106510 30.811640 19.404782 5
98.626565 31.558958 17.803845 5
105.321551 32.299879 16.149301 5
120.184185 27.402300 10.927757 6
127.648456 27.980998 9.015473 6
135.380239 28.520523 7.015955 6
143.577968 28.899708 4.846163 6
20.288644 141.331407 64.872872 3
21.804047 144.182711 65.091413 3
28.728138 144.200270 63.153942 3
35.964454 144.196377 61.120879 3
43.499685 144.188040 58.999582 3
-44.549024 -11.045984 49.615617 9
-43.441443 -6.101208 50.569056 9
-41.348252 -2.618283 50.917022 9
-38.795455 0.197694 50.984628 9
-36.002058 2.675565 50.906697 9
-33.045924 4.936961 50.732318 9
-29.985792 7.070105 50.497641 9
-26.784489 9.038313 50.184475 9
-23.480169 10.899072 49.816324 9
-20.053150 12.637224 49.384578 9
-16.554773 14.321350 48.918707 9
-12.999146 15.972567 48.427340 9
-9.326422 17.528294 47.880284 9
-5.582757 19.046576 47.303135 9
-1.749516 20.511958 46.687434 9
2.181627 21.921188 46.030256 9
6.159913 23.332031 45.358272 9
10.267172 24.664754 44.631579 9
14.448631 25.980520 43.878667 9
18.732926 27.255496 43.086505 9
23.117486 28.497418 42.257531 9
27.551790 29.758026 41.416889 9
33.573170 29.645276 39.840714 9
38.422215 30.697276 38.837415 9
43.378055 31.734978 37.799771 9
48.939227 32.337855 36.500224 9
58.519237 29.684838 33.394702 9
72.111177 23.986089 28.533778 5
77.579448 25.165351 27.381894 5
83.318243 26.222814 26.127515 5
89.159535 27.299727 24.847094 5
95.275742 28.269991 23.466330 5
101.451477 29.304077 22.080787 5
110.225934 28.571785 19.603644 5
122.835960 25.317894 15.536498 6
129.787191 26.273026 13.916818 6
137.264416 26.998100 12.101793 6
145.111057 27.618308 10.161079 6
22.151493 140.052587 68.053637 3
22.556125 143.516395 68.704226 3
28.210879 144.195466 67.328555 3
35.378434 144.205506 65.396133 3
42.836811 144.212948 63.381766 3
50.662116 144.190175 61.258719 3
-25.740248 -10.450540 49.900387 9
-24.375610 -5.891611 50.649036 9
-22.177477 -2.467661 50.927998 9
-19.587641 0.433700 50.987303 9
-16.742246 3.008710 50.905761 9
-13.679091 5.322575 50.707765 9
-10.470058 7.475347 50.434065 9
-7.128585 9.493329 50.094045 9
-3.693657 11.429473 49.709477 9
-0.108614 13.228736 49.253776 9
3.576301 14.954754 48.753920 9
7.346057 16.629651 48.218672 9
11.267975 18.189696 47.616807 9
15.237538 19.748941 47.000206 9
19.293781 21.271497 46.350987 9
23.484338 22.716188 45.647930 9
27.781729 24.116294 44.905392 9
32.105375 25.551893 44.161541 9
36.639675 26.856591 43.332722 9
41.204319 28.201528 42.502553 9
46.489452 28.986725 41.363224 9
56.044089 26.222467 38.353663 9
71.273144 18.955520 32.907696 5
76.286413 20.477999 31.993293 5
81.468516 21.940293 31.019834 5
87.508165 22.809139 29.694836 5
93.333792 23.949548 28.481082 5
102.659864 22.552504 25.816262 5
105.306751 26.287988 25.975322 5
119.824850 21.451214 21.228060 6
126.375455 22.604810 19.820418 6
133.167575 23.705524 18.336311 6
140.347483 24.663802 16.718751 6
147.675454 25.653986 15.066898 6
24.398480 142.263368 71.904661 3
27.670486 144.205660 71.470832 3
34.860169 144.182988 69.603374 3
42.249061 144.203657 67.691008 3
49.986882 144.200610 65.680587 3
-5.447677 -10.358345 49.922826 9
-4.130620 -5.728272 50.655462 9
-1.972184 -2.152495 50.952490 9
0.685599 0.819193 50.994864 9
3.659950 3.426218 50.879009 9
6.844066 5.807459 50.661026 9
10.222065 7.994574 50.351702 9
13.709333 10.089048 49.993556 9
17.383452 12.018706 49.552216 9
21.132933 13.907129 49.081439 9
25.066814 15.651666 48.532639 9
29.091433 17.353393 47.950351 9
33.247374 18.978990 47.317546 9
37.514916 20.553842 46.644471 9
41.883506 22.093309 45.936980 9
47.171065 22.875600 44.841285 9
58.704998 18.310903 41.077545 9
73.086431 11.627128 36.165446 5
77.634151 13.564301 35.491263 5
82.403099 15.378585 34.734375 5
87.375628 17.094862 33.904385 5
92.465797 18.790183 33.038668 5
97.801342 20.371340 32.086148 5
103.368026 21.860118 31.054906 5
119.739933 15.464743 25.704463 6
125.587873 17.092986 24.629003 6
131.104451 19.048142 23.701153 6
137.706667 20.333663 22.362759 6
144.440839 21.643078 20.994208 6
26.272749 140.991420 75.119042 3
27.136249 144.215404 75.570744 3
34.288996 144.190510 73.789492 3
41.695921 144.180137 71.946033 3
49.350895 144.195283 70.044029 3
15.970976 -10.069048 49.979714 9
17.215999 -5.324880 50.712553 9
19.481736 -1.745477 50.962385 9
22.232222 1.297511 50.985342 9
25.347546 3.959128 50.841808 9
28.690751 6.400407 50.597316 9
32.243628 8.653749 50.262903 9
35.991225 10.746425 49.847768 9
39.899121 12.722456 49.369106 9
44.081581 14.485248 48.780238 9
51.922773 12.980975 46.658390 9
75.720903 -2.520491 37.910540 5
78.599504 0.945089 37.974178 5
82.061178 3.910151 37.795808 5
85.984087 6.507906 37.431519 5
90.208927 8.892936 36.950528 5
94.761286 11.060055 36.345794 5
99.529265 13.113339 35.664964 5
104.611141 14.987338 34.871535 5
122.533405 7.252175 29.090621 6
127.479428 9.570919 28.416351 6
132.782694 11.695133 27.616011 6
138.404400 13.668281 26.707604 6
144.386303 15.475266 25.678194 6
28.118094 139.733288 78.370422 3
28.528957 143.211504 78.970655 3
33.715458 144.202116 77.936480 3
41.061129 144.200556 76.188934 3
48.711452 144.194872 74.366376 3
56.641307 144.206822 72.479018 3
38.711691 -9.620760 50.059061 9
40.004224 -4.868989 50.744503 9
42.328063 -1.199481 50.980703 9
46.194749 0.958551 50.567590 9
99.401642 -10.949473 36.377991 5
99.195434 -4.617165 37.699680 5
101.595714 -0.530381 37.987828 5
105.186228 2.581649 37.813222 5
136.399872 -9.641213 28.399357 6
135.902946 -2.999022 29.838614 6
138.820519 1.010179 29.986407 6
142.882827 4.189546 29.710506 6
147.652994 6.901741 29.181021 6
30.425688 141.940282 82.218970 3
33.195521 144.188858 82.027252 3
40.460146 144.206971 80.380284 3
48.082783 144.192302 78.644285 3
55.963731 144.204289 76.853358 3
32.293822 140.682187 85.505259 3
32.637519 144.197844 86.094021 3
39.908436 144.191389 84.517934 3
47.431099 144.204049 82.889977 3
55.302462 144.197150 81.181805 3
34.216685 139.393067 88.803843 3
34.571175 142.919809 89.375925 3
39.324422 144.194771 88.629458 3
46.826684 144.195457 87.083045 3
54.627086 144.199862 85.475278 3
62.756403 144.202961 83.798859 3
36.507526 141.638134 92.688290 3
38.760972 144.190366 92.699745 3
46.210782 144.195292 91.243252 3
53.971233 144.196176 89.725083 3
62.051887 144.198369 88.144306 3
38.418809 140.367184 96.039555 3
38.765931 143.900285 96.581693 3
45.585326 144.202536 95.370870 3
53.336058 144.185374 93.932944 3
61.339885 144.200356 92.453872 3
69.725706 144.196020 90.900965 3
40.700784 142.631258 99.945724 3
44.994715 144.195121 99.455326 3
52.703228 144.176160 98.105575 3
60.646405 144.196585 96.721959 3
68.976150 144.193569 95.267523 3
42.682151 141.336092 103.331633 3
44.408817 144.187817 103.506514 3
52.016867 144.195497 102.257818 3
59.973240 144.186053 100.950086 3
68.255789 144.180721 99.590437 3
44.640304 140.050149 106.758233 3
44.988621 143.602856 107.257019 3
51.371666 144.197491 106.367068 3
59.268573 144.193127 105.152035 3
67.513715 144.180772 103.883550 3
76.048675 144.197575 102.576485 3
46.943215 142.332507 110.706878 3
50.742482 144.194155 110.441512 3
58.539455 144.214463 109.326280 3
66.722203 144.206513 108.153168 3
72.010748 145.660797 107.617804 0
79.485371 146.244096 106.639246 0
48.968640 141.024032 114.178121 3
50.122972 144.188444 114.484187 3
57.638567 144.320078 113.502890 0
62.868968 145.654270 113.003346 0
71.343601 145.611050 111.873132 0
80.182358 145.570915 110.697240 0
50.149690 140.135204 117.851146 0
49.210855 144.327873 118.554497 0
54.160050 145.656597 118.133527 0
62.262559 145.602753 117.132880 0
70.763551 145.524403 116.082409 0
79.642606 145.443015 114.987820 0
50.979785 139.420988 121.605558 0
51.237577 143.031833 122.063871 0
51.868065 146.434624 122.454694 0
61.662469 145.550538 121.234247 0
70.092692 145.481227 120.281008 0
78.590628 145.543885 119.341199 0
86.336304 146.092569 118.555347 0
53.052608 138.081659 125.161095 0
53.310664 141.709908 125.605608 0
53.562960 145.310672 126.050219 0
61.111702 145.477450 125.301750 0
69.511045 145.399821 124.437538 0
76.331757 146.183042 123.850982 0
86.732866 145.543380 122.715657 0
55.130865 136.736376 128.757959 0
55.363487 140.394637 129.192506 0
55.619881 144.010526 129.623010 0
60.417925 145.473191 129.367344 0
68.384346 145.569015 128.651245 0
77.358821 145.367661 127.808743 0
86.258847 145.371135 127.003027 0
57.456153 139.056424 132.816109 0
57.728595 142.682078 133.230856 0
58.146444 146.210524 133.625737 0
68.161534 145.328238 132.704242 0
76.549440 145.368946 132.032049 0
85.241409 145.436594 131.342714 0
93.337413 145.920565 130.757281 0
59.602378 137.688321 136.476962 0
59.826230 141.355376 136.884536 0
60.076867 144.979517 137.289396 0
67.283061 145.388934 136.825807 0
75.713463 145.384532 136.230871 0
82.382142 146.306376 135.874696 0
93.429569 145.491032 135.008002 0
61.870406 136.256372 140.169943 0
61.988061 139.994069 140.575797 0
62.239127 143.636000 140.967341 0
63.691646 146.697585 141.224772 0
75.171765 145.270788 140.369565 0
81.558861 146.294925 140.106098 0
92.711204 145.406315 139.342039 0
99.136085 146.691333 139.116425 0
64.193998 138.607607 144.309944 0
64.376107 142.300484 144.695147 0
64.594709 145.946086 145.078334 0
74.274274 145.318344 144.524454 0
80.666022 146.316205 144.318428 0
91.873659 145.374506 143.664249 0
100.548133 145.702552 143.281790 0
66.393562 137.220242 148.094065 0
66.580632 140.929090 148.464453 0
66.807732 144.588979 148.833487 0
73.257850 145.421721 148.662970 0
82.254201 145.252289 148.291205 0
88.744637 146.323660 148.155306 0
100.096908 145.486013 147.631571 0
68.778924 139.556491 152.284337 0
69.024685 143.225785 152.638487 0
69.871020 146.596136 152.950509 0
81.275938 145.313074 152.487871 0
87.901764 146.301168 152.401105 0
99.243096 145.438746 151.995400 0
106.223858 146.566197 151.925365 0
71.045694 138.147159 156.150632 0
71.230028 141.863612 156.495387 0
71.440416 145.538542 156.841749 0
80.216217 145.412115 156.663050 0
87.324530 146.166758 156.607698 0
98.443991 145.370786 156.332686 0
107.464982 145.643525 156.208211 0
73.318367 136.730580 160.070094 0
73.534181 140.451147 160.398991 0
73.693271 144.168243 160.734587 0
79.206046 145.491732 160.808323 0
88.423710 145.312265 160.717214 0
95.266170 146.302136 160.762025 0
106.731345 145.524389 160.610602 0
75.826783 139.039358 164.358235 0
76.024993 142.757444 164.678155 0
76.450575 146.346220 164.993862 0
87.315632 145.407844 164.933025 0
94.138799 146.378671 165.041724 0
105.841189 145.471071 165.000243 0
113.568901 146.372210 165.120195 0
78.130024 137.617846 168.373078 0
78.309592 141.363139 168.679634 0
78.497775 145.075401 168.990771 0
86.269931 145.478857 169.120910 0
94.731527 145.732640 169.254269 0
104.809082 145.478024 169.372276 0
114.453991 145.585367 169.524265 0
80.854435 135.994602 172.438716 0
80.687725 139.921236 172.736317 0
80.870745 143.655135 173.033957 0
85.225385 145.551558 173.284896 0
94.611381 145.386444 173.490627 0
104.012879 145.390076 173.718663 0
113.526463 145.522823 173.968522 0
83.064541 138.474708 176.852852 0
83.238841 142.231713 177.136694 0
83.464945 145.937625 177.426341 0
93.532032 145.446776 177.726111 0
100.807056 146.298469 178.045442 0
112.445172 145.523984 178.393069 0
121.298895 146.059617 178.759002 0
85.507032 136.992769 181.030939 0
85.659166 140.779530 181.300493 0
85.816535 144.534814 181.576424 0
92.380906 145.539708 181.938266 0
102.069045 145.364295 182.358452 0
109.380685 146.326800 182.767679 0
121.283548 145.615103 183.264566 0
88.144075 139.292783 185.528637 0
88.247255 143.091831 185.789402 0
89.022895 146.574993 186.073344 0
100.876886 145.445551 186.644410 0
110.641274 145.387639 187.186649 0
120.242582 145.573779 187.747263 0
127.877138 146.688063 188.276446 0
90.612208 137.807702 189.821763 0
90.738576 141.616427 190.068611 0
90.880302 145.389567 190.323331 0
99.708140 145.519250 190.908411 0
109.468009 145.431818 191.549235 0
119.336356 145.481125 192.216577 0
129.239214 145.697683 192.908324 0
93.276672 136.228285 194.190490 0
93.257735 140.122685 194.415853 0
93.416866 143.908469 194.657509 0
98.536903 145.596025 195.151032 0
108.383000 145.442168 195.895202 0
118.467997 145.374911 196.673478 0
128.191016 145.632017 197.456117 0
95.829391 138.599543 198.834826 0
95.967358 142.414941 199.061336 0
96.270124 146.133309 199.306284 0
107.127293 145.523882 200.212724 0
118.964624 144.727836 201.203403 0
127.552447 145.409672 202.013530 0
98.438356 137.053416 203.327597 0
98.590687 140.883455 203.540846 0
98.720718 144.694976 203.761368 0
105.876027 145.605832 204.509622 0
116.170049 145.389641 205.509464 0
126.499269 145.348655 206.534321 0
101.250144 139.329489 208.096863 0
101.381916 143.161384 208.303490 0
102.320380 146.634907 208.588767 0
115.096848 145.369327 209.908060 0
