ply
format ascii 1.0
element vertex 1400
property float x
property float y
property float z
property int scalar_Label
end_header
-20.814891 42.431832 -23.501894 9
-11.470376 38.184599 -29.246947 9
1.911164 30.322849 -38.214770 9
7.964526 29.841092 -41.031056 9
-15.926140 71.018898 -14.109492 1
-11.209449 71.439309 -16.035746 1
-5.819260 71.392545 -18.455313 1
-2.464991 73.115905 -19.286258 1
-11.143056 84.448782 -11.007167 1
-14.041396 90.908610 -7.218736 3
-13.806092 94.815055 -5.835200 3
-10.910518 96.683295 -6.445202 3
-11.463280 101.091148 -4.533055 2
-10.169113 104.104565 -4.000018 2
-4.182907 103.837292 -6.857118 2
-5.462585 108.636348 -4.495096 2
-150.917247 -26.755875 -1.194739 7
-147.937525 -25.123028 -1.357729 7
-144.397468 -25.071445 -2.441945 7
-140.858688 -24.938592 -3.497999 7
-137.296242 -24.794125 -4.566235 7
-150.870921 18.682139 19.892797 7
-148.965396 21.733728 20.682188 7
-146.022315 22.211136 19.939526 7
-143.061747 22.691317 19.183733 7
-140.081660 23.171564 18.412816 7
-137.062119 23.610466 17.601109 7
-133.995546 23.997406 16.741132 7
-130.939237 24.457025 15.908883 7
-127.814758 24.828035 15.004331 7
-124.683240 25.239210 14.106640 7
-121.537088 25.675195 13.206143 7
-118.261513 25.922754 12.166759 7
-115.748857 27.616980 12.035267 8
-113.556185 29.869736 12.257784 8
-111.322730 32.018535 12.410483 8
-108.820490 33.687270 12.244460 8
-105.954335 34.754357 11.671483 8
-102.663891 35.166394 10.645936 8
-99.287812 35.502139 9.546368 8
-95.854468 35.812697 8.405494 8
-92.358074 36.093585 7.219043 8
-88.824275 36.386876 6.014743 8
-85.157441 36.557517 4.697876 8
-81.428360 36.715366 3.342506 8
-77.583777 36.791251 1.898371 8
-73.686787 36.877856 0.429170 8
-69.638651 36.848341 -1.157563 8
-65.526102 36.824360 -2.776688 8
-59.454894 34.437757 -6.170797 9
-56.964664 36.629289 -6.238336 9
-56.465396 41.204069 -4.528680 9
-53.579417 42.876469 -4.990059 9
-50.720245 44.600450 -5.429099 9
-47.876096 46.361078 -5.856777 9
-44.619923 47.688199 -6.639544 9
-40.764152 48.409209 -7.924579 9
-35.841269 48.072543 -10.087492 9
-30.561013 47.479933 -12.511454 9
-24.855904 46.584029 -15.243883 9
-18.492939 45.178963 -18.464747 9
-11.280911 43.117802 -22.313164 9
-2.446483 39.717073 -27.386060 9
13.004882 30.444836 -37.582790 9
19.354972 29.930607 -40.490590 9
-18.798940 69.034800 -8.965068 1
-15.939319 70.993128 -9.439403 1
-11.069441 71.268229 -11.438682 1
-5.926021 71.413976 -13.616097 1
-14.541124 82.854752 -5.520321 1
-13.446378 86.189525 -4.742691 1
-14.865386 91.447042 -2.149038 3
-14.993422 95.604177 -0.544913 3
-11.947309 97.327543 -1.258170 2
-12.244744 101.521593 0.415604 2
-10.431102 104.141010 0.561328 2
-8.247910 106.501220 0.437737 2
-6.368920 109.078701 0.519935 2
-0.731971 109.160373 -1.999122 2
-150.914370 -25.194558 4.111162 7
-147.469107 -24.968580 3.163507 7
-143.889828 -25.047387 2.027402 7
-140.286902 -25.103929 0.884512 7
-136.649776 -25.164666 -0.280506 7
-150.628508 19.142618 24.026930 7
-147.715311 19.697266 23.348767 7
-143.651174 17.564450 21.092025 7
-141.855614 20.842845 21.973118 7
-138.875123 21.359733 21.231491 7
-135.855504 21.834450 20.449965 7
-132.850934 22.387085 19.699525 7
-128.555675 20.324917 17.356455 7
-126.704500 23.344155 18.062170 7
-123.560850 23.756799 17.178085 7
-120.466516 24.316055 16.366461 7
-117.258834 24.711223 15.435785 7
-113.544120 24.244182 13.946153 8
-112.686787 28.919724 15.672976 8
-110.427056 31.029738 15.790390 8
-107.843159 32.569667 15.539146 8
-104.877003 33.485342 14.875365 8
-101.566893 33.883281 13.858315 8
-98.269845 34.360398 12.871127 8
-94.881627 34.754119 11.806769 8
-91.457159 35.154564 10.723316 8
-87.925433 35.459948 9.551589 8
-84.396284 35.836021 8.401709 8
-80.734098 36.091266 7.142868 8
-77.034780 36.367265 5.869849 8
-73.240260 36.587841 4.528954 8
-69.341734 36.747921 3.114557 8
-65.294395 36.797097 1.588610 8
-59.495615 34.741659 -1.481562 9
-59.204623 39.602383 0.388327 9
-56.529670 41.491547 0.115675 9
-53.677326 43.182941 -0.315534 9
-50.818116 44.886039 -0.754022 9
-47.991085 46.645471 -1.166543 9
-44.912562 48.147619 -1.790863 9
-41.178087 48.975478 -2.953998 9
-36.677160 49.057413 -4.728681 9
-31.665937 48.707416 -6.888386 9
-22.156467 43.934793 -12.610445 9
-21.038954 47.749751 -11.582640 9
-15.156682 46.904588 -14.318896 9
-8.637766 45.598942 -17.504240 9
-1.341425 43.737417 -21.233831 9
-13.775943 59.948978 -9.897812 4
-16.245649 66.747659 -6.293831 1
-16.057436 71.058934 -4.750151 1
-12.835501 72.717224 -5.486410 1
-10.715122 75.329391 -5.411395 1
-15.572279 83.616672 -0.283060 1
-13.568975 86.197301 -0.188829 1
-15.640816 91.949626 2.800696 3
-14.603302 95.194247 3.532878 3
-12.733307 97.787583 3.661395 2
-12.837459 101.817088 5.151708 2
-10.162686 103.801739 4.694917 2
-7.032115 105.494642 3.926722 2
-5.343980 108.209692 4.141425 2
0.459023 108.182692 1.578336 2
5.053990 109.062793 -0.145573 2
-150.835779 -23.888041 9.187409 7
-147.195065 -24.278783 7.925598 7
-143.579489 -24.495842 6.738663 7
-139.933468 -24.700507 5.538883 7
-136.245594 -24.920326 4.310576 7
-148.693963 15.351738 25.726798 7
-146.322112 17.318338 25.842321 7
-143.374505 17.883616 25.160489 7
-140.455420 18.553010 24.524833 7
-137.520714 19.221465 23.875806 7
-134.556345 19.860560 23.196583 7
-131.538943 20.425324 22.460196 7
-128.503977 20.996441 21.712748 7
-125.426225 21.525019 20.924960 7
-122.345743 22.094397 20.145554 7
-119.210539 22.604855 19.314698 7
-116.052018 23.121002 18.470245 8
-113.895907 25.496190 18.742530 8
-111.740112 27.831678 18.989981 8
-108.061005 27.512127 17.591388 8
-106.645886 31.082057 18.595108 8
-103.561014 31.825031 17.830236 8
-100.355364 32.416654 16.951939 8
-97.048637 32.900207 15.985001 8
-93.697459 33.371757 14.989068 8
-90.314970 33.854033 13.978058 8
-86.865883 34.297178 12.918720 8
-83.365034 34.727357 11.826969 8
-79.810937 35.145818 10.702627 8
-76.155975 35.490910 9.503131 8
-72.480419 35.877117 8.304092 8
-68.654379 36.134962 6.989096 8
-64.796871 36.427455 5.667579 8
-59.498911 34.995274 3.109933 9
-59.037332 39.624694 4.772526 9
-56.246767 41.360788 4.399972 9
-53.407096 43.055703 3.983683 9
-50.658295 44.873906 3.641676 9
-47.846479 46.636509 3.244864 9
-44.819052 48.180932 2.671009 9
-41.171633 49.087932 1.600688 9
-36.856731 49.349671 0.012218 9
-32.099970 49.241954 -1.900327 9
-27.243794 49.136954 -3.860179 9
-22.096845 48.849830 -6.013639 9
-16.776963 48.510266 -8.265123 9
-15.133044 51.766803 -7.704054 4
-16.194239 57.497939 -5.140032 4
-16.730503 62.619234 -3.024039 4
-17.633774 67.956993 -0.688301 1
-16.501007 71.407831 0.114735 1
-14.001772 73.657857 -0.089707 1
-11.512153 75.927926 -0.291944 1
-15.057397 83.121896 3.768420 1
-13.542628 86.087637 4.202398 1
-16.410213 92.449373 7.665282 3
-13.839854 94.500749 7.315713 3
-11.493616 96.739713 7.117755 3
-9.887772 99.531986 7.417149 2
-8.984539 102.815262 8.176185 2
-4.976946 103.903253 6.848362 2
-0.107755 104.471571 4.965904 2
1.528111 107.286634 5.225473 2
4.707697 109.090818 4.470438 2
-150.922694 -22.126141 14.421969 7
-147.308614 -22.514209 13.193643 7
-143.595439 -23.070361 11.855889 7
-139.897320 -23.472928 10.579433 7
-149.614085 10.712674 28.008982 7
-146.820995 11.734135 27.593088 7
-144.012916 12.730537 27.154363 7
-141.190251 13.706686 26.694940 7
-138.331028 14.615811 26.188306 7
-135.458052 15.515840 25.665863 7
-133.044224 17.430782 25.705076 7
-130.079548 18.157574 25.065826 7
-127.028778 18.742393 24.332239 7
-124.010312 19.434233 23.645754 7
-120.933175 20.050187 22.901064 7
-117.822521 20.645575 22.129150 7
-114.900504 21.634111 21.573305 8
-112.761984 24.060103 21.859061 8
-110.590508 26.385941 22.085011 8
-108.118934 28.161152 21.977808 8
-105.272644 29.300540 21.477653 8
-102.097587 29.925042 20.649192 8
-98.871100 30.515055 19.781364 8
-95.633239 31.137556 18.914834 8
-92.336030 31.719352 18.003498 8
-89.007603 32.307289 17.075790 8
-85.634571 32.883694 16.119855 8
-82.119518 33.312876 15.047317 8
-78.603337 33.803140 13.990471 8
-75.020364 34.263538 12.889884 8
-71.431363 34.779481 11.800769 8
-67.713912 35.190372 10.615952 8
-63.886822 35.529582 9.355114 8
-59.454373 35.185889 7.599894 9
-58.486978 39.176631 8.783503 9
-55.711605 40.926427 8.428932 9
-52.977685 42.740318 8.105923 9
-50.212201 44.532062 7.754295 9
-47.410932 46.299713 7.371685 9
-44.349595 47.800154 6.781574 9
-40.809001 48.816312 5.819146 9
-36.510322 49.087370 4.280410 9
-32.102207 49.330535 2.680835 9
-27.336281 49.300790 0.833761 9
-22.483354 49.286231 -1.050048 9
-17.473809 49.222833 -3.021421 9
-16.934686 53.494042 -1.673610 4
-17.003285 58.254602 0.081388 4
-16.912391 62.776671 1.678521 4
-17.278057 67.619616 3.562890 1
-16.509287 71.379249 4.600434 1
-13.377827 73.077778 3.953540 1
-12.342015 76.554955 4.766931 1
-13.998703 82.184919 7.412285 1
-16.892905 88.669222 10.847866 3
-17.159249 92.935051 12.437836 3
-13.676028 94.265147 11.477980 3
-11.582959 96.683522 11.452149 3
-6.658101 97.040872 9.552230 2
-5.985143 100.529448 10.458122 2
-4.404353 103.345494 10.753570 2
0.726877 103.730662 8.752979 2
6.410113 103.848978 6.425409 2
-150.855533 -20.844861 19.317374 7
-147.950873 -19.292148 19.121462 7
-144.185092 -20.107880 17.688333 7
-150.001539 4.505603 29.543907 7
-147.359030 6.042556 29.395090 7
-144.602659 7.277029 29.080770 7
-141.849226 8.518466 28.762807 7
-139.048799 9.650880 28.378687 7
-136.246361 10.787375 27.988236 7
-133.413438 11.866198 27.557578 7
-130.550493 12.894630 27.089793 7
-127.651591 13.865904 26.580270 7
-124.749033 14.852112 26.068212 7
-121.796097 15.760936 25.501657 7
-119.359867 17.698552 25.505045 7
-115.695662 17.294345 24.170154 8
-113.596152 19.866594 24.520513 8
-111.559225 22.500959 24.908397 8
-109.197533 24.514214 24.936211 8
-106.607885 26.116832 24.719153 8
-103.615796 27.047232 24.096353 8
-100.453122 27.732080 23.312768 8
-97.258380 28.411019 22.508661 8
-92.406072 26.555105 20.148142 8
-90.783106 29.776733 20.852012 8
-87.472951 30.423246 19.973556 8
-84.120906 31.059922 19.069327 8
-80.729605 31.693380 18.142678 8
-77.220141 32.216358 17.124929 8
-73.756635 32.861672 16.162303 8
-70.106201 33.313906 15.052731 8
-66.479706 33.862504 13.980387 8
-59.490244 30.189356 10.110405 9
-58.762578 34.566563 11.498623 9
-57.758960 38.510197 12.617161 9
-55.034804 40.321423 12.310734 9
-52.308820 42.143485 11.999731 9
-49.573185 43.968099 11.678202 9
-46.800575 45.765864 11.325267 9
-43.682309 47.201382 10.704150 9
-40.056598 48.125197 9.700350 9
-35.840502 48.484211 8.263637 9
-31.531615 48.828571 6.778896 9
-26.924576 48.955703 5.095864 9
-22.356798 49.215643 3.467053 9
-17.471470 49.259370 1.632537 9
-16.815341 53.404049 2.854749 4
-16.498250 57.794488 4.284882 4
-15.675782 61.648463 5.324095 4
-15.136530 65.697795 6.532454 4
-15.500212 70.467375 8.332559 1
-11.824353 71.707669 7.333310 1
-11.155623 75.505161 8.379474 1
-12.866494 81.188265 10.995164 1
-17.647761 89.185463 15.598084 3
-17.628502 93.204239 16.950910 3
-13.006782 93.644955 15.267576 3
-10.064277 95.428350 14.693859 3
-6.321300 96.660196 13.609257 3
-2.919657 98.194527 12.753645 2
-1.741101 101.328742 13.310041 2
2.882147 102.088828 11.692807 2
7.944469 102.640736 9.822292 2
-149.998663 -12.175303 26.874486 7
-149.299450 -4.908415 29.585177 7
-146.917968 -2.439603 29.886383 7
-144.410858 -0.367113 29.985877 7
-141.818418 1.444689 29.949518 7
-139.172631 3.096301 29.826697 7
-136.489103 4.638967 29.642390 7
-133.742489 6.025576 29.370428 7
-130.979970 7.374373 29.071657 7
-128.179339 8.642176 28.722362 7
-125.345381 9.846881 28.331023 7
-122.467741 10.973862 27.888724 7
-119.589049 12.115183 27.444573 7
-116.143857 12.178917 26.397344 8
-114.134134 15.018588 26.870719 8
-112.205522 17.942941 27.395274 8
-110.082583 20.452249 27.690727 8
-107.624564 22.330356 27.629012 8
-104.821062 23.604978 27.217503 8
-101.725996 24.409590 26.524741 8
-98.641074 25.269858 25.849417 8
-95.441631 25.985534 25.074496 8
-92.291837 26.823641 24.355189 8
-89.033874 27.538145 23.546176 8
-85.732706 28.235837 22.709236 8
-82.417423 28.962203 21.871094 8
-79.060916 29.679021 21.008222 8
-75.646585 30.366050 20.107356 8
-72.158206 31.005427 19.156230 8
-68.636947 31.657268 18.191077 8
-65.008890 32.227042 17.151483 8
-59.538971 30.514544 14.628783 9
-59.079947 35.202667 16.183476 9
-56.788226 37.546785 16.235517 9
-54.066712 39.367740 15.939083 9
-51.413638 41.281277 15.692760 9
-48.762138 43.206442 15.443643 9
-45.891280 44.896456 15.024434 9
-42.729338 46.288755 14.387067 9
-39.098130 47.212388 13.406561 9
-34.904455 47.600765 12.025544 9
-30.615199 47.970278 10.595479 9
-26.218743 48.313779 9.109423 9
-21.671618 48.593520 7.538056 9
-16.982803 48.825801 5.890137 9
-15.286170 51.980727 6.351839 4
-14.593759 56.038684 7.489408 4
-13.884049 60.017075 8.585326 4
-13.068286 63.840866 9.580939 4
-13.382764 68.592665 11.308491 1
-11.468718 71.356212 11.515963 1
-8.526683 73.254561 11.035600 1
-5.610185 75.201758 10.573526 1
-18.395422 89.697455 20.269624 3
-17.906862 93.325914 21.278572 3
-12.869964 93.431905 19.372491 3
-7.860879 93.661491 17.510206 3
-4.890810 95.481392 16.947580 3
-0.916633 96.617016 15.765833 3
4.746853 96.636963 13.558822 3
-137.117184 -17.769568 25.242363 7
-137.087534 -9.149594 28.557960 7
-135.265714 -5.239402 29.536878 7
-132.962327 -2.595074 29.882839 7
-130.478341 -0.431068 29.985037 7
-127.904124 1.491183 29.961370 7
-125.243505 3.200205 29.823911 7
-122.531555 4.786982 29.617776 7
-119.772586 6.270980 29.351667 7
-116.960936 7.650184 29.023119 7
-114.665823 10.030705 29.222973 8
-112.793217 13.162455 29.828255 8
-111.122331 16.585963 30.598446 8
-109.097469 19.286203 30.981235 8
-106.712025 21.303325 30.989695 8
-103.563242 21.999904 30.260143 8
-100.129735 22.266063 29.274186 8
-96.665358 22.546374 28.276927 8
-93.377307 23.171301 27.456388 8
-90.220752 24.050183 26.764703 8
-87.075857 24.986224 26.090904 8
-83.815094 25.788431 25.323675 8
-80.489420 26.541529 24.510456 8
-77.158701 27.335732 23.703581 8
-73.748129 28.066754 22.840519 8
-70.325606 28.833009 21.979206 8
-66.829348 29.552458 21.069444 8
-59.479214 25.320175 17.087028 9
-59.446011 30.656236 18.977537 9
-58.306327 34.477698 19.947633 9
-55.592637 36.309029 19.669998 9
-52.997376 38.292877 19.479558 9
-50.436916 40.323326 19.310329 9
-47.715758 42.175236 19.015975 9
-44.840294 43.868083 18.605486 9
-41.585423 45.166624 17.918683 9
-37.806193 45.941619 16.860056 9
-33.651150 46.383834 15.547428 9
-29.462262 46.868479 14.230097 9
-25.173100 47.329311 12.861702 9
-20.737156 47.725295 11.411540 9
-16.239652 48.146238 9.940305 9
-13.102267 49.938410 9.412159 4
-12.264390 53.889570 10.430073 4
-11.326587 57.691547 11.354483 4
-10.260506 61.327449 12.169600 4
-9.118448 64.852242 12.912810 4
-9.518238 69.648459 14.632105 1
-6.350355 71.380211 14.028091 1
-9.368645 78.189947 17.355664 1
-19.099925 90.176455 24.842466 3
-17.928038 93.248039 25.391485 3
-12.856028 93.313778 23.513256 3
-7.765960 93.469901 21.650113 3
-2.504435 93.603428 19.708252 3
2.985785 93.680038 17.654962 3
13.158236 90.593195 12.828881 3
-122.394773 -17.710421 25.357183 7
-122.543959 -9.368498 28.487707 7
-120.884504 -5.251463 29.526046 7
-118.652839 -2.461958 29.901408 7
-116.050164 -0.490487 29.860394 8
-114.690758 3.908393 31.070602 8
-113.081135 7.682225 31.971152 8
-111.379766 11.173477 32.734633 8
-109.527029 14.293321 33.310920 8
-107.267376 16.612405 33.466910 8
-104.652273 18.277654 33.271564 8
-101.668987 19.314338 32.730143 8
-98.619419 20.268992 32.132392 8
-95.534756 21.199616 31.508743 8
-92.282045 21.898930 30.743538 8
-88.707684 22.146579 29.709965 8
-85.147641 22.483859 28.706305 8
-81.584707 22.881840 27.716735 8
-78.346296 23.813009 27.012395 8
-75.038593 24.687098 26.259179 8
-71.716871 25.586405 25.503696 8
-68.314245 26.420755 24.692674 8
-64.848389 27.219883 23.842143 8
-59.566478 25.713973 21.590574 9
-58.358234 29.531765 22.513145 9
-56.875897 32.935391 23.195621 9
-54.356994 35.022579 23.075198 9
-51.740510 36.994416 22.876041 9
-49.142349 38.994344 22.685869 9
-46.535723 40.991187 22.485069 9
-43.555438 42.578035 22.012534 9
-40.124195 43.697045 21.222506 9
-36.227742 44.363786 20.115279 9
-32.179517 44.937728 18.918232 9
-28.104031 45.555563 17.719540 9
-23.853455 46.068872 16.418797 9
-19.484217 46.542944 15.056959 9
-15.072033 47.056712 13.686158 9
-10.531380 47.530408 12.250213 9
-9.276291 51.130695 12.978824 4
-7.924434 54.600229 13.623786 4
-6.602786 58.059346 14.268953 4
-5.086344 61.312773 14.771775 4
-9.304616 69.418289 18.863129 1
-9.456512 73.905678 20.341440 1
-9.785054 78.456031 21.896309 1
-19.817508 90.667261 29.355419 3
-20.042673 94.806496 30.730625 3
-20.237444 98.850166 32.058646 3
-20.460153 102.845920 33.375683 3
-2.381976 93.381121 23.844278 3
3.039778 93.495198 21.887275 3
8.668777 93.574096 19.836500 3
-114.010984 -11.255950 29.594971 8
-113.729406 -4.393160 31.954849 8
-112.602661 0.538153 33.378353 8
-111.198164 4.767799 34.466362 8
-109.519328 8.352701 35.240196 8
-107.459425 11.144419 35.616318 8
-104.989582 13.148428 35.588230 8
-102.098739 14.401960 35.165758 8
-99.140231 15.558398 34.683046 8
-96.136863 16.663851 34.163001 8
-93.075509 17.702222 33.596018 8
-90.009014 18.763407 33.029287 8
-86.912813 19.809642 32.442197 8
-83.733422 20.762849 31.791353 8
-80.554396 21.754544 31.147695 8
-76.890503 22.082647 30.120030 8
-73.189019 22.425071 29.079316 8
-69.366185 22.667611 27.960303 8
-65.994387 23.594023 27.209145 8
-59.530436 20.470664 24.103095 9
-58.704183 24.873505 25.320797 9
-57.906089 29.213463 26.519989 9
-55.388062 31.322479 26.413752 9
-52.832205 33.384820 26.273404 9
-50.400288 35.596944 26.216667 9
-47.789465 37.597635 26.025335 9
-45.101934 39.517625 25.775952 9
-41.953069 40.933390 25.202971 9
-38.353245 41.888932 24.324172 9
-34.456234 42.579497 23.254083 9
-30.491898 43.265218 22.153557 9
-26.402780 43.890250 20.985196 9
-22.243186 44.515998 19.786860 9
-17.985764 45.118610 18.541534 9
-13.634544 45.706660 17.253166 9
-9.202864 46.297040 15.931494 9
-4.787760 46.982941 14.638947 9
-0.136294 47.532745 13.215764 9
-1.459498 53.472086 15.529880 4
0.638007 56.301585 15.686036 4
-9.983486 69.948107 23.601627 1
-8.523399 73.067656 24.055672 1
-6.824623 75.968577 24.352753 1
-4.566688 78.408770 24.306574 1
-17.377221 92.631669 33.138546 3
-20.947039 99.290872 36.413444 3
-21.127869 103.233589 37.664212 3
-21.350948 107.141790 38.913777 3
-21.492975 110.927371 40.092089 3
-21.690484 114.692012 41.278262 3
-21.874844 118.388151 42.433796 3
-110.569918 -17.526724 30.717632 8
-111.036068 -9.030484 33.771285 8
-110.259019 -3.321650 35.510364 8
-108.893486 1.055869 36.620188 8
-107.023918 4.355756 37.211830 8
-104.691011 6.729546 37.348803 8
-101.915622 8.280763 37.072426 8
-99.073851 9.720635 36.733250 8
-96.170240 11.065984 36.338284 8
-93.236812 12.377761 35.917478 8
-90.271507 13.656444 35.470362 8
-87.245351 14.860068 34.974229 8
-84.196094 16.053566 34.462030 8
-81.077575 17.169608 33.897426 8
-77.915598 18.253124 33.303092 8
-74.737498 19.347503 32.701643 8
-71.509245 20.405834 32.067163 8
-68.214805 21.410171 31.388778 8
-64.666334 22.112021 30.527094 8
-59.412387 20.612844 28.412411 9
-58.562585 24.965339 29.567100 9
-56.161864 27.256022 29.562061 9
-53.700096 29.462150 29.504551 9
-51.262470 31.693319 29.456761 9
-48.782270 33.869528 29.371886 9
-46.273594 36.011517 29.261052 9
-43.347273 37.678654 28.859504 9
-40.080082 38.987196 28.228797 9
-36.322991 39.798003 27.276878 9
-32.439279 40.532972 26.254138 9
-28.488787 41.262243 25.201919 9
-24.537686 42.056994 24.163931 9
-20.407994 42.737058 23.025687 9
-16.182518 43.394056 21.842691 9
-11.911191 44.080782 20.647582 9
-7.485531 44.696175 19.373219 9
-3.014107 45.348522 18.088699 9
1.597608 45.953420 16.736602 9
6.378418 46.491895 15.301368 9
11.313551 46.984767 13.794085 9
16.344728 47.488569 12.251231 9
-2.724131 68.173924 24.898667 1
-1.008609 71.149911 25.205056 1
0.707876 74.109992 25.500274 1
38.333075 48.977637 5.224206 9
46.825599 47.321957 1.828163 9
-11.185031 95.675960 35.919593 3
-15.187092 102.504137 39.288500 3
-18.967354 108.986802 42.474884 3
-22.366648 115.027653 45.396176 3
-22.527702 118.688676 46.502729 3
-22.701684 122.302404 47.595007 3
-22.844070 125.840930 48.649634 3
-23.031367 129.356514 49.708340 3
-23.189221 132.802328 50.731926 3
-106.311411 -10.304281 36.242056 8
-105.134247 -5.417312 37.531387 8
-103.004879 -2.462076 37.911140 8
-100.570934 -0.124061 37.996485 8
-97.989223 1.919043 37.937699 8
-95.328410 3.807618 37.800332 8
-92.575913 5.532160 37.577704 8
-89.762688 7.156203 37.299423 8
-86.904946 8.713996 36.981298 8
-84.004888 10.214814 36.626966 8
-81.000446 11.568201 36.189086 8
-77.980912 12.919983 35.740791 8
-74.882364 14.177650 35.233511 8
-71.775365 15.450694 34.723161 8
-68.595674 16.649239 34.161906 8
-65.375466 17.824225 33.575532 8
-59.449110 15.380222 31.023308 9
-58.915961 20.252069 32.405109 9
-56.585121 22.680237 32.466536 9
-54.244001 25.080416 32.510440 9
-51.893161 27.455743 32.537999 9
-49.487574 29.753844 32.519075 9
-47.099031 32.065589 32.504065 9
-44.351801 33.953791 32.241257 9
-41.343562 35.556883 31.803760 9
-37.816414 36.606055 31.028416 9
-34.036092 37.427647 30.098452 9
-30.150817 38.196711 29.113853 9
-26.288524 39.053302 28.157511 9
-22.326498 39.868837 27.151460 9
-18.327371 40.711633 26.136143 9
-14.152559 41.446414 25.026522 9
-9.940347 42.216248 23.909646 9
-5.565196 42.903538 22.709936 9
-1.155723 43.635701 21.506626 9
3.395185 44.316341 20.236367 9
8.101480 44.939800 18.892819 9
12.815478 45.641770 17.563793 9
17.782511 46.212420 16.107577 9
22.893509 46.754856 14.589798 9
28.162093 47.264044 13.004341 9
33.552652 47.775056 11.372894 9
39.126653 48.244437 9.662427 9
48.484787 45.922514 5.890512 9
65.714394 37.929591 -2.124427 5
70.932563 39.222367 -3.501671 5
-4.971894 98.814105 38.739181 3
-9.126894 105.596305 42.038861 3
-13.164220 112.113549 45.219573 3
-16.986025 118.310184 48.233162 3
-20.675888 124.255167 51.127392 3
-23.644916 129.580414 53.601217 3
-23.786693 132.999573 54.585138 3
-23.963165 136.392000 55.568894 3
-24.123660 139.727451 56.527042 3
-24.252099 142.998726 57.452222 3
-91.730392 -8.543877 37.015238 8
-89.962084 -4.883903 37.683145 8
-87.710012 -2.128377 37.925434 8
-85.252019 0.242544 37.983723 8
-82.656218 2.365189 37.920054 8
-79.943690 4.290243 37.756298 8
-77.133256 6.060837 37.511294 8
-74.255800 7.734803 37.211878 8
-71.280039 9.273730 36.837141 8
-68.265286 10.773173 36.433758 8
-65.159781 12.164301 35.965469 8
-58.951533 9.305484 33.281475 9
-56.593044 11.845870 33.373709 9
-56.653904 17.559316 35.141108 9
-54.965406 20.859803 35.651878 9
-52.195842 22.742155 35.406435 9
-49.919785 25.244920 35.490407 9
-47.562379 27.633592 35.510436 9
-45.014546 29.786402 35.397220 9
-42.165317 31.589732 35.083322 9
-36.171527 29.828851 32.749238 9
-35.155457 33.783407 33.621527 9
-31.447753 34.729400 32.776370 9
-27.666891 35.652500 31.896864 9
-23.834371 36.579201 30.997323 9
-19.911629 37.472350 30.054879 9
-15.869221 38.307122 29.053083 9
-11.772844 39.154655 28.032928 9
-7.562178 39.958971 26.959296 9
-3.357826 40.839776 25.904332 9
1.041888 41.608917 24.750564 9
5.461945 42.435183 23.601295 9
10.105387 43.138247 22.340861 9
14.831799 43.851373 21.051468 9
19.623834 44.592542 19.743574 9
24.668041 45.208384 18.314371 9
29.724217 45.906934 16.898866 9
34.989533 46.529759 15.389416 9
40.613715 46.968877 13.707683 9
52.105845 43.019701 8.912448 9
65.731229 37.767665 3.062337 5
70.539646 39.345651 1.940650 5
77.440533 39.494879 -0.258300 5
5.855067 94.926563 38.167626 3
1.258604 102.050797 41.602768 3
-3.189066 108.879534 44.904244 3
-7.409165 115.372510 48.035753 3
-11.417946 121.554768 51.009712 3
-15.300235 127.493016 53.872214 3
-18.983515 133.152107 56.590291 3
-24.697860 139.881744 60.259471 3
-24.826160 143.137938 61.156602 3
-20.402180 143.746920 59.842113 3
-75.236659 -15.701608 34.595883 8
-75.958319 -7.900862 37.159338 8
-74.153102 -4.334596 37.740686 8
-71.896762 -1.535312 37.960842 8
-69.376642 0.828932 37.971852 8
-66.732699 2.992742 37.883243 8
-59.329494 -1.692566 34.405525 9
-59.983426 5.240906 36.659229 9
-59.707848 10.686557 38.202298 9
-58.723525 15.033249 39.213082 9
-56.471540 17.611786 39.334420 9
-54.325949 20.305946 39.515501 9
-51.955523 22.690499 39.536092 9
-50.425178 26.102635 40.095579 9
-47.279203 27.504232 39.594595 9
-44.889136 29.833167 39.578852 9
-40.840500 30.228649 38.512658 9
-36.660383 30.548529 37.381285 9
-32.324514 30.773394 36.171892 9
-28.590135 31.738914 35.348174 9
-24.794787 32.694559 34.498681 9
-21.043425 33.753432 33.686834 9
-17.131482 34.701934 32.790734 9
-13.156745 35.647700 31.870095 9
-9.155049 36.628981 30.946400 9
-5.008372 37.532636 29.952130 9
-0.742677 38.390876 28.904077 9
3.536200 39.307564 27.863268 9
7.924098 40.195494 26.776147 9
12.473889 41.012786 25.614846 9
17.101997 41.839946 24.427087 9
21.855414 42.640008 23.188134 9
26.748363 43.406581 21.891726 9
31.793049 44.135748 20.532885 9
36.969789 44.849762 19.123620 9
42.826282 45.125062 17.378866 9
56.463399 39.550382 11.626158 9
65.785398 37.579039 8.184155 5
71.141126 38.740506 6.817058 5
77.665595 39.153158 4.877459 5
84.706037 39.329288 2.706664 5
92.009476 39.464780 0.436058 5
99.786927 39.427508 -2.036144 5
7.414193 105.448628 44.558879 3
2.786118 112.240816 47.800609 3
-1.634678 118.717782 50.889888 3
-5.889323 124.918046 53.850146 3
-25.263334 140.033363 63.941163 3
-25.417789 143.290113 64.823120 3
-21.567398 144.208863 63.817099 3
-15.688342 144.059431 61.882230 3
-56.075027 -25.343291 31.038640 9
-58.926841 -14.413707 34.983774 9
-63.038494 -2.021227 39.690042 9
-63.307571 4.408756 41.620901 9
-60.164971 5.857749 41.177663 9
-59.672238 10.972982 42.512074 9
-57.703669 13.972614 42.828333 9
-55.650819 16.821155 43.073620 9
-53.563218 19.592104 43.282704 9
-51.349307 22.175023 43.398680 9
-48.922467 24.474929 43.370395 9
-46.187409 26.394602 43.143606 9
-43.053767 27.851293 42.669507 9
-39.537272 28.893085 41.966046 9
-35.863118 29.803357 41.176541 9
-31.532675 30.037032 40.006555 9
-27.123147 30.267846 38.808688 9
-22.628692 30.493036 37.580385 9
-18.075028 30.743281 36.337424 9
-14.027419 31.600410 35.403427 9
-10.118555 32.661844 34.561178 9
-6.180851 33.753059 33.714053 9
-2.051299 34.717780 32.771764 9
2.086789 35.739737 31.837844 9
6.357442 36.703689 30.844556 9
10.740015 37.634984 29.804730 9
15.223816 38.548377 28.725393 9
19.787637 39.466832 27.618877 9
24.386803 40.431654 26.509376 9
29.251719 41.251381 25.277177 9
34.127477 42.147065 24.056928 9
39.289360 42.897786 22.707674 9
46.350031 42.253292 20.415871 9
65.540425 32.458598 12.067152 5
66.980192 36.535214 12.695216 5
72.818977 37.345129 11.136458 5
79.143203 37.911882 9.361921 5
85.641316 38.475860 7.528244 5
92.420831 38.969357 5.585040 5
99.750624 39.222309 3.406378 5
123.377441 28.885054 -6.471361 6
133.450773 27.896216 -9.819442 6
144.986712 26.203074 -13.802014 6
-25.839876 140.194112 67.583026 3
-26.001229 143.440079 68.440646 3
-21.938537 144.218830 67.370161 3
-16.324372 144.200728 65.616225 3
-10.497087 144.179365 63.791344 3
-2.386783 143.056988 60.979589 3
-55.778188 -18.679136 37.425059 9
-61.176666 -4.339327 42.855827 9
-59.966060 -0.000989 43.742904 9
-58.482405 3.855640 44.419259 9
-56.829488 7.402772 44.960464 9
-55.044370 10.709243 45.395572 9
-53.106786 13.763240 45.715936 9
-51.055034 16.629801 45.949848 9
-48.766682 19.166344 46.025049 9
-46.144593 21.273722 45.888030 9
-43.160179 22.944552 45.528990 9
-39.747012 24.128157 44.915946 9
-36.272056 25.281780 44.273750 9
-32.745945 26.421438 43.609616 9
-29.160471 27.541019 42.919573 9
-25.504749 28.632120 42.198285 9
-21.791212 29.712080 41.453805 9
-17.235564 29.963065 40.248469 9
-12.576656 30.195686 39.005158 9
-7.845383 30.445656 37.741930 9
-3.029301 30.703360 36.452616 9
1.280509 31.542101 35.455481 9
5.417274 32.615557 34.564836 9
9.548046 33.758047 33.689656 9
13.867906 34.791511 32.727703 9
18.257663 35.831527 31.743076 9
22.770089 36.835072 30.709385 9
27.430405 37.786291 29.615183 9
32.176719 38.743639 28.493276 9
37.022509 39.699494 27.337705 9
42.315576 40.379433 25.977342 9
53.518254 36.523169 21.738799 9
65.655355 32.238210 17.114507 5
69.517823 34.482658 16.554134 5
75.239341 35.403390 15.110891 5
81.184538 36.264757 13.582144 5
87.455765 37.003740 11.921870 5
93.983269 37.681920 10.165824 5
100.753020 38.318787 8.322817 5
121.829958 29.649386 -0.063714 6
130.447181 29.557031 -2.645004 6
139.878373 29.126313 -5.556941 6
150.418171 28.207926 -8.924096 6
-26.416458 140.357303 71.181032 3
-26.540298 143.566450 71.994916 3
-22.244406 144.193535 70.857056 3
-16.660345 144.176457 69.174097 3
-10.934710 144.194201 67.453553 3
-4.962126 144.194679 65.651053 3
2.069442 143.762599 63.422517 3
-56.255400 -17.513420 42.355313 9
-56.741442 -10.418054 44.387941 9
-56.165785 -5.058023 45.677292 9
-55.071198 -0.565252 46.596386 9
-53.677140 3.414440 47.296921 9
-52.062126 7.017734 47.835865 9
-50.221255 10.261155 48.216405 9
-48.030072 13.006732 48.369383 9
-45.528331 15.335500 48.326734 9
-42.580924 17.107046 48.015781 9
-39.318945 18.515041 47.522199 9
-35.953278 19.832884 46.973732 9
-32.561356 21.157725 46.416405 9
-29.077587 22.416627 45.813610 9
-25.515296 23.630464 45.174311 9
-21.889924 24.820954 44.508251 9
-18.246334 26.039676 43.840831 9
-14.494876 27.193445 43.123698 9
-10.705246 28.360009 42.395713 9
-6.780208 29.443432 41.605747 9
-2.198171 29.938022 40.482069 9
2.746777 30.165799 39.187200 9
7.827074 30.361499 37.843161 9
12.933637 30.632058 36.506952 9
17.456762 31.529956 35.486230 9
21.834521 32.632016 34.553137 9
26.187766 33.824097 33.645416 9
30.786238 34.874093 32.629915 9
35.418791 35.970358 31.612375 9
40.305420 36.933792 30.486717 9
47.846485 35.854072 28.107291 9
65.450187 27.052942 20.992160 5
67.298227 30.845573 21.405434 5
72.663946 31.971551 20.168146 5
78.296057 32.992278 18.825378 5
84.109133 33.980690 17.418975 5
90.157941 34.905345 15.925629 5
96.330781 35.852766 14.397909 5
102.923064 36.627856 12.704431 5
122.200186 29.152020 5.400999 6
130.188263 29.452521 3.185013 6
138.698319 29.580002 0.773070 6
147.696792 29.575317 -1.815702 6
-26.942073 140.492102 74.714543 3
-27.090654 143.701834 75.512965 3
-22.583795 144.189598 74.323761 3
-17.075668 144.199011 72.729821 3
-11.354043 144.201508 71.069368 3
-5.394626 144.191201 69.333816 3
0.743202 144.207081 67.549296 3
-51.127811 -18.203452 45.338139 9
-51.631662 -11.152887 47.283959 9
-51.098277 -5.763041 48.537842 9
-49.957269 -1.343639 49.385682 9
-48.355240 2.361118 49.930269 9
-46.363304 5.488308 50.224799 9
-43.950699 8.033999 50.260496 9
-41.050567 9.950263 50.008124 9
-37.967763 11.652458 49.651267 9
-34.784851 13.254764 49.240053 9
-31.550806 14.822791 48.803663 9
-28.213029 16.299395 48.314075 9
-24.818782 17.745560 47.798845 9
-21.366652 19.163472 47.258123 9
-17.849923 20.549514 46.689218 9
-14.204159 21.838898 46.059094 9
-10.554552 23.170563 45.435084 9
-6.783040 24.423282 44.756043 9
-2.951667 25.666460 44.055444 9
0.973615 26.869666 43.316735 9
4.964425 28.065252 42.555339 9
8.999295 29.276658 41.782649 9
13.727150 29.905143 40.679432 9
18.985052 30.136703 39.334475 9
24.352525 30.372762 37.957773 9
29.820516 30.625333 36.554557 9
34.602924 31.568175 35.498824 9
39.168157 32.772450 34.560939 9
45.287781 32.776760 32.911457 9
59.267781 26.606822 27.652798 9
66.336288 26.241109 25.650372 5
71.371900 27.585147 24.603421 5
76.621315 28.848542 23.475160 5
82.040231 30.073200 22.287501 5
87.670965 31.235586 21.023225 5
93.521436 32.338850 19.680800 5
99.533743 33.431846 18.287453 5
110.451311 31.316812 14.791921 5
123.944503 27.748178 10.244280 6
131.346987 28.434311 8.360529 6
139.187461 28.982828 6.319429 6
147.458415 29.415249 4.127849 6
-27.522127 140.661964 78.230926 3
-27.663427 143.852752 79.000165 3
-22.934453 144.194207 77.760918 3
-17.455709 144.203982 76.234604 3
-11.735240 144.190245 74.632819 3
-5.848592 144.201767 72.987567 3
0.295536 144.195889 71.263523 3
-42.757937 -17.051685 48.035359 9
-43.427996 -9.934715 49.957155 9
-42.084382 -5.720060 50.666274 9
-39.988115 -2.576498 50.923652 9
-37.581726 0.129908 50.994169 9
-34.932940 2.511548 50.922142 9
-32.137514 4.706967 50.765209 9
-29.226292 6.765731 50.543135 9
-26.190982 8.687528 50.253774 9
-23.032766 10.483367 49.900085 9
-19.803321 12.220979 49.511419 9
-16.492926 13.894717 49.083949 9
-13.058662 15.463436 48.596917 9
-9.546569 16.984436 48.075711 9
-5.975105 18.481894 47.530775 9
-2.300428 19.914418 46.941040 9
1.440761 21.324952 46.326061 9
5.286990 22.679246 45.667815 9
9.216119 24.004447 44.978368 9
13.245471 25.288508 44.250382 9
17.324018 26.583810 43.509291 9
21.517107 27.833225 42.724758 9
25.829965 29.037771 41.895619 9
30.639527 29.875113 40.848801 9
36.263587 30.099840 39.444531 9
42.021362 30.321967 38.001714 9
58.736887 21.689452 31.645982 9
64.878287 22.010178 30.119538 5
69.814119 23.395182 29.150628 5
75.600039 24.203677 27.822806 5
81.389839 25.112597 26.513531 5
86.738614 26.448577 25.414466 5
95.787432 25.202678 22.747713 5
97.620330 29.250815 23.186760 5
103.625582 30.394501 21.859862 5
119.750223 24.800857 16.324774 6
126.732875 25.653325 14.665610 6
133.763138 26.602988 13.011812 6
141.218411 27.411615 11.209368 6
149.004348 28.154079 9.300034 6
-28.087757 140.825315 81.701399 3
-28.176425 143.970625 82.424013 3
-23.265481 144.189481 81.156992 3
-17.826744 144.206020 79.701468 3
-12.124996 144.185940 78.164941 3
-6.272731 144.198781 76.592811 3
-0.165039 144.194044 74.945641 3
-24.286408 -16.643655 48.199310 9
-25.173644 -9.489501 50.095542 9
-23.706358 -5.428245 50.696949 9
-21.591798 -2.216463 50.940660 9
-19.085602 0.498870 50.971014 9
-16.413632 3.009437 50.910776 9
-13.484253 5.224497 50.716595 9
-10.436374 7.317150 50.462478 9
-7.276064 9.302671 50.153443 9
-3.940447 11.121905 49.760432 9
-0.525145 12.886391 49.332593 9
3.014171 14.555848 48.849749 9
6.590160 16.225584 48.355258 9
10.309887 17.792387 47.799043 9
14.139324 19.297403 47.198893 9
18.055150 20.768725 46.566955 9
22.081043 22.188969 45.893363 9
26.176061 23.600962 45.197979 9
30.409182 24.946683 44.450440 9
34.729266 26.277538 43.675078 9
39.118277 27.612870 42.880711 9
43.768710 28.794739 41.983569 9
64.675594 16.743056 34.036784 5
69.237049 18.414341 33.265984 5
74.141851 19.880177 32.359865 5
79.163377 21.331040 31.417940 5
84.428109 22.676526 30.388116 5
90.479541 23.526583 29.046392 5
96.625763 24.416346 27.686315 5
102.959994 25.282906 26.270260 5
117.818613 20.368575 21.412813 6
124.091803 21.629423 20.092455 6
130.577108 22.857520 18.707515 6
137.322580 24.029786 17.240586 6
144.458048 25.073912 15.642627 6
-28.604630 140.961268 85.114490 3
-28.707242 144.101149 85.818091 3
-23.644924 144.214643 84.539928 3
-18.178340 144.199135 83.128010 3
-12.559065 144.208259 81.680002 3
-6.703550 144.201735 80.165627 3
-0.630441 144.197248 78.593360 3
-4.973510 -15.946573 48.432660 9
-5.854652 -9.010439 50.193929 9
-4.333873 -4.971772 50.741521 9
-2.181529 -1.694252 50.968443 9
0.392774 1.095376 50.984974 9
3.241268 3.584199 50.867599 9
6.278332 5.880516 50.660600 9
9.508818 7.992061 50.364543 9
12.889227 9.974960 50.002150 9
16.400468 11.857354 49.584155 9
20.009457 13.679012 49.127176 9
23.767892 15.396795 48.609380 9
27.656144 17.037278 48.041264 9
31.636895 18.641326 47.440675 9
35.737131 20.189700 46.796910 9
39.881202 21.754309 46.143777 9
44.376460 23.074801 45.350678 9
52.371260 21.537462 43.091721 9
71.293939 11.237544 36.295404 5
75.705497 13.124287 35.637794 5
80.267471 14.950380 34.928096 5
85.041998 16.674964 34.142412 5
90.026487 18.309718 33.283833 5
95.175108 19.897789 32.372699 5
100.579449 21.379973 31.373997 5
117.207068 15.011741 25.961470 6
122.822771 16.687148 24.946928 6
128.983720 18.081426 23.736556 6
135.693413 19.215361 22.333831 6
142.099750 20.664035 21.069130 6
148.676217 22.112985 19.759816 6
-29.129483 141.104038 88.494627 3
-29.163989 144.189854 89.148750 3
-23.975119 144.213202 87.872894 3
-18.532967 144.195916 86.524369 3
-12.942991 144.205066 85.143114 3
-7.121667 144.200116 83.699953 3
-1.058291 144.183121 82.192568 3
15.269086 -14.940839 48.747280 9
14.602423 -8.400934 50.296350 9
16.173619 -4.349358 50.802999 9
18.432597 -1.054153 50.989712 9
21.171426 1.737979 50.957875 9
24.192111 4.252140 50.800581 9
27.406285 6.591091 50.559858 9
30.821533 8.759520 50.234950 9
34.431653 10.775003 49.830985 9
38.156264 12.721500 49.384149 9
42.066416 14.542158 48.866080 9
46.993106 15.523202 47.934984 9
74.076273 -2.320631 37.932452 5
76.858842 0.996135 37.982643 5
80.190626 3.862885 37.809320 5
83.980178 6.381525 37.454963 5
88.098898 8.676245 36.975304 5
92.452017 10.836159 36.410895 5
97.072993 12.847189 35.750993 5
101.895760 14.770507 35.023643 5
120.127779 7.067720 29.172501 6
124.988288 9.301992 28.496008 6
130.082355 11.438984 27.742464 6
135.583914 13.370832 26.848887 6
141.343398 15.214151 25.874252 6
147.485693 16.898404 24.774721 6
-29.657606 141.250722 91.840907 3
-29.472050 144.192229 92.393621 3
-24.262229 144.188541 91.161215 3
-18.897982 144.200472 89.894104 3
-13.314348 144.196944 88.570567 3
-7.548749 144.205517 87.204951 3
-1.557494 144.208914 85.783344 3
36.616385 -13.677864 49.125286 9
36.366343 -7.657807 50.407104 9
38.045337 -3.618332 50.859073 9
40.483162 -0.339104 50.987493 9
43.498969 2.392309 50.875452 9
96.147896 -9.301125 36.832382 5
96.686858 -3.923396 37.792632 5
99.169764 -0.150017 37.995842 5
102.511285 2.951795 37.871134 5
132.980527 -8.361642 28.798124 6
133.279545 -2.636085 29.872505 6
136.182844 1.167643 29.978741 6
140.147573 4.238699 29.699357 6
144.760348 6.905531 29.192360 6
149.872859 9.295225 28.516248 6
-30.192252 141.403244 95.155413 3
-29.792455 144.203524 95.615143 3
-24.630298 144.212521 94.449896 3
-19.256566 144.203217 93.232180 3
-13.719707 144.209600 91.979557 3
-7.931969 144.189297 90.663819 3
-1.991730 144.202722 89.318988 3
-30.710731 141.547755 98.431425 3
-30.075559 144.194177 98.797489 3
-24.916462 144.190575 97.683486 3
-19.608387 144.203884 96.539801 3
-14.044797 144.179622 95.333060 3
-8.338651 144.187762 94.100881 3
-2.444906 144.208697 92.829776 3
-31.189182 141.669620 101.663079 3
-30.373629 144.195178 101.959644 3
-25.271563 144.210278 100.913493 3
-19.949935 144.200392 99.817172 3
-14.447566 144.194548 98.683967 3
-8.732490 144.181191 97.505160 3
-2.847359 144.189881 96.294921 3
-31.723208 141.827015 104.882075 3
-30.690934 144.209055 105.103233 3
-25.574834 144.201321 104.101970 3
-20.293197 144.199488 103.069255 3
-14.838727 144.204797 102.003875 3
-9.132456 144.179797 100.883741 3
-3.317231 144.208809 99.751727 3
-32.190744 141.945456 108.051705 3
-30.987551 144.211954 108.216918 3
-25.879073 144.194348 107.267045 3
-20.617674 144.189413 106.291146 3
-15.172294 144.184626 105.281325 3
-9.543357 144.186150 104.238724 3
-3.727361 144.197941 103.163382 3
-32.719412 142.102786 111.210924 3
-31.240975 144.190313 111.296286 3
-26.158462 144.174211 110.402585 3
-20.978385 144.201511 109.499386 3
-15.571762 144.202807 108.552630 3
-9.971476 144.203640 107.572328 3
-4.146972 144.193934 106.551484 3
-33.224144 142.247004 114.335814 3
-31.527945 144.189937 114.363981 3
-26.507461 144.196106 113.534916 3
-21.310019 144.198428 112.676700 3
-15.921937 144.195004 111.786808 3
-10.361522 144.202028 110.870885 3
-4.590401 144.204402 109.920226 3
-33.626800 139.346735 116.953809 3
-33.700744 142.375435 117.427218 3
-31.797761 144.180451 117.406983 3
-26.857220 144.219776 116.645251 3
-21.636664 144.193845 115.831012 3
-16.311101 144.210494 115.008029 3
-10.748897 144.200530 114.145306 3
-4.969425 144.182163 113.248704 3
-34.100272 139.487317 120.040979 3
-34.178947 142.506217 120.494175 3
-32.098880 144.190861 120.438166 3
-27.112325 144.189151 119.712310 3
-22.021594 144.224017 118.977957 3
-16.646297 144.197158 118.194458 3
-11.132490 144.198469 117.396366 3
-5.422714 144.201260 116.571469 3
-36.641849 137.961385 123.153648 0
-36.668080 140.944497 123.573810 0
-36.739948 143.918222 124.000378 0
-36.324787 146.561732 124.315764 0
-27.428062 144.195249 122.774669 3
-22.302661 144.195817 122.080944 3
-17.034797 144.215084 121.372164 3
-11.532967 144.207125 120.629518 3
-5.801484 144.181995 119.855108 3
-37.096000 138.106350 126.181693 0
-37.164099 141.103228 126.590180 0
-37.209136 144.047588 126.990471 0
-36.698422 146.620943 127.272417 0
-30.418947 145.777402 126.367973 0
-25.309566 145.737992 125.721343 0
-17.332185 144.183072 124.510761 3
-11.883597 144.189775 123.831631 3
-6.224837 144.188119 123.127046 3
-37.608062 138.289662 129.199223 0
-37.636637 141.248386 129.578976 0
-37.690203 144.185482 129.960904 0
-37.043161 146.663847 130.204212 0
-30.876885 145.871639 129.385858 0
-25.783166 145.825190 128.790519 0
-20.499160 145.769663 128.174088 0
-15.051944 145.726111 127.542548 0
-6.646157 144.194595 126.377792 3
-38.063040 138.437366 132.183362 0
-38.072121 141.371324 132.539459 0
-38.171134 144.324476 132.909820 0
-37.351024 146.685518 133.111641 0
-31.304524 145.949232 132.377592 0
-26.268976 145.920754 131.840741 0
-21.050496 145.885623 131.286057 0
-15.609192 145.827692 130.707437 0
-10.003792 145.785904 130.116072 0
-5.088766 146.215405 129.659030 0
-38.518475 138.586389 135.147133 0
-38.591725 141.548366 135.494603 0
-38.626392 144.448758 135.833697 0
-37.643259 146.698664 136.000499 0
-31.810549 146.074306 135.363221 0
-26.800405 146.043979 134.877848 0
-21.541193 145.968746 134.365837 0
-16.164354 145.929626 133.849558 0
-10.571791 145.876918 133.313846 0
-5.596169 146.256973 132.891677 0
-38.990072 138.746824 138.093804 0
-39.033504 141.677370 138.416331 0
-39.065740 144.564265 138.735854 0
-37.876210 146.676798 138.865411 0
-33.055706 146.638072 138.441612 0
-27.226226 146.107373 137.877935 0
-22.082123 146.081600 137.433244 0
-16.688834 146.016023 136.965570 0
-11.158448 145.979545 136.492523 0
-6.087439 146.291466 136.101712 0
-39.451802 138.901853 141.019714 0
-39.478992 141.809682 141.320276 0
-39.526599 144.694079 141.623030 0
-36.665632 145.781313 141.513655 0
-32.420081 146.089524 141.217716 0
-29.398973 147.184645 141.102826 0
-22.441271 146.092704 140.455279 0
-17.223440 146.109372 140.063014 0
-11.641347 146.027435 139.635748 0
-6.572237 146.323896 139.291869 0
-39.859120 139.022625 143.920130 0
-39.920432 141.940362 144.206028 0
-39.993307 144.828502 144.493093 0
-36.962345 145.798424 144.381381 0
-32.653277 146.055909 144.115065 0
-27.858000 146.109738 143.798786 0
-22.637749 146.012408 143.442114 0
-17.506978 146.064618 143.110132 0
-13.843605 147.009852 142.970479 0
-7.020953 146.338478 142.459645 0
-40.172236 136.178633 146.534098 0
-40.351973 139.199553 146.814626 0
-40.385625 142.086976 147.077768 0
-40.435570 144.948713 147.343023 0
-37.271566 145.823862 147.237821 0
-32.896564 146.028951 147.002546 0
-28.134179 146.089087 146.734676 0
-22.996396 146.024980 146.437043 0
-17.884481 146.072938 146.155415 0
-12.573005 146.108357 145.865159 0
-7.542772 146.393078 145.619004 0
-40.724067 136.408371 149.438631 0
-40.794271 139.344615 149.686145 0
-40.846197 142.231538 149.932320 0
-40.907066 145.087956 150.180062 0
-37.565391 145.840650 150.080356 0
-33.237467 146.060706 149.889346 0
-28.415260 146.071998 149.659703 0
-23.387172 146.056718 149.421730 0
-18.277520 146.090840 149.188378 0
-12.837253 146.040741 148.935983 0
-7.964059 146.395411 148.751419 0
-41.214222 136.598165 152.318720 0
-41.262085 139.507003 152.544462 0
-41.280510 142.360259 152.768614 0
-41.351889 145.211493 152.998729 0
-37.868968 145.864020 152.912545 0
-33.535858 146.067875 152.760037 0
-28.702358 146.059087 152.574510 0
-23.692865 146.040804 152.385603 0
-18.557557 146.046612 152.198264 0
-13.211839 146.034012 152.005921 0
-8.424717 146.419743 151.873059 0
-41.704377 136.788734 155.182508 0
-41.709585 139.656982 155.385653 0
-41.743523 142.507984 155.592701 0
-41.747216 145.305021 155.799015 0
-38.139540 145.867894 155.731455 0
-33.942700 146.140371 155.628354 0
-28.965338 146.032731 155.477351 0
-24.027067 146.041859 155.340991 0
-18.906238 146.041394 155.203263 0
-13.572756 146.020661 155.062713 0
-8.904687 146.455412 154.981807 0
-42.124871 136.933838 158.026053 0
-42.138441 139.795561 158.211344 0
-42.171665 142.634280 158.400014 0
-42.219435 145.447161 158.591676 0
-38.462417 145.904213 158.544473 0
-34.227532 146.140747 158.476426 0
-29.312243 146.055987 158.376516 0
-26.276593 147.139119 158.401762 0
-19.296809 146.060343 158.199910 0
-13.929257 146.005662 158.108179 0
-9.330688 146.463210 158.073480 0
-42.593352 137.111421 160.859145 0
-42.576791 139.940970 161.024463 0
-42.606517 142.765529 161.194787 0
-42.652094 145.565383 161.368431 0
-38.736092 145.911041 161.345148 0
-34.480862 146.122809 161.314161 0
-29.604984 146.048177 161.262774 0
-26.669829 147.176893 161.315121 0
-19.745300 146.112498 161.188101 0
-14.297013 145.997541 161.143956 0
-9.813600 146.502357 161.155875 0
-43.024378 137.264759 163.677129 0
-43.034270 140.099466 163.825706 0
-43.046710 142.900836 163.977390 0
-43.081817 145.682442 164.132912 0
-39.006089 145.916074 164.137785 0
-34.788445 146.137796 164.146615 0
-29.910908 146.048605 164.141329 0
-26.878017 147.109207 164.211374 0
-19.999036 146.056152 164.157717 0
-14.639768 145.976372 164.169154 0
-10.228342 146.505808 164.223531 0
-43.459692 137.421517 166.483318 0
-43.474085 140.247073 166.614036 0
-43.503250 143.047201 166.748579 0
-43.520436 145.805691 166.886207 0
-39.324952 145.951444 166.924493 0
-35.043596 146.121822 166.969856 0
-30.224339 146.053926 167.012251 0
-13.444977 139.205584 166.798597 0
-20.390061 146.077391 167.124049 0
-15.017267 145.974887 167.186700 0
-10.715602 146.548974 167.282581 0
-43.900301 137.582337 169.278241 0
-43.907344 140.390969 169.390979 0
-43.923616 143.171055 169.507726 0
-43.911409 145.899714 169.627961 0
-39.595649 145.957722 169.702945 0
-35.285557 146.098284 169.787025 0
-30.557190 146.071117 169.876071 0
-26.811700 146.697113 169.984414 0
-20.628977 146.013609 170.080035 0
-15.329821 145.938230 170.195200 0
-11.141814 146.560059 170.330042 0
-44.330516 137.736745 172.062360 0
-44.336548 140.532739 172.157471 0
-44.394218 143.327578 172.256878 0
-44.330195 146.011670 172.360628 0
-39.828847 145.941312 172.475677 0
-35.572047 146.101810 172.599200 0
-30.848814 146.064486 172.732903 0
-27.829220 147.096163 172.870738 0
-21.017224 146.034313 173.031027 0
-15.749975 145.961348 173.197078 0
-11.575093 146.575592 173.368606 0
-44.759600 137.890866 174.836649 0
-44.800998 140.698036 174.913821 0
-44.801133 143.443864 174.996285 0
-44.733417 146.114360 175.084394 0
-40.150189 145.979319 175.242997 0
-35.836433 146.092353 175.406342 0
