ply
format ascii 1.0
element vertex 1355
property float x
property float y
property float z
property int scalar_Label
end_header
10.159997 102.213874 -41.445956 3
6.022557 104.966210 -40.409841 3
34.084684 111.692514 -33.904177 3
30.028991 109.252042 -34.660530 3
26.021548 106.870361 -35.394138 3
22.061026 104.491287 -36.124579 3
18.144011 102.196769 -36.823312 3
14.269720 99.926811 -37.511250 3
10.440412 97.610116 -38.213314 3
6.650823 95.343129 -38.895861 3
34.154178 106.869305 -30.655065 3
30.134920 104.518728 -31.410109 3
26.162773 102.180574 -32.157931 3
22.235648 99.899833 -32.882332 3
18.354531 97.566468 -33.623065 3
14.513730 95.338229 -34.323187 3
10.714772 93.110339 -35.020564 3
6.934163 91.249568 -35.582428 3
2.993450 92.056194 -35.174857 3
30.239207 99.818466 -28.226595 3
26.302064 97.538402 -28.982343 3
22.409873 95.270914 -29.730254 3
18.559358 93.084947 -30.444600 3
14.738440 91.193631 -31.045629 3
10.922046 89.892645 -31.422431 3
7.104776 88.965488 -31.655631 3
3.273871 88.419719 -31.742057 3
30.341860 95.197577 -25.090623 3
26.438967 92.989613 -25.847652 3
22.572315 91.146896 -26.460022 3
18.722695 89.901845 -26.837662 3
14.881512 89.000968 -27.078152 3
11.040193 88.391115 -27.201781 3
7.179588 88.224679 -27.149244 3
3.323069 87.978879 -27.122800 3
-0.549193 87.914331 -27.021365 3
26.560118 89.815398 -22.239157 3
22.694257 88.925847 -22.494176 3
18.833596 88.391179 -22.602811 3
14.966904 88.200240 -22.569223 3
11.101337 87.994304 -22.536545 3
7.236522 87.774713 -22.504233 3
3.368524 87.591335 -22.452300 3
-0.504470 87.443350 -22.381012 3
-4.459821 88.143106 -21.964331 3
42.964662 13.255091 -49.216787 9
39.841805 12.771442 -49.356911 9
36.732460 12.392810 -49.449644 9
33.631054 11.953156 -49.563197 9
30.538865 11.471475 -49.689803 9
27.455148 11.088371 -49.771619 9
24.379211 10.660064 -49.867797 9
21.309250 10.270946 -49.943587 9
18.245079 9.881578 -50.015219 9
15.190212 9.412382 -50.115543 9
12.139296 8.980320 -50.196304 9
9.093091 8.550710 -50.271800 9
6.050587 8.127720 -50.340294 9
3.006830 7.756041 -50.383253 9
-0.022126 7.259137 -50.473798 9
-3.053324 6.815960 -50.537793 9
-6.082375 6.372885 -50.597434 9
-9.114424 5.963641 -50.638673 9
-12.143054 5.532591 -50.684605 9
-15.173549 5.114201 -50.720869 9
-18.191778 4.617466 -50.785395 9
-21.217711 4.165889 -50.826673 9
-24.244486 3.711958 -50.864478 9
-27.280860 3.297119 -50.881421 9
-30.308380 2.824088 -50.918203 9
-33.347860 2.393250 -50.932724 9
-36.387368 1.944185 -50.950280 9
-39.425101 1.469215 -50.974095 9
-42.480942 1.047931 -50.970599 9
-45.734951 1.354983 -50.654636 9
-49.630774 3.917313 -49.378638 9
52.061879 7.931689 -47.688490 9
48.676187 2.868803 -49.788727 9
45.545439 0.631516 -50.689532 9
42.523901 -0.155945 -50.972382 9
39.539816 -0.328780 -50.990466 9
36.561974 -0.437879 -50.976987 9
33.586501 -0.606683 -50.984262 9
30.614680 -0.774715 -50.986661 9
27.645924 -0.943811 -50.984955 9
24.680481 -1.153195 -50.995808 9
21.715927 -1.302064 -50.976376 9
18.755214 -1.522253 -50.982698 9
15.794492 -1.707121 -50.969409 9
12.833427 -1.878403 -50.945724 9
9.877714 -2.128998 -50.951236 9
6.919094 -2.335952 -50.933520 9
3.961202 -2.559332 -50.918172 9
1.005660 -2.815504 -50.912189 9
-1.949988 -3.079057 -50.904705 9
-4.909176 -3.325248 -50.885100 9
-7.873927 -3.547538 -50.850517 9
-10.829593 -3.855964 -50.848150 9
-13.797730 -4.098705 -50.812808 9
-16.758319 -4.412077 -50.803043 9
-19.729722 -4.683212 -50.770276 9
-22.704657 -4.961319 -50.735638 9
-25.677505 -5.276693 -50.712188 9
-28.651308 -5.612059 -50.692471 9
-31.643117 -5.889886 -50.642880 9
-34.632217 -6.210699 -50.606884 9
-37.624105 -6.548658 -50.573279 9
-40.627822 -6.868366 -50.526640 9
-43.668018 -7.081182 -50.428231 9
-46.942058 -6.484541 -49.971008 9
-50.669203 -4.408754 -48.860264 9
-55.322851 0.569077 -46.469231 9
58.336567 7.491364 -44.049461 9
54.718772 1.097131 -46.807866 9
51.397525 -3.125271 -48.615248 9
48.272771 -5.676594 -49.689565 9
45.265894 -7.049301 -50.245239 9
42.326792 -7.546718 -50.414258 9
39.412292 -7.653009 -50.407719 9
36.501148 -7.767068 -50.399753 9
33.593464 -7.848791 -50.372826 9
30.687631 -7.954021 -50.351341 9
27.783937 -8.096363 -50.341265 9
24.881809 -8.218356 -50.317445 9
21.981885 -8.380405 -50.306331 9
19.082768 -8.531848 -50.285721 9
16.181684 -8.636199 -50.239572 9
13.286826 -8.859352 -50.240707 9
10.384595 -8.969242 -50.187183 9
7.486319 -9.152973 -50.161203 9
4.582426 -9.288961 -50.109265 9
1.685830 -9.522137 -50.095190 9
-1.219492 -9.690160 -50.047422 9
-4.127917 -9.859392 -49.995162 9
-7.028839 -10.112502 -49.974945 9
-9.939283 -10.318341 -49.928785 9
-12.852652 -10.532569 -49.881248 9
-15.767486 -10.765938 -49.837079 9
-18.683525 -11.019883 -49.796907 9
-21.607163 -11.260152 -49.745481 9
-24.543813 -11.464843 -49.672972 9
-27.477196 -11.720031 -49.617671 9
-30.417132 -11.976638 -49.557689 9
-33.369151 -12.213312 -49.483421 9
-36.314767 -12.511680 -49.431350 9
-39.274155 -12.786684 -49.363365 9
-42.242598 -13.061572 -49.289807 9
-45.325618 -12.955778 -49.039249 9
-48.652125 -12.066438 -48.429048 9
-52.457186 -9.695521 -47.141889 9
-56.768026 -5.920230 -45.208981 9
-61.459067 -1.285533 -42.873689 9
-67.643035 7.467129 -38.653083 9
-76.108735 12.092102 -36.019014 8
-78.937320 10.258567 -36.579399 8
-81.889981 8.800521 -36.963758 8
-84.937619 7.607994 -37.221462 8
-88.023971 6.515999 -37.427567 8
-91.141097 5.494985 -37.595333 8
-94.311227 4.589378 -37.703945 8
-97.479630 3.663010 -37.816012 8
-100.689342 2.811275 -37.887234 8
-103.917504 1.977075 -37.943836 8
-108.740848 4.471552 -36.440985 8
64.505480 5.778570 -40.923029 9
60.871604 0.560572 -43.250901 9
57.453350 -3.593825 -45.096150 9
54.191042 -6.986676 -46.594530 9
51.038775 -9.906345 -47.875651 9
48.015812 -11.802844 -48.692219 9
45.081035 -12.836207 -49.115925 9
42.196649 -13.247097 -49.254732 9
39.333738 -13.313155 -49.233329 9
36.472925 -13.406217 -49.218979 9
33.615230 -13.459854 -49.181765 9
30.758785 -13.562113 -49.161345 9
27.904017 -13.658410 -49.133125 9
25.050869 -13.783471 -49.112764 9
22.198633 -13.903000 -49.084783 9
19.344401 -13.963749 -49.025096 9
16.495500 -14.155833 -49.019619 9
13.640021 -14.228503 -48.954962 9
10.789260 -14.398289 -48.929070 9
7.932673 -14.507417 -48.870491 9
5.078425 -14.670315 -48.831056 9
2.219981 -14.813058 -48.777223 9
-0.639993 -14.969654 -48.724399 9
-3.501029 -15.145019 -48.674807 9
-6.368276 -15.300956 -48.611033 9
-9.236732 -15.480063 -48.552442 9
-12.102910 -15.703708 -48.508790 9
-14.979369 -15.891757 -48.443463 9
-17.857110 -16.104623 -48.384016 9
-20.739711 -16.322313 -48.321281 9
-23.630465 -16.530592 -48.248680 9
-26.531533 -16.723572 -48.163436 9
-29.436743 -16.934282 -48.080670 9
-32.351210 -17.140909 -47.990298 9
-35.254308 -17.431586 -47.932950 9
-38.179571 -17.665865 -47.843781 9
-41.123523 -17.866395 -47.733094 9
-44.095757 -18.004936 -47.587632 9
-47.257481 -17.530009 -47.150811 9
-50.696777 -16.218360 -46.317063 9
-54.585537 -13.609730 -44.869402 9
-58.686944 -10.582461 -43.214770 9
-62.810966 -7.755002 -41.641352 9
-68.529835 -0.544756 -37.999091 8
-71.679598 -1.085321 -37.980056 8
-74.839044 -1.628396 -37.955633 8
-78.008720 -2.174362 -37.925916 8
-81.194708 -2.709439 -37.884300 8
-84.383232 -3.270775 -37.848264 8
-87.590507 -3.819034 -37.799091 8
-90.804645 -4.385118 -37.751350 8
-94.052012 -4.909529 -37.676573 8
-97.317136 -5.431868 -37.593450 8
-100.580098 -5.997150 -37.523454 8
-103.859107 -6.565780 -37.447554 8
-107.814096 -5.791905 -36.716279 8
-123.362032 10.256118 -28.185195 7
-125.985374 7.837601 -28.952397 7
-128.984194 6.156095 -29.356314 7
-132.147616 4.777854 -29.606021 7
-135.398706 3.544728 -29.777727 7
-138.698832 2.378679 -29.909087 7
-142.105014 1.369115 -29.955501 7
-145.541285 0.379093 -29.983928 7
-149.006161 -0.596882 -29.996836 7
105.093663 3.211253 -37.772798 5
101.881366 3.168825 -37.858439 5
98.746069 3.390015 -37.815592 5
95.586166 3.461130 -37.836139 5
92.458993 3.632608 -37.804043 5
89.320311 3.704367 -37.812033 5
86.192656 3.781270 -37.811561 5
83.074939 3.861941 -37.803299 5
79.965977 3.944050 -37.788357 5
76.856207 3.971725 -37.792613 5
73.755740 4.005995 -37.787850 5
70.662801 4.040196 -37.777177 5
67.569454 4.016780 -37.787237 5
63.551863 -4.025136 -41.501143 9
60.212364 -7.312250 -43.009848 9
56.988753 -10.165870 -44.312657 9
53.843929 -12.853841 -45.533638 9
50.784575 -15.206139 -46.594209 9
47.829349 -16.753862 -47.277281 9
44.948350 -17.572427 -47.617585 9
42.107308 -17.914325 -47.731852 9
39.284477 -17.972076 -47.709112 9
36.463478 -18.060621 -47.695261 9
33.645434 -18.117404 -47.661291 9
30.828682 -18.238803 -47.651912 9
28.013323 -18.278517 -47.599212 9
25.198923 -18.372575 -47.566334 9
22.384832 -18.461501 -47.525651 9
19.571425 -18.572339 -47.489727 9
16.758540 -18.699448 -47.455938 9
13.943043 -18.792725 -47.400929 9
11.127846 -18.915173 -47.354029 9
8.311474 -19.044663 -47.304915 9
5.491713 -19.161113 -47.244183 9
2.671157 -19.299035 -47.187928 9
-0.150853 -19.451753 -47.133022 9
-2.978633 -19.585483 -47.063615 9
-5.806330 -19.752252 -47.004053 9
-8.639266 -19.912379 -46.935707 9
-11.480378 -20.052214 -46.852103 9
-14.315042 -20.266607 -46.797827 9
-17.162558 -20.437049 -46.717083 9
-20.014562 -20.618545 -46.635711 9
-22.865369 -20.840831 -46.567737 9
-25.737928 -20.991514 -46.459971 9
-28.599491 -21.231885 -46.388684 9
-31.487161 -21.392324 -46.273455 9
-34.372463 -21.603289 -46.176091 9
-37.262599 -21.832466 -46.081242 9
-40.172083 -22.025386 -45.962886 9
-43.086656 -22.240374 -45.848740 9
-46.133726 -22.034742 -45.526807 9
-49.400863 -21.165775 -44.879483 9
-53.020482 -19.282482 -43.736194 9
-56.817313 -17.040082 -42.409454 9
-60.593520 -15.072464 -41.203795 9
-64.658608 -12.458931 -39.674634 9
-69.496332 -7.910466 -37.195318 8
-72.646961 -8.290988 -37.091591 8
-75.817028 -8.659148 -36.974570 8
-78.966664 -9.119816 -36.895236 8
-82.161998 -9.503248 -36.770821 8
-85.339753 -9.970175 -36.679679 8
-88.571893 -10.347592 -36.537024 8
-91.788912 -10.802643 -36.424679 8
-95.013595 -11.280727 -36.315847 8
-98.296312 -11.673820 -36.157031 8
-101.574393 -12.121625 -36.017053 8
-104.922038 -12.470820 -35.819711 8
-109.177766 -11.067141 -34.739298 8
-117.360537 -2.205082 -29.914243 7
-120.741003 -2.909529 -29.852420 7
-124.140779 -3.615309 -29.782609 7
-127.587787 -4.274097 -29.680257 7
-131.028118 -4.985693 -29.595488 7
-134.542793 -5.609620 -29.457021 7
-138.046633 -6.296396 -29.340919 7
-141.620219 -6.912031 -29.178791 7
-145.189993 -7.580853 -29.033823 7
-148.818091 -8.204333 -28.855351 7
147.140918 16.826822 -25.864071 6
111.093476 0.373236 -34.909594 5
106.563379 -4.542914 -37.348178 5
103.296782 -5.026992 -37.659345 5
100.199550 -4.926198 -37.684323 5
97.121061 -4.796315 -37.688923 5
94.043530 -4.709371 -37.707578 5
90.977630 -4.618668 -37.718035 5
87.921823 -4.527848 -37.722073 5
84.876452 -4.431617 -37.717209 5
81.827970 -4.400306 -37.736992 5
78.793859 -4.339538 -37.736472 5
75.763011 -4.309028 -37.744133 5
72.740852 -4.274474 -37.743660 5
69.721082 -4.275973 -37.754175 5
66.164196 -8.551789 -39.794124 9
62.930766 -10.892214 -40.906285 9
59.770458 -13.067373 -41.933847 9
56.648466 -15.378443 -43.020411 9
53.586790 -17.609256 -44.063176 9
50.590498 -19.648779 -45.009369 9
47.685139 -20.994857 -45.619739 9
44.844038 -21.726151 -45.931636 9
42.040768 -21.993090 -46.016595 9
39.253244 -22.006974 -45.975218 9
36.465775 -22.089635 -45.960972 9
33.681000 -22.153656 -45.932153 9
30.897813 -22.173544 -45.876561 9
28.115273 -22.259728 -45.846942 9
25.334244 -22.378391 -45.827159 9
22.552575 -22.442315 -45.775487 9
19.771364 -22.534869 -45.731786 9
16.990070 -22.638722 -45.687759 9
14.206143 -22.715674 -45.625072 9
11.426267 -22.878170 -45.597652 9
8.641849 -22.996109 -45.543065 9
5.850507 -23.065087 -45.459108 9
3.065399 -23.232549 -45.416660 9
0.270288 -23.333923 -45.336523 9
-2.522638 -23.488307 -45.276013 9
-5.320213 -23.637017 -45.206833 9
-8.127158 -23.752954 -45.115830 9
-10.934009 -23.906918 -45.037172 9
-13.747775 -24.053309 -44.948779 9
-16.569738 -24.189656 -44.849384 9
-19.389480 -24.375950 -44.768066 9
-22.217247 -24.555894 -44.677470 9
-25.054013 -24.728754 -44.577168 9
-27.893718 -24.925708 -44.482296 9
-30.738796 -25.135597 -44.387388 9
-33.600799 -25.311904 -44.269630 9
-36.464691 -25.520513 -44.161178 9
-39.346729 -25.698757 -44.031252 9
-42.227599 -25.922358 -43.916954 9
-45.197780 -25.874838 -43.662314 9
-48.361024 -25.243286 -43.111975 9
-51.782190 -23.885942 -42.194043 9
-55.455703 -21.900212 -40.954538 9
-59.044870 -20.361459 -39.925527 9
-62.652091 -18.932260 -38.940126 9
-66.586282 -16.741452 -37.563861 9
-71.054017 -13.305963 -35.552504 8
-74.162642 -13.709516 -35.448560 8
-77.324812 -14.014357 -35.287367 8
-80.476625 -14.388992 -35.153269 8
-83.643377 -14.768824 -35.013791 8
-86.836662 -15.128456 -34.855972 8
-90.051629 -15.482579 -34.687041 8
-93.264988 -15.884919 -34.534141 8
-96.521555 -16.237655 -34.347448 8
-99.783400 -16.625781 -34.170039 8
-103.070666 -17.007673 -33.980561 8
-106.612844 -16.931751 -33.546712 8
-116.901253 -3.914239 -26.431304 7
-117.947952 -8.992744 -28.620966 7
-121.383302 -9.511104 -28.450449 7
-124.842512 -10.032438 -28.271697 7
-128.331095 -10.548933 -28.080440 7
-131.861093 -11.042411 -27.866920 7
-135.396477 -11.576625 -27.664276 7
-138.949111 -12.131537 -27.461927 7
-142.577639 -12.614446 -27.210709 7
-146.219991 -13.128909 -26.964931 7
-149.902318 -13.635195 -26.703335 7
147.590586 -1.086143 -29.977812 6
144.292174 -0.736265 -29.986842 6
141.014145 -0.377529 -29.983615 6
137.736575 -0.060334 -29.993246 6
134.480107 0.270896 -29.988207 6
131.232292 0.584257 -29.984403 6
127.989753 0.870301 -29.986558 6
124.768517 1.177823 -29.970597 6
121.561645 1.489600 -29.945127 6
118.350143 1.745945 -29.939664 6
113.934347 -2.171794 -31.984355 5
108.762312 -9.164065 -35.533097 5
105.245224 -10.649710 -36.359397 5
102.155810 -10.665926 -36.454939 5
99.099105 -10.610572 -36.508374 5
96.080535 -10.447598 -36.502112 5
93.051000 -10.376408 -36.534210 5
90.024980 -10.340282 -36.576810 5
87.022014 -10.245385 -36.583894 5
84.023516 -10.174936 -36.596357 5
81.026446 -10.146452 -36.622816 5
78.046381 -10.072889 -36.620617 5
75.060744 -10.082200 -36.652524 5
72.093964 -10.024435 -36.645062 5
69.127692 -10.011833 -36.653270 5
65.629470 -14.207568 -38.717110 9
62.449064 -16.513879 -39.848685 9
59.389045 -18.207716 -40.673923 9
56.396244 -19.631763 -41.360858 9
53.382556 -21.705864 -42.360393 9
50.439856 -23.473175 -43.203762 9
47.575290 -24.663231 -43.758403 9
44.766505 -25.340840 -44.055998 9
41.994322 -25.561717 -44.123723 9
39.234381 -25.609310 -44.100490 9
36.477401 -25.627761 -44.056973 9
33.720753 -25.711988 -44.039772 9
30.966112 -25.768340 -44.002903 9
28.212404 -25.837246 -43.966214 9
25.459375 -25.913681 -43.927231 9
22.705971 -25.972881 -43.873754 9
19.953165 -26.066218 -43.831059 9
17.199499 -26.154689 -43.779930 9
14.442286 -26.206092 -43.704452 9
11.688321 -26.338968 -43.663089 9
8.928729 -26.421204 -43.590622 9
6.168105 -26.525473 -43.522903 9
3.406613 -26.652054 -43.460067 9
0.643674 -26.794625 -43.398976 9
-2.128491 -26.891399 -43.308959 9
-4.902198 -27.014078 -43.225517 9
-7.674188 -27.183218 -43.158872 9
-10.459740 -27.295739 -43.057731 9
-13.248202 -27.429488 -42.960751 9
-16.033862 -27.615951 -42.883635 9
-18.835730 -27.748916 -42.773338 9
-21.639456 -27.911726 -42.671410 9
-24.448611 -28.085773 -42.568522 9
-27.267170 -28.254306 -42.456222 9
-30.103472 -28.385053 -42.318199 9
-32.932321 -28.588865 -42.210119 9
-35.772298 -28.786029 -42.091870 9
-38.630235 -28.954209 -41.952066 9
-41.489863 -29.157852 -41.823173 9
-44.397554 -29.234824 -41.622962 9
-47.416274 -28.992322 -41.253007 9
-50.593727 -28.314934 -40.653497 9
-53.886335 -27.386252 -39.916629 9
-57.524344 -25.548071 -38.704960 9
-61.292132 -23.516769 -37.382321 9
-64.884316 -22.166536 -36.396545 9
-69.743937 -17.539534 -33.713270 8
-72.862918 -17.814046 -33.538088 8
-75.991794 -18.108108 -33.364668 8
-79.114338 -18.462018 -33.213821 8
-82.272937 -18.771354 -33.031397 8
-85.442152 -19.100998 -32.850861 8
-88.636827 -19.417810 -32.654839 8
-91.842399 -19.756831 -32.461461 8
-95.069371 -20.095877 -32.259009 8
-98.326006 -20.419792 -32.039335 8
-101.611956 -20.732483 -31.804252 8
-104.921902 -21.047342 -31.560608 8
-111.634932 -14.867645 -27.859140 8
-116.886037 -11.803049 -25.785396 7
-119.362593 -14.033542 -26.518311 7
-122.804002 -14.504092 -26.303663 7
-126.322598 -14.888254 -26.031971 7
-129.845933 -15.317488 -25.773451 7
-133.391853 -15.761131 -25.511497 7
-136.964307 -16.213905 -25.243067 7
-140.589009 -16.636509 -24.946519 7
-144.222989 -17.099810 -24.660164 7
-147.970808 -17.444651 -24.296559 7
148.713790 -7.808879 -28.975823 6
145.441865 -7.507555 -29.024543 6
142.168932 -7.255698 -29.090247 6
138.897957 -7.047920 -29.170187 6
135.658936 -6.805767 -29.224307 6
132.446370 -6.538696 -29.257600 6
129.236149 -6.310685 -29.302812 6
126.044733 -6.074717 -29.336030 6
122.837692 -5.932782 -29.409227 6
119.666009 -5.731033 -29.444173 6
116.893168 -4.264922 -28.829539 6
111.645000 -11.201664 -32.470500 5
107.574952 -14.570718 -34.289904 5
104.318267 -15.270294 -34.747325 5
101.289135 -15.211133 -34.812930 5
98.288321 -15.091200 -34.840593 5
95.283515 -15.035368 -34.893551 5
92.291540 -14.975548 -34.937405 5
89.315938 -14.891514 -34.962000 5
86.350260 -14.807697 -34.979733 5
83.382705 -14.781803 -35.019763 5
80.430742 -14.724845 -35.037219 5
77.490285 -14.651016 -35.039313 5
74.552654 -14.606935 -35.049586 5
71.616348 -14.604802 -35.074210 5
68.692414 -14.570597 -35.075904 5
65.165151 -19.272573 -37.457450 9
62.101465 -20.954930 -38.310550 9
59.100293 -22.444234 -39.059810 9
56.125796 -24.039808 -39.856189 9
53.166244 -25.908968 -40.784150 9
50.314463 -26.931915 -41.279451 9
47.478517 -28.098087 -41.840803 9
44.708988 -28.553400 -42.037647 9
41.962655 -28.754979 -42.100333 9
39.227791 -28.796596 -42.076081 9
36.494959 -28.844549 -42.048750 9
33.764207 -28.866970 -42.002248 9
31.033966 -28.970314 -41.990337 9
28.304875 -28.994802 -41.932295 9
25.576714 -29.088219 -41.902799 9
22.847669 -29.134419 -41.843109 9
20.118960 -29.214679 -41.794326 9
17.388961 -29.286539 -41.734943 9
14.658125 -29.370800 -41.675480 9
11.927036 -29.477816 -41.621180 9
9.190830 -29.546592 -41.541051 9
6.455091 -29.656225 -41.475236 9
3.714690 -29.750106 -41.394939 9
0.977058 -29.902574 -41.337983 9
-1.765719 -30.039868 -41.266791 9
-4.512580 -30.177606 -41.189272 9
-7.268694 -30.284331 -41.089296 9
-10.024236 -30.432576 -41.003890 9
-12.782467 -30.598437 -40.920827 9
-15.553017 -30.728200 -40.812515 9
-18.321486 -30.907080 -40.722620 9
-21.087725 -31.130820 -40.648995 9
-23.888001 -31.223997 -40.501249 9
-26.671919 -31.435018 -40.407256 9
-29.470470 -31.617298 -40.291425 9
-32.273657 -31.818145 -40.178115 9
-35.083312 -32.030484 -40.063622 9
-37.908553 -32.221179 -39.930673 9
-40.739608 -32.430310 -39.799989 9
-43.586843 -32.622274 -39.652960 9
-46.506280 -32.615358 -39.394470 9
-49.525097 -32.346804 -38.990939 9
-52.630952 -31.884943 -38.477265 9
-56.101171 -30.426844 -37.430468 9
-59.754702 -28.596438 -36.175773 9
-63.477504 -26.750818 -34.900176 9
-67.303946 -24.802356 -33.556906 9
-71.760194 -21.391315 -31.423876 8
-74.877521 -21.635148 -31.216518 8
-78.008507 -21.892210 -31.007261 8
-81.376112 -21.632176 -30.512588 8
-84.558599 -21.877633 -30.278097 8
-87.783133 -22.077459 -30.009639 8
-90.977904 -22.394633 -29.794628 8
-94.234604 -22.626545 -29.523961 8
-97.518997 -22.852960 -29.240269 8
-100.803880 -23.131324 -28.974530 8
-104.194680 -23.252354 -28.612758 8
-109.063854 -20.598265 -26.723325 8
-116.895889 -12.602194 -21.884666 7
-117.878639 -17.559543 -24.129732 7
-121.430712 -17.774420 -23.763198 7
-124.977628 -18.058068 -23.422706 7
-128.582145 -18.301389 -23.047765 7
-132.232170 -18.529452 -22.651833 7
-135.791156 -18.966677 -22.360056 7
-139.419986 -19.346520 -22.023751 7
-142.976376 -19.895101 -21.769687 7
-146.670712 -20.285199 -21.413529 7
147.206627 -12.522106 -27.255114 6
143.949841 -12.292016 -27.349786 6
140.711921 -12.065094 -27.437295 6
137.472951 -11.890794 -27.543783 6
134.263805 -11.689479 -27.627398 6
131.069208 -11.498179 -27.707743 6
127.901813 -11.279511 -27.765305 6
124.726429 -11.131769 -27.851714 6
121.583617 -10.936477 -27.904958 6
118.437438 -10.799353 -27.980461 6
116.903197 -5.435414 -25.318550 6
110.331388 -16.850029 -31.406917 5
106.719644 -18.770110 -32.527855 5
103.591999 -19.125289 -32.824326 5
100.605607 -19.026792 -32.876729 5
97.628152 -18.941714 -32.928594 5
94.662622 -18.856493 -32.972920 5
91.705566 -18.783301 -33.016091 5
88.758949 -18.711778 -33.052772 5
85.821385 -18.645722 -33.084986 5
82.888674 -18.604316 -33.122728 5
79.964188 -18.570032 -33.156939 5
77.053056 -18.510758 -33.171014 5
74.145390 -18.478739 -33.192077 5
71.244573 -18.453256 -33.209418 5
67.897889 -21.660831 -34.894514 9
64.815727 -23.412310 -35.817950 9
61.779799 -25.145238 -36.724716 9
58.795680 -26.795936 -37.581992 9
55.826017 -28.713519 -38.570749 9
52.979125 -29.741204 -39.091967 9
50.138842 -31.022261 -39.737902 9
47.389070 -31.392173 -39.905319 9
44.647106 -31.816398 -40.094363 9
41.930841 -31.918876 -40.110135 9
39.221661 -31.931054 -40.072525 9
36.512821 -31.995422 -40.055408 9
33.806332 -32.041327 -40.022140 9
31.100968 -32.109217 -39.993708 9
28.396479 -32.150966 -39.945115 9
25.693178 -32.256120 -39.922875 9
22.988559 -32.289921 -39.856939 9
20.285532 -32.395351 -39.821637 9
17.581158 -32.480248 -39.769022 9
14.876574 -32.582843 -39.718976 9
12.170320 -32.682660 -39.660812 9
9.461881 -32.781234 -39.595299 9
6.747390 -32.843435 -39.504041 9
4.039054 -33.003522 -39.457187 9
1.320835 -33.098868 -39.369683 9
-1.395759 -33.242545 -39.300662 9
-4.118135 -33.372793 -39.217746 9
-6.844079 -33.511568 -39.132401 9
-9.574128 -33.657382 -39.043811 9
-12.306340 -33.823870 -38.959117 9
-15.047675 -33.971724 -38.857569 9
-17.793423 -34.132034 -38.755490 9
-20.552463 -34.261615 -38.629997 9
-23.299551 -34.487131 -38.548058 9
-26.059912 -34.684065 -38.443760 9
-28.831354 -34.868463 -38.325488 9
-31.635942 -34.954674 -38.147532 9
-34.434970 -35.108899 -37.998173 9
-37.231771 -35.312599 -37.867603 9
-40.036492 -35.525800 -37.734477 9
-42.845948 -35.760639 -37.605237 9
-45.664340 -36.002996 -37.472265 9
-48.622590 -35.836672 -37.111425 9
-51.717010 -35.318864 -36.552108 9
-55.118158 -33.982069 -35.540224 9
-58.650376 -32.415649 -34.391981 9
-62.320197 -30.627206 -33.110383 9
-66.020311 -28.929588 -31.864533 9
-71.181684 -23.593879 -28.620217 8
-74.293451 -23.814113 -28.390346 8
-78.514934 -21.366016 -26.688217 8
-80.555302 -24.305353 -27.929968 8
-83.743985 -24.488504 -27.650858 8
-86.949833 -24.685314 -27.369209 8
-90.163960 -24.916158 -27.096182 8
-93.408948 -25.132449 -26.804740 8
-96.620962 -25.469366 -26.569934 8
-99.905058 -25.708096 -26.269860 8
-103.261382 -25.857924 -25.909015 8
-107.339105 -24.686529 -24.793773 8
-113.497302 -19.760889 -21.544360 8
-117.275334 -19.472584 -20.888645 7
-120.268526 -20.660192 -21.056736 7
-123.719506 -21.068051 -20.771698 7
-127.248492 -21.395163 -20.428377 7
-130.793219 -21.752141 -20.089469 7
-134.391060 -22.078791 -19.720196 7
-138.020151 -22.413863 -19.342450 7
-141.702540 -22.725030 -18.937202 7
-145.351167 -23.147391 -18.582638 7
-149.054618 -23.545299 -18.199846 7
149.321736 -16.550602 -25.015594 6
146.060117 -16.361363 -25.151741 6
142.824656 -16.161785 -25.272836 6
139.602738 -15.980122 -25.394358 6
136.401958 -15.796183 -25.505463 6
133.223607 -15.603988 -25.603050 6
130.037038 -15.484387 -25.730905 6
126.897917 -15.284584 -25.806602 6
123.759517 -15.130779 -25.898376 6
120.642584 -14.962486 -25.973704 6
117.533329 -14.818964 -26.053807 6
116.928722 -6.559546 -21.768352 6
110.372966 -17.874688 -27.981565 5
106.087476 -22.161162 -30.408778 5
103.011224 -22.426957 -30.671153 5
100.048102 -22.340837 -30.736999 5
97.092431 -22.274892 -30.805753 5
94.156035 -22.179604 -30.851006 5
91.223559 -22.115044 -30.904925 5
88.305969 -22.032307 -30.941443 5
85.397086 -21.955256 -30.973358 5
82.493690 -21.898029 -31.008254 5
79.586895 -21.908904 -31.071890 5
76.703343 -21.843317 -31.087266 5
73.819745 -21.825391 -31.120561 5
70.951364 -21.760598 -31.121469 5
67.562780 -25.433244 -33.104347 9
64.531998 -27.019409 -33.968855 9
61.536730 -28.647933 -34.848503 9
58.568722 -30.400768 -35.787054 9
55.662403 -31.960491 -36.615754 9
52.812784 -33.305812 -37.323416 9
50.021164 -34.322284 -37.849231 9
47.285419 -34.874083 -38.120933 9
44.586603 -35.025227 -38.172539 9
41.900035 -35.028599 -38.138604 9
39.215336 -35.033589 -38.098653 9
36.529969 -35.126230 -38.098531 9
33.848359 -35.140067 -38.049546 9
31.167180 -35.182464 -38.008904 9
28.486858 -35.260959 -37.980639 9
25.806482 -35.294570 -37.921528 9
23.126356 -35.361109 -37.873087 9
20.446260 -35.442498 -37.825665 9
17.766455 -35.545380 -37.782812 9
15.082303 -35.591594 -37.702677 9
12.400055 -35.701155 -37.649475 9
9.709730 -35.735107 -37.548729 9
7.022908 -35.849774 -37.484220 9
4.334116 -35.972896 -37.417201 9
1.637404 -36.055029 -37.321045 9
-1.059394 -36.173747 -37.237417 9
-3.758966 -36.304796 -37.153257 9
-6.460997 -36.451491 -37.070328 9
-9.167165 -36.603627 -36.983092 9
-11.884628 -36.721130 -36.869818 9
-14.601015 -36.882498 -36.772910 9
-17.325051 -37.037487 -36.665135 9
-20.043586 -37.255387 -36.584069 9
-22.782107 -37.409294 -36.460722 9
-25.518004 -37.612577 -36.356664 9
-28.280397 -37.736788 -36.201806 9
-31.034490 -37.936765 -36.080544 9
-33.814912 -38.070423 -35.915148 9
-36.593317 -38.254128 -35.769208 9
-39.382501 -38.438433 -35.615583 9
-42.173567 -38.656119 -35.472237 9
-45.001184 -38.791119 -35.275094 9
-47.895120 -38.760029 -34.977629 9
-50.932229 -38.347043 -34.459507 9
-54.189644 -37.365725 -33.615637 9
-57.731399 -35.692843 -32.375113 9
-61.298255 -34.116961 -31.175098 9
-64.969297 -32.420222 -29.893759 9
-70.551031 -25.928513 -25.909430 8
-73.633716 -26.180293 -25.687523 8
-76.736925 -26.427846 -25.453426 8
-79.883760 -26.618873 -25.177402 8
-83.057527 -26.798733 -24.884715 8
-86.227097 -27.040124 -24.616415 8
-89.417837 -27.284892 -24.339468 8
-92.651095 -27.489632 -24.028891 8
-95.935297 -27.642241 -23.677336 8
-99.214761 -27.860663 -23.352089 8
-102.525640 -28.071275 -23.010816 8
-106.331494 -27.393145 -22.143795 8
-112.334300 -22.731274 -18.950153 8
-117.199728 -20.427314 -17.097915 7
-119.192181 -23.386585 -18.296933 7
-122.677120 -23.697143 -17.941380 7
-126.222955 -23.960483 -17.544986 7
-129.774956 -24.272217 -17.163582 7
-133.315321 -24.659879 -16.813478 7
-136.980091 -24.906609 -16.365868 7
-140.633217 -25.233207 -15.951280 7
-144.337950 -25.541615 -15.511125 7
-148.094248 -25.835400 -15.047041 7
148.385038 -19.816584 -22.646781 6
145.117790 -19.704106 -22.837087 6
141.884816 -19.566054 -23.003105 6
138.669682 -19.438628 -23.165232 6
135.468527 -19.330367 -23.328338 6
132.297695 -19.197529 -23.468204 6
129.138936 -19.085147 -23.610010 6
126.008812 -18.946151 -23.727750 6
122.889094 -18.828553 -23.848174 6
119.773180 -18.752095 -23.982268 6
117.352683 -16.554501 -22.935817 6
113.663811 -18.370314 -24.097230 5
109.267513 -22.771912 -26.672864 5
105.540208 -25.239022 -28.169878 5
103.239672 -22.759025 -26.934222 5
99.480652 -25.677643 -28.660055 5
96.570767 -25.536715 -28.694479 5
93.648924 -25.489390 -28.772170 5
90.746190 -25.410781 -28.824585 5
87.852217 -25.340510 -28.873541 5
84.965510 -25.283953 -28.922033 5
82.091067 -25.214623 -28.955601 5
79.222039 -25.163783 -28.991417 5
76.360869 -25.117258 -29.021760 5
73.512383 -25.042531 -29.028886 5
70.661443 -25.028790 -29.061616 5
67.277503 -28.830737 -31.172641 9
64.289664 -30.288037 -31.993668 9
61.324099 -31.875338 -32.878004 9
58.405804 -33.396085 -33.718371 9
55.519142 -34.980171 -34.585918 9
52.694542 -36.297368 -35.300325 9
49.934764 -37.193037 -35.777184 9
47.226157 -37.660441 -36.012838 9
44.547264 -37.827845 -36.077361 9
41.881038 -37.847547 -36.053967 9
39.216785 -37.875886 -36.028123 9
36.553795 -37.931100 -36.009812 9
33.893182 -37.953648 -35.966452 9
31.233110 -38.031759 -35.946338 9
28.573883 -38.047028 -35.884619 9
25.915169 -38.119694 -35.847155 9
23.256643 -38.194338 -35.803577 9
20.598271 -38.282170 -35.760025 9
17.938270 -38.350281 -35.698412 9
15.277144 -38.426198 -35.633824 9
12.615258 -38.519209 -35.571353 9
9.952584 -38.628970 -35.510801 9
7.282336 -38.682778 -35.412080 9
4.616045 -38.814353 -35.348850 9
1.941815 -38.902912 -35.254480 9
-0.737720 -38.985022 -35.149069 9
-3.418230 -39.098174 -35.053311 9
-6.599213 -35.843041 -33.082915 9
-8.791956 -39.344643 -34.850289 9
-11.486440 -39.474704 -34.741128 9
-14.185208 -39.616975 -34.631057 9
-16.902009 -39.700399 -34.480439 9
-19.608360 -39.878716 -34.374863 9
-22.327019 -40.033110 -34.248076 9
-25.057488 -40.172083 -34.104698 9
-27.803654 -40.283955 -33.938053 9
-30.535971 -40.494891 -33.818847 9
-33.278984 -40.699152 -33.687773 9
-36.046005 -40.850494 -33.518647 9
-38.817292 -41.028084 -33.355921 9
-41.605723 -41.187034 -33.174167 9
-44.400935 -41.365860 -32.995052 9
-47.270452 -41.350267 -32.696757 9
-50.251075 -41.050630 -32.227417 9
-53.411545 -40.295719 -31.488096 9
-56.863782 -38.814600 -30.321878 9
-60.439456 -37.146346 -29.034680 9
-64.031950 -35.597059 -27.801297 9
-67.685730 -34.043818 -26.551038 9
-73.116803 -28.184015 -22.798604 8
-76.215586 -28.411636 -22.542717 8
-79.334989 -28.638409 -22.275828 8
-82.501728 -28.805167 -21.963301 8
-85.685589 -28.986456 -21.648164 8
-88.892150 -29.171103 -21.323736 8
-92.117814 -29.368535 -20.995348 8
-95.367785 -29.569157 -20.657188 8
-98.651190 -29.756560 -20.299341 8
-101.951358 -29.966379 -19.942605 8
-105.592391 -29.583103 -19.220933 8
-111.220469 -25.602722 -16.338817 8
-117.216124 -21.220270 -13.186245 7
-118.367929 -25.661919 -15.300429 7
-121.881993 -25.894698 -14.882055 7
-125.436772 -26.117975 -14.443936 7
-128.990935 -26.402507 -14.028628 7
-132.620777 -26.623960 -13.560438 7
-136.222837 -26.951035 -13.141767 7
-139.925512 -27.182227 -12.649243 7
-143.662340 -27.425758 -12.148508 7
-147.438106 -27.676175 -11.635868 7
147.935387 -21.964777 -19.683232 6
144.681839 -21.851304 -19.886401 6
141.451107 -21.739887 -20.080257 6
138.246031 -21.621350 -20.259697 6
135.057781 -21.515219 -20.436064 6
131.899225 -21.386440 -20.589452 6
129.669636 -18.786171 -19.323511 6
125.611171 -21.210625 -20.913312 6
122.506660 -21.091717 -21.043040 6
119.420267 -20.970648 -21.162038 6
117.310804 -17.857231 -19.573778 6
113.974048 -18.538025 -20.130473 5
108.583080 -26.227570 -24.645110 5
104.997667 -28.287687 -25.957725 5
101.940018 -28.657469 -26.304053 5
99.024216 -28.578344 -26.387802 5
96.117242 -28.513988 -26.471294 5
93.233706 -28.403074 -26.520014 5
90.365152 -28.272629 -26.549314 5
87.492551 -28.203540 -26.604815 5
84.628390 -28.142449 -26.656491 5
81.774969 -28.075730 -26.696732 5
78.923503 -28.046194 -26.749658 5
76.081047 -28.016905 -26.794540 5
73.256435 -27.930270 -26.799082 5
70.422332 -27.948399 -26.854372 5
67.058227 -31.745659 -29.022780 9
64.074248 -33.333698 -29.942554 9
61.144953 -34.806845 -30.789734 9
58.262068 -36.200205 -31.584207 9
55.400853 -37.730254 -32.447586 9
52.603523 -38.962663 -33.136350 9
49.871230 -39.751522 -33.568751 9
47.176971 -40.277829 -33.846386 9
44.521187 -40.374393 -33.875419 9
41.874009 -40.380561 -33.846236 9
39.227438 -40.426071 -33.831658 9
36.583955 -40.438728 -33.791151 9
33.940675 -40.511984 -33.777207 9
31.299315 -40.542712 -33.731884 9
28.658357 -40.581821 -33.683775 9
26.017803 -40.644580 -33.641466 9
23.376821 -40.694745 -33.584553 9
20.736864 -40.793021 -33.547213 9
18.097185 -40.904631 -33.509865 9
15.448985 -40.887139 -33.392119 9
12.804881 -40.982156 -33.330236 9
10.159684 -41.089450 -33.267680 9
7.506318 -41.134721 -33.162389 9
4.855478 -41.245520 -33.086468 9
2.197020 -41.319802 -32.982124 9
-0.466849 -41.389058 -32.867118 9
-3.128975 -41.511117 -32.774251 9
-5.798368 -41.616986 -32.664315 9
-8.467068 -41.763972 -32.569869 9
-11.148191 -41.869982 -32.444107 9
-13.824469 -42.041621 -32.347770 9
-16.516790 -42.161371 -32.213716 9
-19.217401 -42.279023 -32.070269 9
-21.920597 -42.424509 -31.934518 9
-24.633126 -42.566365 -31.788371 9
-27.353924 -42.712257 -31.636144 9
-30.072468 -42.906803 -31.503487 9
-32.820458 -43.023359 -31.317286 9
-35.560121 -43.214251 -31.165362 9
-38.331847 -43.329108 -30.960648 9
-41.090710 -43.532696 -30.798513 9
-43.881828 -43.668857 -30.588226 9
-46.681820 -43.821249 -30.378235 9
-49.613183 -43.616356 -29.950062 9
-52.772542 -42.808841 -29.158398 9
-56.105140 -41.618075 -28.129485 9
-59.672089 -39.916402 -26.786303 9
-63.239372 -38.379688 -25.525226 9
-66.870934 -36.830715 -24.241727 9
-72.665882 -30.020608 -19.821889 8
-75.764290 -30.223498 -19.540460 8
-78.911036 -30.361701 -19.209395 8
-82.079138 -30.504646 -18.869690 8
-85.254460 -30.685533 -18.541062 8
-88.472723 -30.826082 -18.176402 8
-91.706049 -30.990363 -17.813911 8
-94.960161 -31.166904 -17.446531 8
-98.227197 -31.372566 -17.084314 8
-101.501214 -31.618781 -16.734125 8
-105.097098 -31.307986 -16.030891 8
-110.367900 -27.984378 -13.465626 8
-117.208219 -22.062820 -9.274032 7
-117.765593 -27.543569 -12.079644 7
-121.275582 -27.765367 -11.636343 7
-124.840541 -27.954422 -11.158002 7
-128.460270 -28.115610 -10.647081 7
-133.699352 -25.752145 -8.538759 7
-135.764082 -28.527161 -9.633847 7
-139.505421 -28.690753 -9.076383 7
-143.215030 -28.968212 -8.574213 7
-147.035074 -29.146932 -7.992415 7
147.670605 -23.691885 -16.483871 6
144.414508 -23.603079 -16.715518 6
141.174936 -23.532977 -16.947139 6
137.979737 -23.412291 -17.138079 6
134.795226 -23.319545 -17.334784 6
131.628774 -23.235720 -17.526177 6
128.498180 -23.111119 -17.683271 6
125.372432 -23.025977 -17.853248 6
122.258326 -22.962271 -18.025615 6
119.179791 -22.848150 -18.158538 6
117.320044 -19.004993 -16.108750 6
112.214049 -25.381358 -20.002197 5
107.927224 -29.572042 -22.606886 5
104.541832 -31.022684 -23.605629 5
101.543158 -31.251025 -23.884253 5
98.651274 -31.152689 -23.964131 5
95.768073 -31.067830 -24.042875 5
92.893645 -30.995137 -24.119785 5
90.026403 -30.940333 -24.198231 5
87.171880 -30.877974 -24.263558 5
84.332733 -30.791000 -24.305988 5
81.491228 -30.761619 -24.373059 5
78.668353 -30.684326 -24.403907 5
75.847048 -30.643521 -24.447295 5
73.034431 -30.599560 -24.480392 5
70.228447 -30.561111 -24.508241 5
66.864710 -34.466778 -26.799773 9
63.926971 -35.848568 -27.628345 9
61.012493 -37.338871 -28.510938 9
58.132907 -38.858187 -29.401922 9
55.314798 -40.143107 -30.149808 9
52.534357 -41.368406 -30.855390 9
49.815816 -42.192445 -31.322097 9
47.148589 -42.571663 -31.524900 9
44.506819 -42.698662 -31.574687 9
41.876430 -42.690436 -31.538798 9
39.244168 -42.782404 -31.552836 9
36.617616 -42.776760 -31.502838 9
33.990973 -42.823882 -31.475456 9
31.365590 -42.865131 -31.436891 9
28.741600 -43.019006 -31.455522 9
26.118075 -43.062954 -31.402922 9
23.494223 -43.111263 -31.345007 9
20.869588 -43.162643 -31.281017 9
18.245199 -43.246459 -31.227920 9
15.618507 -43.312630 -31.156732 9
12.987471 -43.348241 -31.059911 9
10.355166 -43.409282 -30.969853 9
7.723527 -43.513611 -30.896926 9
5.087311 -43.602668 -30.807127 9
2.444925 -43.671746 -30.697643 9
-0.194322 -43.804567 -30.617151 9
-2.841347 -43.910096 -30.512639 9
-5.494632 -44.008541 -30.395792 9
-8.158782 -44.075923 -30.252515 9
-10.819852 -44.204048 -30.136409 9
-13.486890 -44.334912 -30.013548 9
-16.163311 -44.453299 -29.874932 9
-18.852046 -44.549739 -29.714883 9
-21.541886 -44.682957 -29.567837 9
-24.233682 -44.846429 -29.429962 9
-26.941523 -44.978826 -29.265021 9
-29.650524 -45.147077 -29.112437 9
-32.386336 -45.249864 -28.912147 9
-35.115753 -45.420723 -28.743156 9
-37.865646 -45.558356 -28.545289 9
-40.612076 -45.750582 -28.370686 9
-43.381372 -45.907077 -28.165445 9
-46.194694 -45.967151 -27.892958 9
-49.096273 -45.808640 -27.479385 9
-52.195462 -45.135153 -26.745385 9
-55.484775 -44.022556 -25.734352 9
-58.994470 -42.433826 -24.421745 9
-62.561475 -40.851248 -23.097322 9
-66.189723 -39.267402 -21.756198 9
-72.333153 -31.561310 -16.670237 8
-75.414784 -31.788154 -16.391683 8
-78.576004 -31.875752 -16.016394 8
-81.721888 -32.054857 -15.685134 8
-84.946617 -32.111005 -15.266087 8
-88.164289 -32.241798 -14.880391 8
-91.388788 -32.414236 -14.507762 8
-94.645619 -32.575051 -14.115079 8
-97.942522 -32.711889 -13.694308 8
-101.308855 -32.771854 -13.211942 8
-104.802874 -32.652936 -12.603190 8
-112.780350 -24.348982 -6.825385 8
-117.160558 -22.982577 -5.379511 7
-118.940319 -26.309807 -6.887942 7
-120.968334 -29.123496 -8.068630 7
-124.557235 -29.267706 -7.540772 7
-128.200592 -29.387004 -6.980830 7
-131.859319 -29.547734 -6.430931 7
-135.617958 -29.617825 -5.805600 7
-139.365670 -29.774471 -5.218695 7
-143.175744 -29.905328 -4.597227 7
-147.083889 -29.962639 -3.909243 7
147.490381 -25.229107 -13.168120 6
144.236206 -25.148881 -13.419589 6
141.014065 -25.051046 -13.648806 6
137.816683 -24.949507 -13.864416 6
134.655743 -24.812008 -14.047139 6
131.495277 -24.726644 -14.250315 6
128.350685 -24.654633 -14.450624 6
125.218799 -24.603712 -14.652830 6
122.131134 -24.482842 -14.802425 6
119.040256 -24.423537 -14.978488 6
117.334494 -20.141979 -12.618513 6
111.636543 -28.391158 -17.740966 5
107.521089 -32.070967 -20.114882 5
104.200023 -33.353731 -21.045170 5
101.234801 -33.517463 -21.297814 5
98.358805 -33.416529 -21.383280 5
95.490538 -33.332501 -21.469480 5
92.634339 -33.247113 -21.545622 5
89.786797 -33.171958 -21.618667 5
86.938407 -33.148572 -21.713305 5
84.114450 -33.061693 -21.761238 5
81.299048 -32.977242 -21.801646 5
78.489022 -32.909202 -21.842860 5
75.681111 -32.875525 -21.895544 5
72.881620 -32.841286 -21.939063 5
70.092223 -32.791549 -21.964640 5
66.730135 -36.766784 -24.360375 9
63.812196 -38.109325 -25.190611 9
60.915027 -39.574015 -26.084170 9
58.048617 -41.100692 -27.005654 9
55.239892 -42.434867 -27.804919 9
52.476869 -43.633212 -28.515622 9
49.779187 -44.383349 -28.953399 9
47.125013 -44.784101 -29.176687 9
44.497061 -44.930062 -29.241366 9
41.879552 -44.971216 -29.236020 9
39.265971 -44.979677 -29.203240 9
36.653129 -45.018535 -29.180316 9
34.042517 -45.014994 -29.124204 9
31.431807 -45.081535 -29.101425 9
28.821875 -45.098406 -29.041131 9
26.212525 -45.175207 -29.008181 9
23.602425 -45.216397 -28.945994 9
20.991692 -45.268088 -28.881856 9
18.380307 -45.333958 -28.817939 9
15.767042 -45.395248 -28.743090 9
13.147918 -45.406050 -28.629977 9
10.532864 -45.513484 -28.566022 9
7.913530 -45.600216 -28.481462 9
5.289703 -45.675973 -28.382015 9
2.664452 -45.775457 -28.288325 9
0.031381 -45.846115 -28.168988 9
-2.597337 -45.988039 -28.083757 9
-5.242065 -46.051346 -27.942966 9
-7.886136 -46.161025 -27.821322 9
-10.533182 -46.290077 -27.702653 9
-13.187234 -46.415900 -27.573345 9
-15.859646 -46.482940 -27.399858 9
-18.536081 -46.574474 -27.232177 9
-21.210041 -46.719866 -27.088017 9
-23.903533 -46.816187 -26.905163 9
-26.595988 -46.959977 -26.741885 9
-29.308783 -47.061126 -26.543514 9
-32.016351 -47.226260 -26.374666 9
-34.745886 -47.349319 -26.170804 9
-37.486869 -47.475032 -25.958979 9
-40.230702 -47.634637 -25.758191 9
-42.990498 -47.783622 -25.541141 9
-45.760292 -47.944158 -25.321280 9
-48.640501 -47.812166 -24.911234 9
-51.708402 -47.193805 -24.189958 9
-54.949500 -46.181862 -23.212547 9
-58.434224 -44.625026 -21.883105 9
-61.974919 -43.076184 -20.542559 9
-65.593616 -41.481277 -19.156825 9
-72.132786 -32.773482 -13.308094 8
-75.269294 -32.861054 -12.930236 8
-78.404191 -33.008414 -12.577483 8
-81.569636 -33.139404 -12.201920 8
-84.744891 -33.303427 -11.834448 8
-87.985346 -33.380773 -11.399106 8
-91.232350 -33.503354 -10.979022 8
-94.516662 -33.607113 -10.533322 8
-97.821476 -33.729037 -10.085276 8
-101.159532 -33.845301 -9.619401 8
-104.664282 -33.707245 -8.975119 8
-109.927543 -30.413790 -6.274522 8
-117.222550 -23.711602 -1.331014 7
-117.347121 -29.930919 -4.755012 7
-120.940102 -30.008593 -4.177211 7
-124.596662 -30.046815 -3.556738 7
-128.273417 -30.121268 -2.942731 7
-131.989408 -30.201637 -2.314984 7
-135.785056 -30.227242 -1.632792 7
-139.574802 -30.334016 -0.985882 7
-143.488683 -30.326282 -0.243387 7
-147.450600 -30.324494 0.515182 7
147.536702 -26.261256 -9.528971 6
144.277602 -26.190616 -9.801914 6
141.051282 -26.101569 -10.051251 6
137.836093 -26.042984 -10.307559 6
134.654009 -25.959966 -10.536924 6
131.488864 -25.889804 -10.762658 6
128.319537 -25.888012 -11.019165 6
125.198603 -25.813236 -11.219279 6
122.084093 -25.775813 -11.431275 6
119.011059 -25.673177 -11.592160 6
117.286499 -21.476763 -9.229192 6
111.314045 -30.576320 -15.013722 5
107.232464 -34.173632 -17.404683 5
103.939500 -35.399140 -18.329533 5
101.026648 -35.419395 -18.506247 5
98.161527 -35.319204 -18.599485 5
95.293354 -35.278082 -18.719035 5
92.427800 -35.278257 -18.854061 5
89.589082 -35.219053 -18.943297 5
86.768041 -35.129644 -19.004656 5
83.945932 -35.090951 -19.087450 5
81.140490 -35.019506 -19.140972 5
78.338162 -34.977926 -19.203344 5
75.549399 -34.909441 -19.240143 5
72.757782 -34.903461 -19.305685 5
69.975974 -34.887951 -19.356292 5
66.616151 -38.917587 -21.849960 9
63.699953 -40.344339 -22.755796 9
60.824825 -41.743172 -23.635466 9
57.984304 -43.157497 -24.515463 9
55.583475 -40.581862 -22.969654 9
52.448095 -45.571503 -25.997828 9
49.761284 -46.330456 -26.454712 9
47.113875 -46.806188 -26.731578 9
44.499315 -46.943387 -26.794937 9
41.897774 -46.918537 -26.751675 9
39.295030 -46.963636 -26.742357 9
36.695325 -46.979972 -26.707168 9
34.096424 -47.019068 -26.677339 9
31.498758 -47.021801 -26.617004 9
28.901315 -47.092506 -26.589463 9
26.303798 -47.119783 -26.527097 9
23.706000 -47.165085 -26.467194 9
21.106941 -47.202294 -26.393867 9
18.505781 -47.230731 -26.306666 9
15.905999 -47.321430 -26.248813 9
13.303058 -47.390329 -26.169121 9
10.696341 -47.445191 -26.072257 9
8.085592 -47.494108 -25.963096 9
5.474385 -47.578619 -25.866973 9
2.856455 -47.638990 -25.747348 9
0.242685 -47.772409 -25.663663 9
-2.389505 -47.800510 -25.506606 9
-5.024471 -47.856413 -25.357635 9
-7.662517 -47.936093 -25.214265 9
-10.297684 -48.073420 -25.097339 9
-12.953279 -48.132321 -24.923016 9
-15.594549 -48.310335 -24.813001 9
-18.257376 -48.414375 -24.648111 9
-20.929484 -48.516049 -24.472406 9
-23.610960 -48.618071 -24.287467 9
-26.300053 -48.730423 -24.099395 9
-28.981460 -48.915808 -23.947166 9
-31.688146 -49.040313 -23.747370 9
-34.401950 -49.180929 -23.547805 9
-37.134034 -49.298615 -23.323954 9
-39.867577 -49.455449 -23.114564 9
-42.626472 -49.571246 -22.869218 9
-45.382402 -49.741748 -22.647958 9
-48.257560 -49.593063 -22.214649 9
-51.286418 -49.059912 -21.526393 9
-54.497227 -48.103929 -20.556885 9
-58.006425 -46.451535 -19.129785 9
-61.536606 -44.906171 -17.753938 9
-65.155024 -43.288880 -16.314962 9
-72.006982 -33.803528 -9.812193 8
-75.142961 -33.891607 -9.419909 8
-78.312946 -33.956307 -8.999531 8
-81.493928 -34.054066 -8.587183 8
-84.695518 -34.163104 -8.168667 8
-87.952366 -34.210376 -7.696253 8
-91.216998 -34.302136 -7.238640 8
-94.483398 -34.449272 -6.802938 8
-97.815322 -34.523581 -6.304976 8
-101.202699 -34.552276 -5.761900 8
-104.806387 -34.239136 -4.977128 8
-114.045276 -23.695247 2.616322 8
-117.234439 -24.537194 2.691704 7
-117.619605 -30.291569 -0.504310 7
-121.276134 -30.280677 0.158108 7
-124.987444 -30.249818 0.852022 7
-128.715058 -30.265215 1.533248 7
-132.544011 -30.191582 2.293778 7
-136.441639 -30.088073 3.094509 7
-140.415671 -29.947661 3.941047 7
-144.407821 -29.861621 4.771490 7
-148.561978 -29.621262 5.730147 7
147.705234 -27.027868 -5.693583 6
144.423515 -26.999409 -6.009706 6
141.188634 -26.922324 -6.281963 6
137.961249 -26.885515 -6.567348 6
134.760789 -26.841603 -6.835806 6
131.582174 -26.800636 -7.093927 6
128.420202 -26.774362 -7.349328 6
125.299602 -26.693537 -7.558342 6
122.204966 -26.594054 -7.743962 6
119.094841 -26.593940 -7.980825 6
117.321729 -22.561182 -5.666518 6
111.070693 -32.506427 -12.139276 5
108.517994 -31.082269 -11.443057 5
103.780318 -37.094223 -15.404028 5
100.873427 -37.123617 -15.596274 5
98.007778 -37.058211 -15.718779 5
95.157622 -36.982686 -15.824797 5
92.309637 -36.947022 -15.945676 5
89.482498 -36.874480 -16.033521 5
86.655221 -36.850451 -16.141754 5
83.843065 -36.807574 -16.228386 5
81.041301 -36.762992 -16.304200 5
78.244630 -36.740957 -16.384367 5
75.457587 -36.716736 -16.453536 5
72.684018 -36.663184 -16.494885 5
69.912094 -36.645723 -16.549170 5
66.548796 -40.742925 -19.151539 9
63.644139 -42.153744 -20.073682 9
60.770868 -43.613303 -21.016453 9
57.942796 -45.007116 -21.908920 9
55.545337 -42.522125 -20.383153 9
52.431595 -47.370793 -23.402960 9
49.755860 -48.117247 -23.866148 9
47.119912 -48.574133 -24.140697 9
44.517865 -48.671154 -24.182971 9
41.922114 -48.731076 -24.193428 9
39.331169 -48.746808 -24.167660 9
36.742760 -48.729609 -24.112647 9
34.154328 -48.741943 -24.067204 9
31.566192 -48.805986 -24.045137 9
28.978972 -48.841888 -23.996785 9
26.391477 -48.865016 -23.931676 9
23.803497 -48.901963 -23.866347 9
21.214765 -48.948274 -23.798011 9
18.625227 -49.007729 -23.729012 9
16.037020 -49.117538 -23.682569 9
13.440150 -49.122530 -23.561761 9
10.844747 -49.193948 -23.473483 9
8.248248 -49.286978 -23.389748 9
5.641330 -49.310631 -23.253527 9
3.035629 -49.390659 -23.143524 9
0.425015 -49.468206 -23.022828 9
-2.186189 -49.579569 -22.914200 9
-4.811619 -49.628965 -22.757345 9
-7.431843 -49.755046 -22.639453 9
-10.063763 -49.846982 -22.490677 9
-12.708640 -49.907342 -22.312473 9
-15.358736 -49.984911 -22.135552 9
-18.010346 -50.098016 -21.971493 9
-20.676933 -50.181330 -21.778813 9
-23.335390 -50.344126 -21.626843 9
-26.026960 -50.404189 -21.399600 9
-29.489650 -47.416387 -19.216079 9
-31.407376 -50.671561 -21.008775 9
-34.121867 -50.777038 -20.780033 9
-36.835493 -50.929994 -20.571379 9
-39.576927 -51.030092 -20.318289 9
-42.320031 -51.170706 -20.080627 9
-45.094922 -51.255175 -19.795934 9
-47.932066 -51.199670 -19.409493 9
-50.928652 -50.737616 -18.747371 9
-55.740083 -45.249216 -14.799942 9
-57.591727 -48.241538 -16.357534 9
-61.175276 -46.532442 -14.836601 9
-64.844145 -44.769822 -13.262189 9
-72.051353 -34.416628 -6.017670 8
-75.180054 -34.534131 -5.629080 8
-78.345131 -34.621440 -5.207031 8
-81.539181 -34.700103 -4.765391 8
-84.746123 -34.808424 -4.329328 8
-88.027915 -34.813695 -3.810152 8
-91.325953 -34.848401 -3.295640 8
-94.697347 -34.796862 -2.707942 8
-98.010740 -34.927043 -2.226786 8
-101.401882 -34.966546 -1.668816 8
-105.161562 -34.380409 -0.669920 8
-111.616404 -28.973790 3.632500 8
-117.253103 -25.357588 6.755106 7
-118.288719 -29.973500 4.264584 7
-122.049986 -29.821559 5.053215 7
-125.874694 -29.642876 5.880036 7
-129.719090 -29.512598 6.693593 7
-133.739691 -29.183157 7.666651 7
-137.823446 -28.845156 8.668044 7
-141.984582 -28.480630 9.711108 7
