ply
format ascii 1.0
element vertex 1421
property float x
property float y
property float z
property int scalar_Label
end_header
42.326539 36.870960 -30.161126 9
44.803103 36.269042 -30.994434 9
47.169863 35.478429 -31.683711 9
49.533240 34.710793 -32.390479 9
51.715357 33.571160 -32.822903 9
53.837394 32.302004 -33.165756 9
55.901767 30.896070 -33.416384 9
57.871807 29.250253 -33.503307 9
59.857769 27.618142 -33.612027 9
61.847674 25.969586 -33.721084 9
63.811328 24.221451 -33.772605 9
65.768668 22.418473 -33.799616 9
67.232535 19.154189 -32.834010 5
69.679310 18.667383 -33.797757 9
71.730543 17.010441 -33.968000 5
73.959727 15.886395 -34.508915 5
76.177906 14.727898 -35.033723 5
78.375261 13.495656 -35.517291 5
80.553810 12.186683 -35.959129 5
82.731946 10.859237 -36.398481 5
84.892608 9.442928 -36.790633 5
87.055448 8.005223 -37.180205 5
89.178233 6.360669 -37.450792 5
91.309129 4.694991 -37.722131 5
93.412735 2.836446 -37.888405 5
95.505929 0.837680 -37.985335 5
97.577945 -1.382108 -37.966333 5
99.624429 -3.886510 -37.796988 5
101.621443 -6.870333 -37.366044 5
103.522927 -10.718247 -36.454428 5
104.272813 -22.744230 -30.796617 5
-51.565564 46.134451 9.374992 9
-46.149885 47.169513 6.538682 9
-41.646440 47.414953 4.534345 9
-10.263279 75.856740 -25.129115 1
-7.646544 74.947870 -25.690057 1
-5.065403 74.033888 -26.239887 1
-2.553613 73.075121 -26.741310 1
-0.010411 72.182434 -27.300902 1
0.761511 69.244434 -25.936472 1
1.322553 65.988377 -24.306009 4
-1.643304 58.316519 -18.640981 4
0.492161 56.774324 -18.680897 4
-0.381831 51.356972 -15.218514 4
4.215533 52.977733 -18.139215 4
5.920236 50.845314 -17.677715 4
5.413699 45.623250 -14.507613 9
8.284408 45.015098 -15.433044 9
11.317036 44.691764 -16.597402 9
14.231894 44.255768 -17.653316 9
17.164459 43.903501 -18.771021 9
19.965685 43.405692 -19.755583 9
22.766307 42.959255 -20.775429 9
25.475459 42.416386 -21.707222 9
28.195593 41.941056 -22.688312 9
30.859365 41.419791 -23.625099 9
33.471052 40.854677 -24.520601 9
36.056409 40.287586 -25.409652 9
38.630447 39.744946 -26.313636 9
41.120412 39.086157 -27.121568 9
43.631595 38.509418 -27.990985 9
46.108719 37.906944 -28.837031 9
48.497607 37.160508 -29.569699 9
49.633523 33.724753 -28.253637 9
52.971575 35.088989 -30.596505 9
55.100651 33.826862 -30.945750 9
57.144974 32.362909 -31.151908 9
59.140606 30.765503 -31.269314 9
61.155692 29.193829 -31.416767 9
63.156246 27.560932 -31.531018 9
65.160968 25.910754 -31.644847 9
67.155193 24.199925 -31.727870 9
69.184713 22.554552 -31.870187 9
71.150192 20.682349 -31.866546 5
73.415210 19.693170 -32.489708 5
75.673043 18.693814 -33.110668 5
77.901824 17.607973 -33.677882 5
80.124042 16.502673 -34.238294 5
82.342604 15.384840 -34.797060 5
84.525355 14.128787 -35.271316 5
86.700762 12.828159 -35.725169 5
88.884241 11.539997 -36.196684 5
91.049780 10.151077 -36.612793 5
93.204929 8.679715 -36.987123 5
95.346152 7.094695 -37.301502 5
97.486183 5.441329 -37.586482 5
99.616019 3.658233 -37.805234 5
101.735709 1.721224 -37.945244 5
103.845118 -0.400798 -37.990322 5
105.877423 -3.181567 -37.657440 5
107.729240 -7.486669 -36.439738 5
109.117371 -15.800473 -32.889970 5
-48.007659 45.841666 12.611516 9
-9.937530 80.198883 -24.138969 1
-7.055722 79.568269 -24.989936 1
-4.222435 78.933118 -25.823895 1
-1.429743 78.299810 -26.647920 1
0.598686 76.857459 -26.669033 1
0.971897 73.526970 -24.863274 1
1.374428 70.146854 -23.047380 1
1.815016 66.725990 -21.230597 1
1.592054 62.401458 -18.599313 4
3.414461 60.518154 -18.303603 4
5.183544 58.552300 -17.942795 4
6.795983 56.361270 -17.388030 4
8.261560 53.941625 -16.641734 4
9.664830 51.393809 -15.800040 4
9.225673 46.179838 -12.596027 9
12.164581 45.702159 -13.654808 9
15.106529 45.285149 -14.756662 9
18.089378 44.989401 -15.953475 9
20.925264 44.527097 -16.994425 9
23.744665 44.093321 -18.050767 9
26.558991 43.707229 -19.138568 9
29.290367 43.238386 -20.147467 9
31.973282 42.738235 -21.122605 9
34.631925 42.245662 -22.097212 9
37.249609 41.728726 -23.045318 9
39.830066 41.190615 -23.970396 9
42.390055 40.660355 -24.896634 9
44.902923 40.083502 -25.780707 9
47.372636 39.462392 -26.625750 9
49.742469 38.671021 -27.334016 9
51.993146 37.650200 -27.863149 9
54.174112 36.488796 -28.286605 9
56.304398 35.216708 -28.630276 9
58.334054 33.702616 -28.796893 9
60.360884 32.164228 -28.955136 9
62.389651 30.610760 -29.112489 9
64.425758 29.054427 -29.278408 9
66.451946 27.447189 -29.417867 9
68.488986 25.841937 -29.570402 9
70.557682 24.299480 -29.779905 5
72.933413 23.664963 -30.648845 5
75.212429 22.765393 -31.330073 5
77.285127 21.207513 -31.552801 5
79.526746 20.192958 -32.165168 5
81.767562 19.184583 -32.787016 5
84.001890 18.160693 -33.403597 5
86.213052 17.053065 -33.969176 5
88.404047 15.860851 -34.484882 5
90.603088 14.690600 -35.023296 5
92.790882 13.458140 -35.528701 5
94.962911 12.131200 -35.981293 5
97.136057 10.776736 -36.426265 5
99.297545 9.321945 -36.817558 5
101.456009 7.795546 -37.175355 5
103.612946 6.191701 -37.497387 5
105.721824 4.201196 -37.592214 5
107.726779 1.364859 -37.182871 5
109.605100 -2.673345 -36.066155 5
111.238782 -9.127081 -33.526750 5
112.979481 -15.632082 -31.027011 5
-11.016695 83.100396 -21.719700 1
-7.925280 82.643765 -22.786737 1
-4.856858 82.219884 -23.869927 1
-1.879853 81.755907 -24.894714 1
1.010471 81.251838 -25.863044 1
1.192096 77.775754 -23.838257 1
1.602072 74.469188 -22.023393 1
0.562169 69.382325 -18.494972 1
2.498914 67.694281 -18.349020 1
4.384603 65.939422 -18.146337 4
5.970092 63.799084 -17.583852 4
7.545401 61.618283 -16.998920 4
8.991066 59.236486 -16.241680 4
10.340717 56.684459 -15.345844 4
11.645014 54.020190 -14.369107 4
12.881369 51.203779 -13.277591 4
13.031540 46.739787 -10.718519 9
15.918241 46.219199 -11.757395 9
18.903131 45.903533 -12.968911 9
21.828885 45.559175 -14.142413 9
24.653244 45.113339 -15.215361 9
27.502019 44.764420 -16.362782 9
30.262335 44.325960 -17.422504 9
33.061624 44.011504 -18.579152 9
35.728971 43.522001 -19.577524 9
38.373741 43.042801 -20.577283 9
40.989243 42.560183 -21.567192 9
43.551007 42.024118 -22.506483 9
46.101945 41.514428 -23.461865 9
48.538586 40.817263 -24.259946 9
50.888830 39.973438 -24.937751 9
53.166535 38.998401 -25.510909 9
55.309070 37.736426 -25.859491 9
57.383999 36.317100 -26.090953 9
59.479082 34.936314 -26.360589 9
61.513909 33.396517 -26.515883 9
63.586541 31.933881 -26.740189 9
65.653646 30.440181 -26.950336 9
67.714976 28.910793 -27.143613 9
69.763282 27.320469 -27.302107 9
71.974726 26.184737 -27.806704 5
74.311870 25.439477 -28.602012 5
76.625393 24.651244 -29.367165 5
78.949408 23.926761 -30.179752 5
81.264406 23.204645 -30.995158 5
83.528856 22.333293 -31.706735 5
85.574583 20.656383 -31.859066 5
87.810018 19.673994 -32.505774 5
90.030053 18.636381 -33.119748 5
92.236115 17.540019 -33.699795 5
94.434018 16.400869 -34.257931 5
96.627042 15.226335 -34.800055 5
98.810041 13.982908 -35.304806 5
100.992201 12.706297 -35.797016 5
103.170015 11.368918 -36.259521 5
105.320005 9.814900 -36.593201 5
107.392204 7.673594 -36.565594 5
109.369033 4.691801 -36.027215 5
111.228477 0.505563 -34.765116 5
112.964088 -5.242081 -32.579143 5
114.931954 -9.807419 -31.182701 5
-12.272442 82.293323 -16.890739 1
-6.488263 84.500425 -20.857659 1
-3.330012 84.168332 -22.068044 1
-0.277218 83.786436 -23.205810 1
2.563881 83.233051 -24.147246 1
2.319135 79.290366 -21.595702 1
-1.603730 71.034395 -14.710675 1
1.964647 71.212103 -16.452520 1
5.031574 70.877556 -17.655446 1
6.575024 68.735927 -17.054520 1
7.989246 66.404139 -16.283479 1
9.710821 64.430765 -15.879841 4
10.980503 61.840510 -14.896023 4
12.216885 59.153519 -13.843898 4
13.432659 56.380873 -12.736255 4
14.517866 53.360440 -11.423312 4
14.622038 48.832578 -8.742469 4
16.614424 46.978605 -8.575378 9
19.596575 46.630813 -9.791881 9
22.568743 46.331188 -11.038745 9
25.546393 46.106373 -12.339230 9
28.385427 45.720459 -13.482748 9
31.209957 45.369957 -14.646477 9
33.971862 44.971182 -15.757109 9
36.669264 44.514547 -16.807932 9
39.381776 44.140823 -17.921339 9
42.072253 43.784256 -19.040041 9
44.671512 43.308355 -20.049130 9
47.186333 42.714179 -20.952510 9
49.653157 42.065093 -21.805570 9
51.969202 41.133633 -22.423172 9
54.222790 40.087352 -22.947942 9
56.356166 38.782143 -23.266334 9
58.482147 37.457770 -23.575686 9
60.547042 35.980776 -23.770791 9
62.643390 34.567849 -24.025235 9
64.739536 33.142546 -24.278314 9
66.836145 31.704617 -24.530244 9
68.914587 30.199997 -24.740043 9
70.934350 28.503422 -24.814119 5
73.318642 27.862858 -25.695372 5
75.676549 27.181663 -26.545268 5
78.039461 26.554901 -27.435144 5
80.342527 25.768598 -28.207375 5
82.678774 25.127807 -29.086899 5
84.946578 24.276837 -29.815022 5
87.257607 23.613633 -30.680026 5
89.494494 22.691567 -31.362594 5
91.571218 21.108776 -31.586032 5
93.797142 20.131728 -32.243066 5
96.011330 19.106103 -32.871882 5
98.211861 18.012742 -33.460492 5
100.406976 16.881035 -34.030214 5
102.600495 15.723389 -34.590249 5
104.773591 14.422820 -35.063539 5
106.889505 12.718619 -35.281252 5
108.928564 10.390314 -35.107069 5
110.873636 7.169718 -34.379088 5
112.749350 3.029191 -33.095739 5
114.595181 -1.938608 -31.332308 5
116.843407 -3.934695 -31.490357 5
119.002510 -7.080609 -30.951983 5
-12.482459 86.128814 -15.397686 1
-4.866868 90.049023 -21.390786 3
-2.465815 88.968583 -21.802551 3
-0.567654 87.393513 -21.673093 3
1.298367 85.785708 -21.513469 3
3.890672 84.965985 -22.195837 1
4.190725 81.633087 -20.227208 1
1.446889 74.744347 -14.598463 1
3.192936 72.837648 -14.216371 1
4.817451 70.771093 -13.682408 1
8.524189 71.234877 -15.723023 1
10.022699 69.026270 -15.051953 1
10.888464 65.970428 -13.557015 4
12.795265 64.214144 -13.373744 4
13.888328 61.346130 -12.115709 4
14.966401 58.390104 -10.801649 4
15.006629 53.883268 -8.033070 4
15.817865 50.349930 -6.244859 4
17.240394 47.630435 -5.261267 9
20.174969 47.178188 -6.415847 9
21.409228 44.097739 -5.130451 9
26.268180 46.818920 -9.187356 9
29.174796 46.516939 -10.438186 9
32.038438 46.207330 -11.668972 9
34.887644 45.937425 -12.922630 9
37.644833 45.567792 -14.075532 9
40.346366 45.155320 -15.180331 9
43.014140 44.736115 -16.269829 9
45.650560 44.312264 -17.346415 9
48.206160 43.780718 -18.322687 9
50.649217 43.063147 -19.135187 9
52.990625 42.163928 -19.792051 9
55.226998 41.056722 -20.275665 9
57.402293 39.821203 -20.656459 9
59.484486 38.367607 -20.864071 9
61.596692 36.975280 -21.129577 9
63.731642 35.631349 -21.441513 9
65.830656 34.185994 -21.679789 9
67.963040 32.816010 -21.986184 9
69.779143 30.543353 -21.594243 5
72.219391 30.015791 -22.575738 5
74.619392 29.417306 -23.499433 5
77.000658 28.805359 -24.410831 5
79.353162 28.143430 -25.282888 5
81.705611 27.521493 -26.184236 5
84.027590 26.834259 -27.036193 5
86.335417 26.131809 -27.877138 5
88.625388 25.395640 -28.694115 5
90.895358 24.610160 -29.476742 5
93.164735 23.849312 -30.279172 5
95.428903 23.094143 -31.087699 5
97.515917 21.525540 -31.325946 5
99.729324 20.529005 -31.975874 5
101.930059 19.465122 -32.584888 5
104.139879 18.442479 -33.228823 5
106.287782 17.039007 -33.620583 5
108.364297 15.111315 -33.670945 5
110.366426 12.519526 -33.296487 5
112.291062 9.080258 -32.388399 5
114.228594 5.310974 -31.300830 5
116.359489 2.728989 -31.023429 5
118.711463 1.975010 -31.946154 5
120.612385 -3.675941 -29.757655 6
122.813231 -6.840668 -29.199191 6
124.940451 -11.697468 -27.617926 6
-11.359456 91.196669 -15.372196 3
-7.746401 91.158953 -17.038036 3
-4.117924 91.216612 -18.778841 3
-0.712725 91.132705 -20.327494 3
2.123486 90.536492 -21.279246 3
3.678230 88.633514 -20.780475 3
5.151391 86.626136 -20.180442 3
5.822698 83.706655 -18.613539 1
6.572696 80.809809 -17.104074 1
5.537732 75.765133 -13.360518 1
6.952014 73.475250 -12.571265 1
8.280165 71.045009 -11.655820 1
11.695296 71.194173 -13.407521 1
12.894630 68.577245 -12.321038 1
14.108322 65.925330 -11.224662 4
14.491365 62.091869 -8.975661 4
15.363030 58.819677 -7.328417 4
16.117679 55.291567 -5.466926 4
16.701014 51.409645 -3.302601 4
17.628707 47.922509 -1.564026 9
20.655655 47.571260 -2.852192 9
23.813266 47.493485 -4.383371 9
26.823964 47.257456 -5.747233 9
29.862612 47.139764 -7.204972 9
32.759422 46.855958 -8.492781 9
35.668204 46.661222 -9.847861 9
38.485511 46.372742 -11.103512 9
41.256235 46.063893 -12.328214 9
43.998787 45.766030 -13.550788 9
46.646550 45.345707 -14.654090 9
49.210316 44.811567 -15.648956 9
51.639491 44.044363 -16.435346 9
53.921380 42.992627 -16.974816 9
56.152406 41.843734 -17.433206 9
58.331302 40.584027 -17.801427 9
60.494907 39.289513 -18.145584 9
62.628644 37.919621 -18.433069 9
64.771703 36.565907 -18.740803 9
66.914348 35.203448 -19.048355 9
69.055561 33.827626 -19.352368 9
70.977465 31.815546 -19.155545 5
73.434995 31.325663 -20.181148 5
75.869866 30.821400 -21.191167 5
78.259112 30.225483 -22.126057 5
80.644028 29.661805 -23.083588 5
83.003812 29.060260 -24.009765 5
85.330189 28.383739 -24.877490 5
87.672827 27.808037 -25.820654 5
89.975142 27.120921 -26.679401 5
92.274244 26.458216 -27.556484 5
94.540971 25.693964 -28.359479 5
96.795567 24.903012 -29.144899 5
99.052484 24.149102 -29.959316 5
101.307353 23.414089 -30.789311 5
103.523205 22.497110 -31.492890 5
105.596906 20.760149 -31.627198 5
107.710476 19.164204 -31.874475 5
109.761019 17.052763 -31.780970 5
111.815229 14.783875 -31.600335 5
113.995589 13.272890 -31.953320 5
115.965872 9.866658 -31.051922 5
118.143045 7.898219 -31.139428 5
120.122256 3.644330 -29.745666 6
122.375211 1.754275 -29.935761 6
124.630623 -0.379758 -29.986720 6
126.891334 -2.830809 -29.856534 6
129.154704 -5.823085 -29.409406 6
131.411819 -9.917830 -28.303964 6
-14.152779 92.605805 -11.120383 3
-11.829218 91.266556 -11.335301 3
-5.859828 93.437483 -15.654066 3
-3.061908 92.687364 -16.500962 3
-0.851599 91.390865 -16.705148 3
2.403506 91.187182 -18.146706 3
5.780848 91.182426 -19.784538 3
7.046363 88.971629 -18.938143 3
2.920818 80.751096 -11.492319 1
8.105021 82.778051 -15.370029 1
7.612252 78.374345 -12.230948 1
8.898979 75.953114 -11.276142 1
10.036247 73.306621 -10.104847 1
11.610525 71.154786 -9.479042 1
11.237267 66.465643 -6.232496 1
15.257234 67.419732 -8.862022 1
15.694490 63.650291 -6.629869 4
16.380378 60.111002 -4.677250 4
16.834503 56.136880 -2.331228 4
17.002217 51.615335 0.508491 4
17.787343 47.864990 2.531517 9
18.728983 44.239657 4.388815 9
24.181353 47.664902 -0.601009 9
27.371211 47.676614 -2.243665 9
30.415751 47.531674 -3.716533 9
33.417856 47.391314 -5.175815 9
36.343223 47.192418 -6.563282 9
39.215677 46.970752 -7.914028 9
42.046633 46.743232 -9.244682 9
44.806785 46.450143 -10.501807 9
46.135039 43.369128 -9.240797 9
50.062151 45.524937 -12.677084 9
52.524164 44.796488 -13.516459 9
54.854982 43.820047 -14.134445 9
57.023249 42.498964 -14.453220 9
59.257282 41.330297 -14.908430 9
61.425433 40.011087 -15.238543 9
63.573581 38.639105 -15.529782 9
65.736633 37.297985 -15.853587 9
67.110919 33.840235 -14.425816 5
70.109747 34.724861 -16.610556 9
72.140390 32.982736 -16.626180 5
74.621533 32.546320 -17.710954 5
77.072602 32.077036 -18.763801 5
79.491534 31.561875 -19.775401 5
81.892657 31.041092 -20.778756 5
84.263906 30.469240 -21.738783 5
86.636408 29.951694 -22.738433 5
88.965766 29.322847 -23.649756 5
91.283461 28.691298 -24.557922 5
93.580350 28.015647 -25.432024 5
95.881156 27.397042 -26.348817 5
98.158364 26.713029 -27.216685 5
100.413228 25.956158 -28.031698 5
102.680985 25.296883 -28.919590 5
104.908631 24.453815 -29.675702 5
107.123550 23.551360 -30.392768 5
109.276880 22.260723 -30.839194 5
111.384297 20.599172 -31.034747 5
113.423207 18.305396 -30.804860 5
115.440085 15.589202 -30.306312 5
117.479713 12.728512 -29.737028 5
119.620598 10.451607 -29.592729 5
121.734358 7.553774 -29.054622 6
123.994490 5.945385 -29.403655 6
126.263097 4.237183 -29.701506 6
128.538998 2.354871 -29.901740 6
130.825559 0.255228 -29.979812 6
133.128184 -2.096107 -29.917888 6
135.448095 -4.920633 -29.580373 6
137.792299 -8.596510 -28.738738 6
-12.794321 94.391088 -9.064421 3
-8.972681 94.444804 -10.979514 3
-5.290977 94.453256 -12.799594 3
-1.741884 94.416532 -14.528156 3
-4.973438 87.662739 -8.334704 1
3.539305 92.721387 -15.996460 3
5.484943 91.200122 -15.935144 3
8.502487 90.839762 -17.198649 3
9.590128 88.404771 -16.100297 3
9.538538 84.632734 -13.533845 1
10.503295 81.930929 -12.203357 1
9.810380 77.193549 -8.674339 1
11.333861 75.006194 -7.980753 1
12.338109 72.136339 -6.571863 1
14.901063 71.207009 -7.257109 1
16.445315 68.965876 -6.552650 1
16.579616 64.777553 -3.835284 4
16.935906 60.759216 -1.349741 4
16.905965 56.058618 1.782287 4
17.842584 52.608535 3.581885 4
17.464058 47.075864 7.434641 9
20.966961 47.337573 5.440271 9
24.324496 47.472138 3.600241 9
27.674515 47.690931 1.703533 9
30.839773 47.699754 0.036554 9
33.916077 47.643039 -1.545719 9
36.924868 47.550301 -3.073815 9
39.884095 47.448428 -4.574712 9
42.773750 47.296089 -6.010675 9
45.598964 47.095965 -7.386080 9
48.322052 46.765511 -8.626910 9
50.888120 46.176532 -9.620231 9
53.285813 45.277851 -10.326603 9
55.625634 44.280728 -10.942707 9
57.859915 43.065514 -11.365149 9
60.066599 41.792026 -11.739709 9
62.267567 40.506357 -12.108114 9
64.501169 39.302682 -12.552159 9
66.719066 38.062827 -12.969084 9
68.913382 36.760400 -13.337542 9
70.722038 34.372584 -12.799095 5
73.250592 33.990429 -13.954296 5
75.751691 33.591365 -15.088245 5
78.220742 33.156448 -16.186163 5
80.669661 32.717846 -17.275293 5
83.089190 32.241015 -18.328253 5
85.479024 31.717331 -19.339300 5
87.869325 31.250690 -20.391898 5
90.235963 30.752371 -21.415616 5
92.562962 30.149442 -22.354741 5
94.877892 29.542410 -23.289122 5
97.185164 28.948325 -24.232130 5
99.460341 28.249215 -25.094502 5
101.737205 27.596198 -25.991949 5
104.010084 26.964664 -26.905503 5
106.259901 26.246022 -27.754984 5
108.449948 25.192493 -28.361435 5
110.588188 23.779586 -28.713936 5
112.667786 21.870548 -28.721622 5
114.699291 19.418678 -28.361089 5
116.748377 16.830529 -27.929231 5
118.852958 14.420013 -27.647782 5
120.998651 12.098034 -27.451800 6
123.262071 10.793139 -27.975818 6
125.529603 9.420388 -28.464223 6
127.801970 7.954182 -28.901261 6
130.084407 6.433165 -29.314611 6
132.373212 4.729543 -29.621132 6
134.674894 2.864116 -29.838003 6
136.994969 0.854660 -29.979906 6
139.335756 -1.462098 -29.944951 6
141.706412 -4.149315 -29.698857 6
144.120591 -7.582604 -29.012318 6
146.633793 -13.768768 -26.649127 6
-12.349372 95.347883 -5.980911 3
-9.481864 94.488252 -6.827125 3
-2.203320 97.868426 -12.862303 2
-2.125784 94.482807 -10.546853 3
1.468476 94.525002 -12.402134 3
4.880755 94.466143 -14.099127 3
7.054649 93.184992 -14.322698 3
10.092536 92.850580 -15.646571 3
11.181773 90.426523 -14.534372 3
10.918530 86.425695 -11.645612 1
11.924455 83.774319 -10.342789 1
12.806149 80.919106 -8.840291 1
11.199499 74.954468 -3.923061 1
8.928598 67.927743 2.061072 1
14.829643 71.138389 -3.205460 1
16.761045 69.359275 -3.002141 1
17.014811 65.294113 -0.369007 4
17.120199 60.889043 2.568418 4
17.795116 57.146489 4.751782 4
12.927592 45.144197 15.452565 9
16.885116 45.892872 12.850270 9
20.675291 46.516694 10.416115 9
24.300260 47.004242 8.156853 9
27.659159 47.174421 6.248500 9
31.038931 47.480186 4.232886 9
34.245723 47.593485 2.434614 9
37.365692 47.647831 0.717856 9
40.389880 47.618300 -0.895727 9
43.357699 47.568959 -2.470237 9
46.269015 47.494822 -4.002161 9
49.028127 47.197915 -5.307112 9
51.567980 46.514914 -6.239461 9
54.011680 45.670168 -7.015996 9
56.362845 44.653881 -7.632139 9
58.607785 43.415837 -8.046942 9
60.841487 42.156857 -8.446191 9
63.093146 40.945179 -8.891318 9
65.351281 39.755627 -9.359258 9
67.582134 38.500667 -9.773253 9
69.808300 37.233417 -10.181058 9
71.763889 35.198349 -9.934458 5
74.322910 34.876220 -11.162391 5
76.836431 34.487325 -12.325196 5
79.337072 34.124790 -13.502633 5
81.820784 33.776014 -14.684055 5
84.259154 33.341603 -15.787851 5
86.680202 32.908910 -16.887389 5
89.065749 32.406524 -17.925310 5
91.435382 31.899715 -18.955663 5
93.789730 31.387896 -19.978389 5
96.147739 30.951308 -21.057000 5
98.461576 30.376990 -22.024227 5
100.765368 29.806283 -22.992415 5
103.043537 29.155662 -23.897800 5
105.306047 28.462337 -24.770523 5
107.558896 27.750477 -25.629886 5
109.725723 26.526252 -26.108304 5
111.852369 24.982841 -26.358999 5
113.913843 22.852886 -26.192697 5
115.981327 20.554351 -25.924459 5
117.932280 16.947507 -24.737993 6
120.205022 15.930000 -25.436725 6
122.472373 14.823144 -26.078564 6
124.740307 13.661705 -26.689773 6
127.013341 12.481504 -27.296436 6
129.286827 11.188734 -27.834667 6
131.565828 9.809440 -28.324534 6
133.855043 8.389766 -28.798975 6
136.153375 6.836992 -29.197010 6
138.465756 5.186728 -29.544888 6
140.794737 3.355092 -29.789645 6
143.145836 1.398622 -29.971548 6
145.525278 -0.863704 -29.976725 6
147.943586 -3.486332 -29.776375 6
-11.467723 100.142197 -5.824572 2
-11.348658 96.810832 -3.508860 2
-1.447630 102.440997 -12.643354 2
0.183615 100.606482 -12.184724 2
1.732716 98.682152 -11.623659 2
3.359665 96.820461 -11.151571 2
4.539316 94.489404 -10.117875 3
7.954149 94.464993 -11.887306 3
9.769845 92.802653 -11.666898 3
12.566289 92.217930 -12.724884 3
13.043438 89.060512 -10.756100 3
13.203549 85.452015 -8.307217 1
14.011147 82.507876 -6.670771 1
11.568871 75.520587 -0.484315 1
13.946831 74.293472 -0.891143 1
14.849077 71.187198 0.795853 1
17.425775 70.213579 0.097620 1
18.091158 66.679836 2.200494 1
17.276021 60.977006 6.601460 4
-1.231604 29.717405 38.257941 9
10.418906 41.195351 24.016319 9
15.436777 43.385724 19.785902 9
19.755316 44.709225 16.529116 9
23.725930 45.647172 13.722912 9
27.449809 46.327497 11.224144 9
31.013671 46.869860 8.903208 9
34.384983 47.201231 6.828324 9
37.590662 47.347101 4.967347 9
40.771368 47.546985 3.078586 9
43.848036 47.651991 1.307870 9
46.839339 47.686607 -0.371787 9
49.600827 47.348412 -1.673261 9
52.232420 46.807339 -2.768160 9
54.639606 45.836979 -3.449149 9
57.022590 44.838892 -4.101975 9
59.288540 43.594596 -4.525718 9
61.588037 42.436339 -5.031149 9
63.867728 41.240278 -5.503977 9
66.154955 40.071018 -6.003538 9
68.393579 38.781259 -6.398029 9
70.054008 35.896722 -5.386666 5
72.729172 35.790185 -6.840215 5
75.320693 35.525955 -8.143492 5
77.883507 35.251883 -9.427931 5
80.436477 35.024892 -10.742791 5
82.919007 34.644066 -11.917380 5
85.388961 34.289603 -13.106715 5
87.829377 33.899949 -14.259398 5
90.247952 33.496999 -15.394616 5
92.631491 33.022399 -16.465324 5
95.007872 32.581238 -17.558526 5
97.358278 32.091439 -18.607934 5
99.692510 31.588488 -19.643135 5
102.018558 31.107485 -20.692400 5
104.323690 30.581268 -21.703054 5
106.606108 29.987393 -22.658938 5
108.809049 28.960298 -23.280943 5
110.983550 27.735402 -23.757417 5
113.070889 25.844014 -23.738975 5
115.135828 23.611812 -23.482794 5
117.232143 21.397489 -23.261635 5
119.394626 19.532031 -23.318280 5
121.623227 18.134183 -23.732287 6
123.905864 17.239647 -24.520275 6
126.181355 16.241607 -25.238880 6
128.453811 15.147023 -25.895279 6
130.727767 13.977400 -26.506648 6
133.009365 12.814409 -27.131412 6
135.294333 11.523122 -27.676719 6
137.588980 10.197134 -28.209087 6
139.893889 8.772450 -28.686115 6
142.212376 7.284830 -29.133814 6
144.547673 5.611852 -29.472380 6
146.904224 3.826233 -29.753268 6
149.287365 1.867292 -29.939304 6
-7.163203 104.500474 -7.248370 2
-3.432766 104.483968 -9.212980 2
-0.063202 104.221509 -10.811027 2
2.469705 103.240892 -11.446568 2
4.079288 101.399519 -10.969956 2
5.675066 99.533042 -10.471498 2
7.436490 97.822337 -10.177919 2
7.583938 94.418284 -7.801013 3
11.239658 94.684515 -9.956763 3
13.204842 93.187142 -9.937446 3
13.665444 89.994314 -7.892181 3
14.064764 86.644994 -5.705221 1
14.978239 83.813554 -4.171545 1
12.248020 76.466458 2.567094 1
13.595564 73.924048 3.650575 1
14.801541 71.150262 4.972379 1
18.036981 70.996915 3.313900 1
21.337418 71.011448 1.496332 1
21.574423 66.840915 4.330902 1
2.846165 29.770154 40.946069 9
6.640313 29.734269 38.875313 9
16.866641 39.820895 26.076946 9
22.161558 42.689260 21.111406 9
26.571330 44.363590 17.476566 9
30.470520 45.366617 14.595340 9
34.121330 46.090826 12.044993 9
37.604982 46.652443 9.698431 9
40.929129 47.046437 7.555048 9
44.095391 47.256277 5.625672 9
47.169150 47.389837 3.797880 9
50.038515 47.208483 2.302269 9
52.732258 46.738651 1.104123 9
55.206613 45.853745 0.316929 9
57.595523 44.810175 -0.314719 9
59.901517 43.595672 -0.783669 9
62.222228 42.425531 -1.295964 9
64.551963 41.289093 -1.840901 9
66.820985 40.008590 -2.254564 9
69.139967 38.863037 -2.794909 9
70.932923 36.263225 -2.024011 5
73.608928 36.113454 -3.471047 5
76.269813 36.008251 -4.944236 5
78.858620 35.771421 -6.288099 5
81.434030 35.574934 -7.656063 5
83.981705 35.372205 -9.007402 5
86.482087 35.089358 -10.279430 5
88.951774 34.774062 -11.514843 5
91.388099 34.408008 -12.699359 5
93.795812 34.000002 -13.841829 5
96.200151 33.650350 -15.026471 5
98.050695 30.831148 -14.180589 5
100.911757 32.731062 -17.197668 5
103.243224 32.252874 -18.261691 5
105.566048 31.796656 -19.339504 5
107.842653 31.142101 -20.256667 5
109.631257 27.445135 -18.787661 5
112.177701 28.492456 -21.047472 5
114.263581 26.467413 -20.917086 5
116.367529 24.388252 -20.764254 5
118.499004 22.322522 -20.641273 5
120.747547 21.156829 -21.212704 6
123.022054 20.212157 -21.955909 6
125.297284 19.258543 -22.697311 6
127.579322 18.375247 -23.495143 6
129.864768 17.536934 -24.329902 6
132.142201 16.525004 -25.044314 6
134.419787 15.401979 -25.686408 6
136.705053 14.309528 -26.358208 6
138.996038 13.165763 -27.002259 6
141.294229 11.896307 -27.568419 6
143.603514 10.556827 -28.097388 6
145.926195 9.153857 -28.595138 6
148.265809 7.633655 -29.027014 6
-7.892482 104.447532 -2.825811 2
-4.901642 103.715666 -3.908009 2
-2.388333 102.597221 -4.446960 2
3.242620 104.443308 -8.885859 2
6.070666 103.766165 -9.930230 2
8.129841 102.376688 -10.030916 2
9.703347 100.504709 -9.512690 2
10.565632 97.876148 -8.049702 2
12.357969 96.188566 -7.794293 3
13.461363 93.738714 -6.602263 3
14.288774 90.931554 -4.998939 3
13.748980 86.476490 -1.434470 1
15.513212 84.606260 -1.043290 1
12.929938 77.416714 5.649062 1
11.402250 71.248322 11.004601 1
14.806898 71.181899 9.154651 1
18.104851 71.061698 7.399752 1
21.188397 70.733640 5.912454 1
14.385937 29.731770 39.473692 9
23.244414 38.330855 28.231867 9
28.938545 42.159663 22.228946 9
33.286074 43.958260 18.453529 9
37.147927 45.087390 15.433863 9
40.741893 45.884541 12.802577 9
44.162267 46.494582 10.401567 9
47.390743 46.858772 8.283700 9
50.358516 46.808070 6.610079 9
53.056377 46.278086 5.432313 9
55.597843 45.465570 4.543799 9
58.002206 44.382707 3.924678 9
60.360645 43.212647 3.390951 9
62.738165 42.102154 2.799845 9
65.097341 40.962299 2.236748 9
67.412492 39.721334 1.767914 9
69.773298 38.608991 1.176886 9
71.682361 36.239459 1.743889 5
74.431200 36.239986 0.124147 5
77.144635 36.237702 -1.476378 5
79.797172 36.147815 -2.982206 5
82.419357 36.056739 -4.472830 5
84.982893 35.862799 -5.859114 5
87.516025 35.650780 -7.218049 5
90.031480 35.463354 -8.587477 5
92.494556 35.161991 -9.848284 5
94.945095 34.893359 -11.128342 5
96.799381 32.060889 -10.236055 5
99.734882 34.116620 -13.462385 5
102.118604 33.794598 -14.674947 5
104.468923 33.385684 -15.809280 5
106.789568 32.889820 -16.867573 5
109.034085 32.002195 -17.605907 5
111.220197 30.745393 -18.051044 5
113.343634 28.995488 -18.112764 5
115.443583 26.921683 -17.934686 5
117.584736 24.976300 -17.876174 6
119.875032 24.207887 -18.744396 6
122.147280 23.283418 -19.494827 6
124.420644 22.362878 -20.252275 6
126.695189 21.444057 -21.015228 6
128.966035 20.444592 -21.722523 6
131.243330 19.502346 -22.477782 6
133.525186 18.608306 -23.273474 6
135.809606 17.736678 -24.090160 6
138.093997 16.776871 -24.848195 6
140.381323 15.712315 -25.537763 6
142.675148 14.587518 -26.192524 6
144.977350 13.428601 -26.832112 6
147.290455 12.180233 -27.419117 6
149.616655 10.868519 -27.973375 6
-7.646593 108.595192 -2.030361 2
-3.849039 108.550106 -4.110577 2
-1.356098 107.431837 -4.653214 2
1.125034 106.332978 -5.207077 2
3.593424 105.252457 -5.770789 2
6.426850 104.553587 -6.830239 2
8.997823 103.645009 -7.587383 2
10.725817 101.919193 -7.258336 2
11.168907 98.849552 -5.198145 2
11.077152 95.130123 -2.351193 3
14.420314 95.064398 -4.189353 3
14.902391 91.859910 -2.059139 3
15.397033 88.582892 0.115190 3
12.100225 80.713971 7.873191 1
6.677482 69.913365 19.027369 1
11.308348 71.205920 15.426069 1
14.820113 71.224148 13.409883 1
18.198269 71.159773 11.528135 1
19.678924 68.605246 12.582264 1
22.040464 29.754880 40.008837 9
28.884266 35.519823 31.773176 9
35.610025 41.534756 23.418039 9
39.941660 43.550203 19.404168 9
43.778905 44.839830 16.210319 9
47.224073 45.530506 13.683387 9
48.150045 41.176210 16.341158 9
53.192265 45.390883 10.278821 9
55.782574 44.595805 9.335911 9
58.230576 43.519421 8.680017 9
60.649968 42.397922 8.070746 9
63.069254 41.294479 7.444936 9
65.495038 40.226315 6.786065 9
67.883535 39.080603 6.202762 9
69.417502 35.611149 7.824881 5
72.309881 35.832879 5.934439 5
75.181984 36.120081 4.004921 5
77.943668 36.198916 2.290378 5
80.653063 36.225426 0.642097 5
83.344226 36.303567 -1.036176 5
85.942309 36.173133 -2.509555 5
88.523722 36.082476 -4.005113 5
91.068856 35.958053 -5.457366 5
93.564997 35.739094 -6.814311 5
96.034559 35.503070 -8.145903 5
98.476115 35.237087 -9.441853 5
100.899983 34.981952 -10.738090 5
103.289062 34.648495 -11.959309 5
105.643127 34.216166 -13.090408 5
107.953407 33.609168 -14.070920 5
110.205427 32.693809 -14.794849 5
112.391304 31.339330 -15.162417 5
114.503676 29.375556 -15.045602 5
116.635227 27.376552 -14.918314 5
118.952811 26.810122 -15.948732 6
121.240010 26.023237 -16.803601 6
123.521129 25.197528 -17.629741 6
125.808450 24.466725 -18.531755 6
128.080046 23.548979 -19.291651 6
130.353841 22.643498 -20.065029 6
132.627409 21.698699 -20.812992 6
134.903638 20.750271 -21.563225 6
137.182302 19.770561 -22.295560 6
139.465687 18.827645 -23.060764 6
141.753069 17.956846 -23.883973 6
144.043230 17.056019 -24.690440 6
146.339922 15.983974 -25.380302 6
148.644930 14.879510 -26.055247 6
-5.786599 110.786003 -0.691069 2
-1.947955 110.779918 -2.878920 2
1.791329 110.776974 -5.015191 2
4.335074 109.775593 -5.698472 2
5.955917 107.946731 -5.216880 2
6.983610 105.538702 -3.951082 2
9.226053 104.285211 -4.275298 2
11.336952 102.918668 -4.439581 2
11.791558 99.846110 -2.340958 2
10.383867 94.709755 2.414130 3
14.966139 95.938935 -1.177516 3
15.554341 92.833556 0.860797 3
16.024362 89.509614 3.132119 3
14.030760 83.170090 9.136690 1
10.040862 74.139155 18.355054 1
11.240761 71.198105 19.900835 1
14.761925 71.175056 17.864946 1
29.570658 29.736179 40.557384 9
33.042483 29.711856 38.509236 9
42.214255 40.858898 24.635673 9
46.522588 43.097427 20.375947 9
49.980342 43.826363 17.758605 9
50.289533 37.961096 21.987179 9
55.674312 43.041734 14.934113 9
58.227070 42.086543 14.117178 9
60.723391 41.030337 13.407046 9
63.169665 39.875771 12.797886 9
65.637466 38.793137 12.118691 9
68.120094 37.771390 11.381806 9
69.729379 34.360907 12.961853 5
72.830579 35.072461 10.544642 5
75.780766 35.501951 8.427452 5
78.634331 35.778081 6.480895 5
81.452895 36.077267 4.535447 5
84.175800 36.191244 2.784009 5
86.838560 36.216426 1.132824 5
89.495645 36.340361 -0.591608 5
92.046913 36.178745 -2.040647 5
94.596330 36.114351 -3.564042 5
97.108133 36.002622 -5.031799 5
99.573719 35.791259 -6.399542 5
102.009210 35.537543 -7.719935 5
104.430408 35.312447 -9.055661 5
106.806984 34.947465 -10.262241 5
109.112754 34.250026 -11.179859 5
111.343717 33.112622 -11.725916 5
113.504497 31.454331 -11.843036 5
115.635685 29.443400 -11.681926 5
117.979623 29.016073 -12.835968 6
120.290429 28.388767 -13.823217 6
122.586384 27.675168 -14.739766 6
124.881164 26.996943 -15.684750 6
127.166766 26.255163 -16.579515 6
129.443982 25.421396 -17.403411 6
131.727394 24.713433 -18.327659 6
133.998794 23.771099 -19.072847 6
136.274527 22.877848 -19.860155 6
138.551786 21.949325 -20.625080 6
140.831865 20.961015 -21.350229 6
143.116941 19.937038 -22.054939 6
145.405775 19.077548 -22.887231 6
147.698830 18.159872 -23.681864 6
-2.643402 110.772484 1.601094 2
1.190480 110.798741 -0.668275 2
4.836074 110.747880 -2.768776 2
7.023636 109.427614 -3.015107 2
7.886468 106.858813 -1.502037 2
8.929263 104.416133 -0.196521 2
11.679893 103.651171 -1.218278 2
12.425696 100.857669 0.533066 2
12.879304 97.689326 2.748603 2
14.677951 95.905462 3.081105 3
15.675773 93.214134 4.595951 3
16.690114 90.482604 6.129967 3
5.732592 73.508331 25.902431 1
11.009377 75.445751 21.250891 1
11.577119 71.697411 23.836710 1
37.036641 29.771356 41.019754 9
40.419225 29.728331 38.994056 9
48.231949 39.027911 27.059882 9
52.048765 40.465184 23.622120 9
55.045385 40.279320 21.933367 9
57.720039 39.441434 20.940996 9
60.264366 38.335842 20.231797 9
62.826995 37.299901 19.455040 9
65.373568 36.251101 18.695301 9
67.959822 35.335689 17.805882 9
69.551341 31.677469 19.634107 5
72.948251 33.081942 16.457257 5
76.155186 34.145638 13.656719 5
79.205593 34.923192 11.169966 5
82.087410 35.329823 9.069591 5
84.927831 35.749219 6.982498 5
87.683085 36.019333 5.060173 5
90.353451 36.113826 3.322682 5
93.010903 36.290151 1.527991 5
95.597753 36.312549 -0.107295 5
98.132215 36.231764 -1.633370 5
100.644402 36.168221 -3.161216 5
103.127618 36.087075 -4.659935 5
105.558217 35.852567 -6.010800 5
107.925920 35.367947 -7.133332 5
110.221649 34.515521 -7.931821 5
112.447706 33.217398 -8.348188 5
114.601271 31.333014 -8.273261 5
116.779633 29.473153 -8.235313 5
119.278820 30.261553 -10.426234 6
121.602623 29.716783 -11.490072 6
123.918543 29.178536 -12.556376 6
126.220009 28.559743 -13.554474 6
128.510531 27.864709 -14.489885 6
130.798245 27.184539 -15.437347 6
133.079458 26.438713 -16.333036 6
135.357159 25.638787 -17.187689 6
137.634696 24.835599 -18.042252 6
139.912153 23.995965 -18.871462 6
142.191055 23.100874 -19.661800 6
144.472997 22.209364 -20.459349 6
146.760886 21.187011 -21.163435 6
149.054548 20.186825 -21.890702 6
0.001293 110.317970 4.541527 2
4.305112 110.794120 1.567671 2
7.123431 110.012117 0.497900 2
7.463632 106.918548 2.776919 2
8.525983 104.452554 4.114324 2
11.336517 103.699113 3.020060 2
13.073911 101.886982 3.421073 2
6.841943 91.611313 15.421660 3
10.409783 91.540801 13.315645 3
15.446912 93.206755 8.927646 3
17.345416 91.445521 9.181805 3
11.460863 80.468185 21.523836 1
11.740552 76.464433 24.548148 1
47.606196 29.515167 39.702063 9
49.885959 27.264112 40.058731 9
50.695762 21.536975 44.070982 9
57.460781 29.897558 33.256673 9
60.123025 28.717990 32.522318 9
61.580707 24.419574 34.996185 9
64.467386 23.770822 33.698266 9
68.234832 25.677939 29.833401 9
71.989361 27.831082 25.780569 5
76.032669 31.182585 20.601019 5
79.380081 32.723015 17.281444 5
82.539354 33.896491 14.366612 5
85.514679 34.657822 11.889486 5
88.396155 35.272351 9.584729 5
91.172721 35.668547 7.515590 5
93.900597 36.036320 5.497378 5
96.542731 36.205100 3.687557 5
99.112513 36.195917 2.061162 5
101.672318 36.275111 0.369572 5
104.180299 36.237863 -1.199847 5
106.651453 36.138383 -2.699142 5
108.559286 32.813395 -1.311593 5
111.311829 34.567866 -4.448670 5
113.516128 32.959370 -4.600770 5
115.681439 30.938984 -4.407234 5
118.207856 31.738542 -6.657445 6
120.564769 31.345192 -7.866199 6
122.900857 30.865520 -8.996077 6
125.229432 30.415306 -10.146336 6
127.541546 29.878206 -11.220066 6
129.841686 29.270525 -12.232924 6
132.140534 28.748113 -13.313859 6
134.425922 28.059988 -14.258454 6
136.708126 27.360322 -15.194085 6
138.987573 26.626861 -16.103606 6
141.266063 25.907717 -17.025855 6
143.544340 25.039937 -17.833739 6
145.824354 24.229461 -18.689766 6
148.108662 23.323516 -19.476006 6
-7.741376 92.964589 27.781670 3
-3.915163 92.763257 25.579810 3
-0.197486 92.544832 23.457189 3
3.461620 92.355128 21.345431 3
7.018571 92.146363 19.310699 3
10.562697 92.010113 17.222779 3
14.097875 91.952951 15.073956 3
18.032422 92.446986 12.225087 3
18.551041 89.025853 14.693794 3
78.132913 25.777993 28.307592 5
82.421885 30.422610 21.816586 5
85.790745 32.360980 18.093828 5
88.890120 33.613837 15.094258 5
91.823640 34.474378 12.515274 5
94.664800 35.177964 10.120182 5
97.385127 35.564723 8.056051 5
100.042164 35.841138 6.119669 5
102.672714 36.164588 4.160704 5
105.205537 36.158369 2.528248 5
107.692632 36.043414 1.011011 5
109.560555 32.250519 2.850517 5
112.351446 34.166814 -0.500479 5
114.543387 32.248970 -0.382253 5
117.043799 32.611440 -2.299196 6
119.444824 32.380498 -3.676363 6
121.822816 32.091312 -4.993523 6
124.190548 31.855988 -6.349065 6
126.529986 31.460298 -7.559078 6
128.852841 30.987420 -8.698025 6
131.170477 30.585105 -9.892025 6
133.473149 30.074474 -10.990989 6
135.764431 29.437061 -11.982419 6
138.054103 28.907729 -13.061381 6
140.336084 28.205640 -13.998300 6
142.616406 27.549114 -14.972493 6
144.895047 26.845690 -15.909685 6
147.174237 26.082359 -16.800892 6
149.457552 25.221484 -17.618247 6
-7.445292 93.780045 31.646270 3
-3.815184 93.350898 29.704529 3
0.001563 93.189056 27.419415 3
3.647310 92.945912 25.309218 3
7.243156 92.738129 23.199660 3
10.784115 92.559267 21.099334 3
14.228925 92.361754 19.074219 3
18.493565 93.191344 15.669367 3
19.234042 90.004323 17.855361 3
88.867922 29.851582 22.833361 5
88.334941 16.419839 34.267445 5
95.221239 33.321730 15.819158 5
98.113570 34.300162 13.120029 5
100.909079 35.082155 10.644848 5
103.574779 35.451778 8.593386 5
106.199086 35.801416 6.584088 5
108.688035 35.564644 5.145755 5
110.481540 31.016673 7.717611 5
113.333392 33.205615 4.037886 5
115.547946 31.161959 4.265323 5
118.202548 32.581901 1.346450 6
120.661974 32.727442 -0.394811 6
123.071505 32.626612 -1.901530 6
125.452239 32.417413 -3.301348 6
127.813798 32.170896 -4.659159 6
130.160463 31.925870 -6.009758 6
132.488255 31.590035 -7.274444 6
134.799145 31.117499 -8.416699 6
137.103090 30.689187 -9.592187 6
139.397071 30.170850 -10.688286 6
141.684794 29.611352 -11.747711 6
143.967700 29.065728 -12.816760 6
146.248868 28.363525 -13.757039 6
148.526634 27.753920 -14.772740 6
-5.711461 95.957497 33.486976 3
-2.541585 95.083799 32.174792 3
0.691721 94.329851 30.718057 3
4.019983 93.735158 29.062592 3
7.448704 93.315963 27.190985 3
11.068527 93.182053 24.950669 3
14.520626 92.954556 22.898216 3
17.963005 92.802310 20.786884 3
19.915413 90.982730 21.065708 3
95.268689 29.081041 24.040527 5
98.590810 31.725691 19.597575 5
101.562984 33.140698 16.426010 5
104.368523 34.029160 13.809429 5
107.077763 34.665535 11.468997 5
109.604344 34.455070 9.965115 5
111.994967 33.487157 9.191127 5
114.233525 31.434945 9.434101 5
116.490869 29.330437 9.707700 5
119.319025 32.003199 5.561152 6
121.826836 32.403077 3.548581 6
124.285031 32.615073 1.726914 6
126.704333 32.679436 0.054985 6
129.096729 32.686482 -1.551537 6
131.456771 32.485696 -2.961790 6
133.800388 32.264350 -4.344688 6
136.127312 31.971721 -5.657181 6
138.440657 31.612106 -6.904976 6
140.743460 31.209683 -8.110537 6
143.037602 30.796843 -9.302492 6
145.324937 30.300870 -10.420634 6
147.609454 29.692041 -11.442523 6
149.889345 29.137454 -12.508145 6
-6.581783 99.575314 35.785220 3
-3.459322 98.619010 34.542524 3
-0.383287 97.671355 33.322494 3
2.652795 96.736609 32.117123 3
5.644290 95.808317 30.935135 3
8.658362 94.954794 29.672290 3
11.750252 94.239488 28.236531 3
14.923199 93.675218 26.614542 3
18.200910 93.299268 24.758069 3
20.632406 92.005054 24.264614 3
101.668741 28.214462 25.338701 5
104.950306 31.265017 20.479900 5
107.795437 32.400371 17.575335 5
110.355636 32.098165 16.108695 5
112.751160 30.799408 15.616486 5
114.991093 28.283498 16.283798 5
117.346251 26.420992 16.306215 6
120.294948 29.866886 11.325579 6
122.924823 31.121194 8.459442 6
125.463872 31.935043 6.035866 6
127.934800 32.387732 3.970773 6
130.358734 32.600519 2.144784 6
132.749435 32.665573 0.468711 6
135.116353 32.679406 -1.147480 6
137.459147 32.528462 -2.605140 6
139.785950 32.347069 -4.026189 6
142.098236 32.047859 -5.335905 6
144.399797 31.714727 -6.609561 6
146.692576 31.334729 -7.837256 6
148.978093 30.925739 -9.035506 6
-4.318425 102.225174 36.824792 3
-1.261403 101.223974 35.632907 3
1.793769 100.271986 34.398235 3
4.805879 99.329885 33.183887 3
7.774804 98.395535 31.991852 3
10.703675 97.470087 30.818977 3
13.592739 96.551849 29.666601 3
16.477144 95.677774 28.477870 3
19.345043 94.835611 27.271772 3
21.319523 92.994218 27.564152 3
107.440900 23.369874 30.620728 5
110.657387 26.478539 25.654824 5
112.862014 23.113832 27.134901 5
126.532905 29.445101 12.139918 6
129.115799 30.945165 9.036161 6
131.605887 31.798737 6.570331 6
134.036968 32.236617 4.514157 6
136.433021 32.538488 2.602657 6
138.798072 32.619183 0.908757 6
141.142194 32.725072 -0.793385 6
143.466544 32.575509 -2.255165 6
145.777861 32.334179 -3.626663 6
148.075943 32.143069 -5.033916 6
-5.222003 105.807247 39.176326 3
-2.116236 104.813467 37.910755 3
0.934514 103.821549 36.682143 3
3.963659 102.860636 35.440654 3
6.928331 101.888290 34.254809 3
9.891716 100.964716 33.025730 3
12.801259 100.036552 31.838642 3
15.659099 99.102883 30.692877 3
18.506858 98.206592 29.520369 3
21.283301 97.278566 28.426729 3
22.037428 94.021728 30.863384 3
132.778452 28.693757 13.265672 6
135.308025 30.509405 9.855414 6
137.755904 31.569113 7.190883 6
140.153050 32.143495 5.004001 6
142.517366 32.488315 3.049290 6
144.857521 32.612721 1.312396 6
147.177324 32.711981 -0.387253 6
149.485460 32.578238 -1.866288 6
-6.113505 109.417985 41.514632 3
-3.009443 108.384658 40.251338 3
0.077786 107.388587 38.966207 3
3.114055 106.398405 37.712776 3
6.107006 105.418864 36.481147 3
9.048137 104.439594 35.287022 3
11.970465 103.491114 34.078419 3
14.857676 102.556383 32.882827 3
17.688864 101.611410 31.737472 3
20.505651 100.698526 30.573250 3
22.169078 98.521334 31.409236 3
139.075837 28.136121 14.212602 6
141.532309 30.179943 10.578245 6
143.926632 31.411128 7.747390 6
146.286095 31.952449 5.586163 6
148.616318 32.441881 3.494581 6
-3.864191 112.006694 42.539245 3
-0.768799 110.980341 41.240160 3
2.262541 109.949620 39.993389 3
5.251384 108.930871 38.767602 3
8.210931 107.934696 37.543039 3
11.127837 106.947130 36.342712 3
14.042802 106.007077 35.099853 3
16.866831 105.023580 33.965971 3
19.702639 104.099744 32.767933 3
22.278726 102.938952 31.986180 3
22.884095 99.572213 34.743320 3
145.501073 21.501242 20.926343 6
147.788405 29.808267 11.346216 6
-4.746581 115.623237 44.877198 3
-1.646178 114.562453 43.569515 3
1.406546 113.513129 42.288290 3
4.423141 112.483380 41.016946 3
7.395518 111.464433 39.770025 3
10.322639 110.453217 38.551250 3
13.220768 109.463301 37.335222 3
16.078271 108.482035 36.142910 3
18.889784 107.501781 34.985717 3
21.678707 106.544808 33.824455 3
22.999235 104.019643 35.287748 3
-2.510010 118.174537 45.886932 3
0.546169 117.090374 44.599113 3
3.544523 116.007903 43.356396 3
6.556239 114.987181 42.044472 3
9.500903 113.957335 40.795372 3
12.408281 112.942409 39.562331 3
15.280683 111.943010 38.342929 3
18.105230 110.944729 37.161307 3
20.889131 109.952214 36.007277 3
23.107924 108.404839 35.839681 3
-3.377578 121.802929 48.221140 3
-0.296911 120.700188 46.892937 3
2.729465 119.604577 45.603205 3
5.728336 118.536324 44.310286 3
8.682609 117.479683 43.043538 3
11.585963 116.426799 41.815837 3
14.446249 115.382283 40.616271 3
17.298704 114.378004 39.384752 3
20.110533 113.382104 38.179332 3
22.896521 112.407652 36.975080 3
23.844022 109.529227 39.150178 3
-4.245885 125.451287 50.569238 3
-1.172192 124.303765 49.250830 3
1.871669 123.183707 47.931622 3
4.876633 122.082848 46.627419 3
7.846007 121.002470 45.334147 3
10.776410 119.938272 44.058918 3
13.656263 118.878097 42.823597 3
16.493994 117.827055 41.616023 3
19.321683 116.813888 40.380482 3
22.109537 115.809633 39.170950 3
23.937566 113.868271 39.709406 3
-2.016633 127.952036 51.573375 3
1.038207 126.801854 50.234215 3
4.070824 125.685353 48.881929 3
7.010120 124.544095 47.637118 3
9.965577 123.464804 46.317302 3
12.837237 122.363025 45.094499 3
15.725818 121.324022 43.795054 3
18.570585 120.294305 42.525759 3
21.320855 119.222973 41.382332 3
24.048620 118.174240 40.237191 3
24.691826 115.038737 43.028593 3
-2.861210 131.621303 53.912054 3
0.197233 130.434473 52.564814 3
3.238378 129.285453 51.196151 3
6.234366 128.152447 49.853197 3
9.169562 127.020759 48.565006 3
12.069251 125.908317 47.290626 3
14.937266 124.817025 46.024654 3
17.761679 123.735030 44.789942 3
20.571493 122.686902 43.535222 3
23.315659 121.624097 42.356228 3
24.792349 119.356108 43.560127 3
-0.649197 134.084938 54.922042 3
2.420294 132.916844 53.503584 3
5.406854 131.738455 52.174118 3
8.361570 130.584980 50.850097 3
11.263813 129.438719 49.568936 3
14.141420 128.320189 48.283608 3
16.968319 127.206331 47.042198 3
19.793018 126.137568 45.757701 3
22.570286 125.073564 44.513980 3
24.900343 123.631268 44.082278 3
25.542038 120.549964 46.936371 3
-1.462745 137.781066 57.244239 3
1.578348 136.552672 55.870352 3
4.594154 135.356540 54.488702 3
7.571521 134.182334 53.122595 3
10.481065 133.005779 51.825576 3
13.345799 131.841504 50.560420 3
16.206292 130.720980 49.255217 3
19.019467 129.608355 47.988838 3
21.791527 128.506584 46.752292 3
24.557308 127.445453 45.480717 3
25.640734 124.838562 47.463095 3
0.716880 140.199365 58.291550 3
3.764645 138.984679 56.853033 3
6.756136 137.781320 55.459773 3
9.674908 136.574323 54.143970 3
12.573597 135.400121 52.815119 3
15.426505 134.238058 51.520508 3
18.251387 133.100503 50.229444 3
21.057733 131.994653 48.924792 3
23.787411 130.869169 47.719008 3
25.734820 129.075536 48.007642 3
-1.171743 143.212753 62.483807 3
2.419477 142.293851 60.131492 3
5.751651 141.272831 58.151660 3
8.859993 140.158398 56.500443 3
11.811052 138.984999 55.074175 3
14.667863 137.790413 53.768667 3
17.504902 136.627573 52.451150 3
20.288016 135.468327 51.186866 3
23.039414 134.328390 49.936224 3
25.778515 133.223457 48.662291 3
26.491205 130.327715 51.415866 3
3.349294 143.879716 63.334840 3
7.112550 143.129934 60.551740 3
10.551670 142.238629 58.261434 3
13.715014 141.219745 56.399836 3
16.715175 140.139691 54.777563 3
19.553683 138.988629 53.404748 3
22.320348 137.827971 52.120258 3
25.041984 136.675672 50.876349 3
26.599349 134.554278 51.934366 3
2.315659 144.198159 70.125925 3
7.293355 144.194999 65.134189 3
11.523286 143.814869 61.360636 3
15.119117 143.088919 58.652901 3
18.372556 142.190983 56.506026 3
21.418660 141.201655 54.686019 3
24.283179 140.126883 53.159698 3
26.721140 138.748380 52.439477 3
27.341809 135.825859 55.436847 3
5.837458 144.188646 72.884493 3
10.756865 144.196821 67.811510 3
15.455905 144.194910 62.986544 3
19.405287 143.777066 59.461303 3
22.798684 143.037491 56.918500 3
25.925592 142.165399 54.823479 3
