ply
format ascii 1.0
element vertex 1389
property float x
property float y
property float z
property int scalar_Label
end_header
-22.165953 -51.016992 15.412331 9
-24.792103 -50.979111 15.503184 9
-27.419134 -50.986871 15.579606 9
-30.053789 -50.934630 15.682536 9
-32.690931 -50.913316 15.776771 9
-35.338130 -50.836775 15.895769 9
-37.983382 -50.842936 15.985992 9
-40.644881 -50.753747 16.116668 9
-43.393796 -50.023629 16.500465 9
-46.239370 -48.736824 17.105339 9
-49.273925 -46.380641 18.132180 9
-52.413636 -43.715221 19.285397 9
-55.657933 -40.807499 20.539350 9
-58.957348 -37.986152 21.765780 9
-64.764034 -22.126240 28.111776 8
-65.695971 -32.694830 24.100021 8
-68.643342 -32.559819 24.289844 8
-71.605388 -32.425461 24.483544 8
-74.598136 -32.224770 24.707584 8
-77.595145 -32.079441 24.914095 8
-80.614179 -31.914392 25.132731 8
-83.647404 -31.764639 25.349730 8
-86.718778 -31.543270 25.599592 8
-89.810656 -31.323275 25.853537 8
-92.933136 -31.072864 26.124283 8
-96.063527 -30.871950 26.380139 8
-99.235254 -30.612567 26.664169 8
-102.451997 -30.291997 26.977664 8
-106.036306 -28.970748 27.696950 8
104.683569 -21.846932 30.210134 5
101.309464 -21.920959 30.098707 5
97.991367 -21.917628 30.022830 5
94.694910 -21.919358 29.949547 5
91.418943 -21.927374 29.878312 5
88.155715 -21.961954 29.801004 5
84.926845 -21.959492 29.742875 5
81.721208 -21.947583 29.692882 5
78.478417 -22.113497 29.576570 5
75.311397 -22.104277 29.534146 5
72.156214 -22.114686 29.488165 5
69.027351 -22.093219 29.459031 5
65.900268 -22.123431 29.413544 5
58.863226 -37.175677 23.414056 9
55.116612 -40.456685 22.089056 9
51.431575 -43.832575 20.730763 9
47.922523 -46.812115 19.533752 9
44.681195 -48.911585 18.689523 9
41.710184 -49.977985 18.258479 9
38.931854 -50.233931 18.152229 9
36.220325 -50.212926 18.159270 9
33.514683 -50.208158 18.163388 9
30.823329 -50.168464 18.184843 9
28.128415 -50.198407 18.182180 9
25.455624 -50.131350 18.221435 9
22.779954 -50.127227 18.239202 9
20.104748 -50.170491 18.241627 9
17.444069 -50.145101 18.274716 9
14.787889 -50.122632 18.310086 9
12.135332 -50.107818 18.345852 9
9.488498 -50.071534 18.393573 9
6.840042 -50.099616 18.419170 9
4.198689 -50.073964 18.469533 9
1.558642 -50.065302 18.516582 9
-1.078019 -50.022942 18.580468 9
-3.714638 -50.005376 18.637947 9
-6.350236 -49.976810 18.703259 9
-8.986363 -50.006518 18.748831 9
-11.621769 -49.941057 18.835783 9
-14.258071 -49.954749 18.894684 9
-16.896484 -49.896303 18.985857 9
-19.535067 -49.916482 19.049178 9
-22.369395 -45.236382 20.994241 9
-24.827242 -49.763756 19.263599 9
-27.476504 -49.741739 19.354473 9
-30.132365 -49.682875 19.463714 9
-32.791290 -49.650156 19.566130 9
-35.455536 -49.616256 19.672687 9
-38.124758 -49.590035 19.779858 9
-40.804900 -49.521830 19.907631 9
-43.590775 -48.662772 20.357463 9
-46.499436 -47.074386 21.105601 9
-49.596950 -44.463484 22.271309 9
-52.811130 -41.505780 23.583260 9
-56.148826 -38.230983 25.030089 9
-65.657283 -17.815103 33.563855 8
-66.907900 -27.034943 29.970960 8
-69.969381 -26.686799 30.259604 8
-73.039412 -26.389644 30.532359 8
-76.142164 -26.034362 30.833658 8
56.263110 -37.004091 27.024612 9
52.426878 -40.799128 25.441879 9
48.740705 -44.353804 23.962457 9
45.364014 -46.900084 22.900596 9
42.283758 -48.340017 22.296033 9
39.441507 -48.785422 22.102708 9
36.715666 -48.712468 22.125521 9
33.983067 -48.721770 22.118543 9
31.256930 -48.745969 22.109333 9
28.542934 -48.747889 22.113091 9
25.838604 -48.735872 22.126388 9
23.140630 -48.727094 22.142178 9
20.446163 -48.740902 22.152529 9
17.764031 -48.701053 22.188653 9
15.080179 -48.722128 22.203615 9
12.402074 -48.738421 22.224317 9
9.733701 -48.693382 22.273937 9
7.065521 -48.685378 22.312162 9
4.398858 -48.703028 22.343644 9
1.738934 -48.650316 22.407774 9
-0.921199 -48.630156 22.462343 9
-3.580516 -48.625157 22.514481 9
-6.238734 -48.619003 22.570893 9
-8.895754 -48.548579 22.657538 9
-11.554089 -48.573594 22.708768 9
-14.212849 -48.543878 22.786346 9
-16.873458 -48.497803 22.874521 9
-19.537405 -48.420360 22.979513 9
-22.202274 -48.406477 23.062210 9
-24.873151 -48.329410 23.174901 9
-27.547445 -48.271220 23.283764 9
-30.223257 -48.257453 23.378246 9
-32.907827 -48.190154 23.498865 9
-35.596981 -48.137925 23.617295 9
-38.294402 -48.065825 23.748036 9
-41.015082 -47.852346 23.941578 9
-43.838192 -46.900384 24.446201 9
-46.811877 -45.029097 25.338133 9
-50.031031 -41.788983 26.805854 9
-53.362904 -38.314804 28.378447 9
-56.940787 -33.855210 30.369993 9
58.485216 -29.332558 33.870245 9
53.842085 -36.064382 30.985689 9
49.806675 -40.853487 28.928927 9
46.212260 -44.164586 27.502538 9
42.995001 -46.069115 26.675683 9
40.067571 -46.774219 26.360345 9
37.296211 -46.782888 26.343678 9
34.534866 -46.789496 26.332157 9
31.787300 -46.767569 26.336946 9
29.039800 -46.795365 26.324959 9
26.305565 -46.789174 26.331547 9
23.576906 -46.793736 26.337791 9
20.855646 -46.792643 26.350609 9
18.140709 -46.788904 26.368720 9
15.431388 -46.783221 26.391817 9
12.729357 -46.751186 26.430215 9
10.028627 -46.748477 26.460367 9
7.332425 -46.735862 26.498860 9
4.640167 -46.709156 26.547467 9
1.950290 -46.679773 26.601363 9
-0.738276 -46.658639 26.655927 9
-3.424822 -46.614368 26.724459 9
-6.111560 -46.593024 26.787452 9
-8.797978 -46.563788 26.857975 9
-11.484852 -46.537298 26.931529 9
-14.172892 -46.486843 27.019471 9
-16.862723 -46.444124 27.108365 9
-19.556268 -46.355976 27.220831 9
-22.252028 -46.306183 27.321277 9
-24.952831 -46.226941 27.438568 9
-27.657835 -46.155366 27.556940 9
-30.363677 -46.142234 27.654755 9
-33.078825 -46.069469 27.782389 9
-35.801898 -45.977809 27.922533 9
-38.530433 -45.902103 28.060341 9
-41.283563 -45.674841 28.267549 9
-44.190859 -44.296883 28.972606 9
-47.252400 -42.040972 30.060123 9
-50.615111 -38.092228 31.881457 9
-54.276798 -32.813886 34.283076 9
-58.763067 -23.310291 38.513875 9
51.654294 -34.023113 35.475590 9
47.367933 -40.072851 32.802248 9
45.930607 -33.252175 35.747273 9
40.861863 -43.948798 31.059141 9
38.011926 -44.166087 30.945228 9
35.214421 -44.169321 30.929323 9
32.423237 -44.189210 30.910823 9
29.647262 -44.168764 30.914542 9
26.872464 -44.191078 30.904247 9
24.110927 -44.172949 30.916177 9
21.346730 -44.226589 30.901415 9
18.598401 -44.205540 30.923773 9
15.853693 -44.199170 30.944294 9
13.115402 -44.176739 30.976370 9
10.381949 -44.144513 31.017265 9
7.647737 -44.167322 31.038699 9
4.920279 -44.144163 31.084722 9
2.197311 -44.080556 31.152946 9
-0.526899 -44.069998 31.202564 9
-3.247728 -44.001685 31.281963 9
-5.969178 -43.953898 31.356968 9
-8.690974 -43.910842 31.434486 9
-11.413502 -43.862733 31.518808 9
-14.137180 -43.837486 31.597731 9
-16.862677 -43.793420 31.689513 9
-19.592672 -43.679554 31.816541 9
-22.325008 -43.614962 31.926663 9
-25.061519 -43.544565 32.044040 9
-27.805244 -43.430890 32.185171 9
-30.555347 -43.311886 32.333446 9
-33.310829 -43.208390 32.479736 9
-36.073120 -43.105796 32.630493 9
-38.841716 -43.014153 32.781326 9
-41.672174 -42.447866 33.146594 9
-44.636353 -40.954482 33.926898 9
-47.907730 -37.470821 35.593887 9
-51.753391 -30.600668 38.768885 9
49.748852 -30.509929 40.707579 9
45.233818 -37.754986 37.413207 9
41.884152 -40.022625 36.362897 9
38.891476 -40.721053 36.023341 9
36.082457 -40.532334 36.087591 9
33.240283 -40.571499 36.054559 9
30.415131 -40.562850 36.048087 9
27.588948 -40.614631 36.019529 9
24.783708 -40.575733 36.036734 9
21.975547 -40.608014 36.026986 9
19.183254 -40.563356 36.056797 9
16.388268 -40.589878 36.059621 9
13.605734 -40.545146 36.099433 9
10.826737 -40.501827 36.143586 9
8.051329 -40.452240 36.195528 9
5.276695 -40.428973 36.240607 9
2.506331 -40.370979 36.306273 9
-0.263266 -40.322266 36.372741 9
-3.030888 -40.236950 36.460670 9
-5.799573 -40.177310 36.542042 9
-8.568242 -40.069827 36.649981 9
-11.339007 -40.000122 36.745934 9
-14.111692 -39.920940 36.851209 9
-16.886899 -39.844397 36.960363 9
-19.666900 -39.711129 37.100229 9
-22.449176 -39.639952 37.217186 9
-25.238419 -39.512142 37.364900 9
-28.030207 -39.437331 37.493836 9
-30.833640 -39.273967 37.668099 9
-33.640417 -39.163192 37.823831 9
-36.458756 -39.005029 38.006382 9
-39.276975 -38.932334 38.155504 9
-42.228789 -37.753939 38.812807 9
-45.431695 -34.812250 40.279258 9
40.342262 -34.322624 42.597986 9
37.404031 -34.420083 42.525770 9
34.478080 -34.513698 42.460969 9
31.566107 -34.587994 42.410705 9
28.673712 -34.596743 42.396331 9
25.788596 -34.609848 42.385476 9
22.909318 -34.635043 42.374540 9
20.041205 -34.624622 42.385573 9
17.176949 -34.631496 42.394082 9
14.325193 -34.564442 42.442266 9
11.475047 -34.517701 42.486512 9
8.627146 -34.483595 42.530366 9
5.784686 -34.409194 42.598332 9
2.942274 -34.361317 42.659474 9
0.103087 -34.271911 42.745319 9
-2.736317 -34.189623 42.833346 9
-5.574437 -34.030596 42.962449 9
-8.415335 -33.889630 43.088710 9
-11.259027 -33.780570 43.205707 9
-14.106292 -33.573018 43.374007 9
-16.957843 -33.415838 43.524528 9
-19.815493 -33.215555 43.700730 9
-149.247506 -13.914324 -26.568666 7
-146.701208 1.814713 -29.943533 7
-143.210728 -0.568484 -29.985687 7
-139.949931 -3.190252 -29.821640 7
-136.987049 -6.144735 -29.373762 7
-134.588049 -9.761483 -28.359958 7
-133.476412 -14.937659 -26.012680 7
-149.901376 11.128292 -27.860217 7
-145.785386 9.389816 -28.493147 7
-141.818028 7.539933 -29.017229 7
-137.971656 5.598608 -29.454402 7
-134.259934 3.542663 -29.786224 7
-130.715561 1.325745 -29.973833 7
-127.392695 -1.127029 -29.954023 7
-124.251580 -3.786551 -29.758822 7
-121.460116 -6.870123 -29.200794 7
-119.232488 -10.671660 -28.031763 7
-107.573416 -2.651812 -37.189745 8
-103.904633 -4.436082 -37.735161 8
-101.182133 -7.438232 -37.239811 8
-98.757446 -10.870708 -36.399344 8
-96.944851 -15.199349 -34.831300 8
-96.894397 -22.118082 -31.141941 8
-93.556045 -24.485272 -31.293086 8
-146.296843 15.444173 -25.721447 7
-141.999076 13.918459 -26.572995 7
-137.822143 12.320475 -27.345870 7
-133.747053 10.663147 -28.055001 7
-129.818629 8.890950 -28.650369 7
-125.993151 7.042804 -29.171839 7
-122.319754 5.055088 -29.563097 7
-118.773788 2.945193 -29.844052 7
-112.009112 4.724417 -33.659937 8
-105.507019 6.383365 -37.309863 8
-101.975737 4.497090 -37.743268 8
-98.704145 2.301517 -37.905751 8
-95.518429 0.002381 -37.985198 8
-92.476333 -2.486922 -37.909039 8
-89.620670 -5.240418 -37.618079 8
-86.972743 -8.308346 -37.075529 8
-84.690888 -11.944319 -36.073764 8
-83.162536 -16.767435 -34.105601 8
-82.396322 -22.879224 -31.112097 8
-79.031508 -25.116567 -31.380284 8
-48.340520 -27.299091 -44.027685 9
-45.291630 -29.762835 -44.119944 9
-147.568338 20.738100 -22.246197 7
-142.951066 19.490943 -23.410414 7
-138.808142 17.827949 -24.145738 7
-134.496577 16.389268 -25.093323 7
-130.258385 14.929439 -26.008980 7
-126.153750 13.378585 -26.826714 7
-122.138906 11.776881 -27.588077 7
-118.244665 10.083164 -28.256122 7
-110.837185 12.551526 -32.825067 8
-105.203780 13.126127 -35.559861 8
-101.481888 11.495541 -36.222624 8
-97.924906 9.695358 -36.727921 8
-94.452883 7.814549 -37.160929 8
-91.052838 5.862798 -37.532724 8
-87.746412 3.804195 -37.813456 8
-84.567348 1.582785 -37.956670 8
-81.486620 -0.773487 -37.990879 8
-78.551358 -3.344226 -37.850473 8
-75.786509 -6.183571 -37.494024 8
-73.279228 -9.445681 -36.796430 8
-71.151399 -13.354221 -35.578299 8
-70.157898 -19.172865 -32.796119 8
-59.163109 -8.675185 -43.614373 9
-54.078579 -7.515750 -46.580028 9
-49.322204 -6.751682 -49.187065 9
-45.909757 -8.233426 -49.948323 9
-43.147511 -10.876763 -49.780389 9
-40.852662 -14.435119 -48.903459 9
-38.964046 -18.867166 -47.368856 9
-38.088850 -25.456487 -44.191180 9
-36.443761 -30.731985 -42.102590 9
-32.841051 -32.067671 -43.093633 9
-150.214236 24.745065 -17.435211 7
-145.256352 23.750225 -18.920619 7
-140.493344 22.644181 -20.267571 7
-135.852135 21.490105 -21.544714 7
-131.360537 20.252395 -22.718707 7
-127.076912 18.859803 -23.721917 7
-123.023110 17.274649 -24.522383 7
-118.875157 15.842937 -25.464816 7
-110.338305 19.488874 -31.320498 8
-105.816264 18.725062 -32.840094 8
-101.837278 17.391362 -33.797407 8
-98.077179 15.841844 -34.542104 8
-94.379772 14.255088 -35.247332 8
-90.789700 12.568870 -35.856941 8
-87.280212 10.809323 -36.397941 8
-83.811413 9.023264 -36.915237 8
-80.436465 7.133426 -37.340207 8
-77.163075 5.119545 -37.657630 8
-73.983512 2.982124 -37.871260 8
-70.879931 0.737195 -37.998397 8
-67.904021 -1.703707 -37.964746 8
-61.157185 1.767834 -43.050256 9
-56.203759 2.644362 -45.839094 9
-51.324820 3.556535 -48.623196 9
-47.354145 3.086425 -50.209685 9
-44.058120 1.525121 -50.872352 9
-41.147897 -0.702015 -50.987045 9
-38.381986 -3.207062 -50.886358 9
-35.698335 -5.896644 -50.652265 9
-33.127030 -8.845429 -50.228603 9
-30.731031 -12.202072 -49.502086 9
-28.545348 -16.074370 -48.395769 9
-26.848262 -21.098223 -46.420731 9
-26.024738 -28.218331 -42.864546 9
-23.264702 -31.293196 -42.510050 9
-19.738612 -32.658249 -43.488908 9
-148.546443 27.148366 -13.442259 7
-143.435172 26.282500 -15.117877 7
-138.501407 25.330573 -16.673934 7
-133.716054 24.312274 -18.134919 7
-129.048286 23.251413 -19.528634 7
-124.508564 22.130463 -20.839606 7
-120.095048 20.943937 -22.065118 7
-114.265258 21.405915 -24.925998 8
-105.612583 25.239619 -31.088219 8
-102.881380 22.448103 -30.625928 8
-98.925547 21.107818 -31.594012 8
-95.085429 19.678388 -32.466130 8
-91.290567 18.239571 -33.321677 8
-87.575977 16.743377 -34.116040 8
-83.951186 15.170862 -34.833506 8
-80.408108 13.525270 -35.479607 8
-76.914227 11.844342 -36.091544 8
-73.513647 10.060945 -36.609253 8
-70.152534 8.244088 -37.098276 8
-66.883010 6.311731 -37.486087 8
-59.462946 10.761347 -43.565729 9
-55.313157 10.409923 -45.310300 9
-50.660074 10.965079 -47.830445 9
-46.756735 10.417657 -49.362251 9
-43.392411 9.033189 -50.160051 9
-40.370485 7.084409 -50.475830 9
-37.386603 5.070096 -50.744270 9
-34.469478 2.930614 -50.917084 9
-31.629692 0.634230 -50.970869 9
-28.830751 -1.762045 -50.956193 9
-26.115163 -4.353136 -50.797831 9
-23.486973 -7.165251 -50.478837 9
-20.980184 -10.291218 -49.929432 9
-18.623414 -13.822837 -49.083139 9
-16.562329 -18.128100 -47.657940 9
-15.225720 -24.283348 -44.827500 9
-13.822374 -30.554717 -41.973839 9
-10.324766 -31.889460 -42.984089 9
-147.434955 29.026505 -8.870337 7
-142.116615 28.328047 -10.791820 7
-136.966252 27.563088 -12.606648 7
-131.987758 26.718760 -14.304780 7
-127.146497 25.821375 -15.917937 7
-122.435160 24.871169 -17.449337 7
-117.871410 23.841571 -18.874297 7
-114.128277 21.973417 -19.417184 8
-102.963230 28.610641 -28.603056 8
-98.913034 27.375936 -29.695448 8
-94.908577 26.145234 -30.778368 8
-91.912631 23.734965 -30.682456 8
-88.524298 21.816652 -31.077915 8
-84.729318 20.444445 -32.004401 8
-80.993114 19.043127 -32.894723 8
-77.340237 17.575067 -33.714432 8
-73.762178 16.044879 -34.470229 8
-70.268466 14.432249 -35.145254 8
-66.814465 12.794092 -35.794910 8
-64.690992 9.193438 -34.639304 8
-55.512469 16.361968 -43.329855 9
-50.789187 16.997043 -45.977056 9
-46.813511 16.567174 -47.635889 9
-43.391283 15.304638 -48.538610 9
-40.206135 13.678783 -49.118227 9
-37.102746 11.930269 -49.593455 9
-34.059950 10.085538 -49.990309 9
-31.055294 8.176782 -50.338872 9
-28.098947 6.177888 -50.618683 9
-25.190206 4.081266 -50.825616 9
-22.338081 1.859038 -50.938778 9
-19.525484 -0.465372 -50.980507 9
-16.794325 -2.992020 -50.871087 9
-14.106165 -5.655242 -50.668412 9
-11.515698 -8.593249 -50.264032 9
-9.065743 -11.933719 -49.561712 9
-6.781046 -15.776417 -48.490777 9
-4.889721 -20.745238 -46.571281 9
-3.438181 -27.075405 -43.642841 9
-1.055509 -31.214430 -42.476280 9
2.369981 -32.610713 -43.449573 9
-147.203113 30.080721 -3.338147 7
-141.501401 29.698179 -5.691335 7
-136.001137 29.234020 -7.909615 7
-130.764892 28.614269 -9.916739 7
-125.714239 27.904294 -11.790207 7
-120.827010 27.116864 -13.548139 7
-114.252431 28.252572 -17.317094 8
-105.054724 32.489351 -24.277467 8
-100.750792 31.480476 -25.650849 8
-96.617473 30.344118 -26.872686 8
-92.532785 29.213800 -28.084073 8
-88.533190 28.042510 -29.238194 8
-84.703838 26.717473 -30.224048 8
-81.192158 25.034623 -30.844071 8
-78.357183 22.490398 -30.613280 8
-74.631968 21.139404 -31.558711 8
-70.963826 19.756954 -32.465644 8
-67.371449 18.311793 -33.305630 8
-64.708105 15.549736 -32.890913 8
-55.632463 22.376920 -41.510870 9
-51.494334 22.079584 -43.348264 9
-47.340282 21.903929 -45.276223 9
-43.735841 20.938348 -46.458055 9
-40.498063 19.419811 -47.128786 9
-37.289978 17.877642 -47.778321 9
-34.160474 16.222101 -48.327637 9
-31.045508 14.557992 -48.872400 9
-27.973494 12.830194 -49.364884 9
-24.947428 11.025991 -49.795852 9
-21.958187 9.155304 -50.175902 9
-19.025891 7.170019 -50.465767 9
-16.112427 5.138383 -50.726002 9
-13.246394 2.993316 -50.901626 9
-10.408389 0.766390 -51.021592 9
-7.652526 -1.675526 -50.978161 9
-4.948074 -4.281249 -50.817943 9
-2.315863 -7.118735 -50.489525 9
0.229477 -10.249039 -49.948882 9
2.639486 -13.829962 -49.076599 9
4.816260 -18.175488 -47.634279 9
6.396011 -24.393698 -44.770797 9
8.098307 -30.588610 -41.994386 9
11.502811 -31.956831 -42.996650 9
-148.116352 30.070941 3.503150 7
-141.760546 30.235363 0.421516 7
-135.805732 30.152056 -2.319055 7
-130.197771 29.851572 -4.763646 7
-124.717720 29.538778 -7.148695 7
-119.659810 28.896621 -9.128649 7
-108.721767 34.727865 -18.106464 8
-103.167807 34.995451 -20.928560 8
-98.831225 34.015229 -22.371621 8
-94.552418 33.041729 -23.799514 8
-90.446655 31.934540 -25.066382 8
-86.367830 30.859591 -26.349033 8
-82.427197 29.676763 -27.503769 8
-78.465007 28.580836 -28.732510 8
-74.685878 27.305601 -29.765674 8
-70.874882 26.125781 -30.883077 8
-68.026790 23.663896 -30.721656 8
-64.742283 21.812718 -31.170139 8
-57.172377 26.252705 -37.723982 9
-51.955554 27.509883 -41.109006 9
-48.260084 26.601546 -42.379781 9
-44.501886 25.855986 -43.791834 9
-41.122573 24.565284 -44.679209 9
-37.864013 23.113234 -45.412212 9
-34.632187 21.645971 -46.129685 9
-31.415181 20.181524 -46.848879 9
-28.270790 18.613337 -47.473919 9
-25.162677 16.998669 -48.058959 9
-22.085355 15.342428 -48.609832 9
-19.026959 13.662947 -49.143991 9
-16.025126 11.879745 -49.592141 9
-13.051244 10.042116 -49.999583 9
-10.115300 8.121972 -50.343774 9
-7.209686 6.127277 -50.633605 9
-4.341916 4.032261 -50.849285 9
-1.529800 1.783312 -50.948505 9
1.247453 -0.584653 -50.963714 9
3.991045 -3.081602 -50.889487 9
6.677503 -5.783976 -50.666580 9
9.294073 -8.749516 -50.252938 9
11.796128 -12.134760 -49.529105 9
14.149673 -16.087948 -48.386456 9
16.189594 -21.182216 -46.386664 9
17.162589 -29.961038 -41.573110 9
20.532275 -31.351961 -42.564658 9
23.894297 -32.743710 -43.559510 9
-143.985683 28.902796 8.833853 7
-136.813877 29.898639 4.715111 7
-130.497197 30.224427 1.447020 7
-124.633157 30.237793 -1.402671 7
-119.122086 30.014704 -3.932447 7
-106.597578 37.501563 -14.990898 8
-101.610721 37.135140 -17.186461 8
-97.149516 36.278931 -18.809361 8
-92.775908 35.402161 -20.383467 8
-88.553943 34.423396 -21.823562 8
-84.383782 33.453863 -23.251775 8
-80.333208 32.406094 -24.577122 8
-76.346409 31.342951 -25.868289 8
-72.473839 30.193759 -27.053908 8
-68.621803 29.076051 -28.257242 8
-65.285741 27.300673 -28.781797 8
-59.312086 29.314512 -33.099175 9
-53.848466 30.805694 -36.827897 9
-48.637034 32.113191 -40.317333 9
-44.067506 32.613724 -42.966946 9
-42.056512 29.192383 -41.792772 9
-38.553301 28.128406 -42.904997 9
-35.211976 26.846254 -43.801110 9
-32.111421 25.189053 -44.339866 9
-28.893214 23.758432 -45.091440 9
-25.685679 22.338397 -45.851255 9
-22.528101 20.854301 -46.551211 9
-19.424054 19.291719 -47.180218 9
-16.336157 17.716383 -47.799636 9
-13.273202 16.107484 -48.391606 9
-10.263811 14.399659 -48.899555 9
-7.279359 12.644567 -49.371342 9
-4.305593 10.868432 -49.831118 9
-1.387046 8.963975 -50.187387 9
1.510233 6.998798 -50.500960 9
4.381916 4.954715 -50.758073 9
7.195175 2.737578 -50.881823 9
10.001487 0.465446 -50.974273 9
12.751359 -2.005778 -50.918158 9
15.470978 -4.623969 -50.760476 9
18.140544 -7.465862 -50.442413 9
20.725034 -10.667359 -49.859818 9
23.203963 -14.338980 -48.932440 9
25.480733 -18.865715 -47.366668 9
27.163989 -25.736290 -44.017050 9
29.477509 -30.762057 -42.175250 9
32.809249 -32.184248 -43.153366 9
-143.040329 24.557828 17.942381 7
-132.977199 28.423101 10.328648 7
-125.772571 29.688129 5.891265 7
-119.547170 30.124780 2.494675 7
-105.259012 39.425386 -10.929327 8
-100.417697 38.872546 -12.980972 8
-95.732654 38.242236 -14.909390 8
-91.269555 37.448091 -16.623260 8
-86.929827 36.591367 -18.240140 8
-82.663144 35.725340 -19.821054 8
-78.523589 34.778085 -21.290295 8
-74.474033 33.787863 -22.692175 8
-70.445519 32.839368 -24.118236 8
-66.511592 31.833239 -25.464580 8
-65.114254 27.363287 -23.214089 8
-56.368698 33.273693 -31.640296 9
-50.931045 34.768569 -35.440751 9
-45.851627 35.921114 -38.836066 9
-41.728625 35.770786 -40.881033 9
-38.105008 34.931027 -42.217937 9
-34.722837 33.762211 -43.218647 9
-33.004958 29.840481 -41.544202 9
-29.637752 28.660365 -42.542781 9
-26.357178 27.371462 -43.430963 9
-23.277014 25.753505 -44.004354 9
-20.083627 24.367024 -44.795657 9
-16.933182 22.927864 -45.536269 9
-13.819332 21.442059 -46.233476 9
-10.722831 19.943273 -46.919470 9
-7.661569 18.390440 -47.557917 9
-4.632470 16.783432 -48.150369 9
-1.641325 15.102142 -48.680642 9
1.333082 13.387435 -49.186705 9
4.281913 11.612974 -49.646707 9
7.194837 9.745117 -50.033270 9
10.090047 7.819930 -50.379650 9
12.960935 5.812069 -50.665890 9
15.792901 3.670185 -50.850889 9
18.609478 1.446252 -50.981141 9
21.385752 -0.945699 -50.987598 9
24.126814 -3.510903 -50.869784 9
26.834246 -6.266491 -50.617656 9
29.472904 -9.357700 -50.118495 9
32.048984 -12.807371 -49.361255 9
34.484687 -16.955625 -48.084507 9
36.626154 -22.504620 -45.752337 9
38.326234 -30.266317 -41.762618 9
41.640710 -31.687738 -42.747980 9
-122.347046 27.750473 11.977956 7
-104.624638 40.592382 -5.960666 8
-99.524594 40.280817 -8.362675 8
-94.711203 39.758671 -10.479313 8
-90.104355 39.098263 -12.401379 8
-85.558357 38.458448 -14.312983 8
-81.173900 37.713880 -16.075938 8
-76.943365 36.862178 -17.692421 8
-72.777086 36.006855 -19.279672 8
-68.730700 35.070827 -20.755959 8
-65.300656 33.371027 -21.396297 8
-59.340173 35.225893 -25.787480 9
-53.674622 36.879935 -29.893670 9
-51.204886 34.047628 -29.279542 9
-43.478169 39.112761 -36.797584 9
-41.457433 35.724261 -35.582073 9
-36.172121 37.466940 -39.572069 9
-32.722627 36.412973 -40.704301 9
-29.340646 35.298640 -41.765914 9
-25.982307 34.192478 -42.826436 9
-22.787495 32.842982 -43.641746 9
-20.920761 29.083216 -42.131001 9
-17.655137 27.862479 -43.082991 9
-14.582738 26.305084 -43.711136 9
-11.446963 24.894470 -44.477882 9
-8.311823 23.509929 -45.267753 9
-5.238109 22.021750 -45.961028 9
-2.168643 20.544591 -46.665370 9
0.865874 19.007559 -47.316731 9
3.877975 17.432493 -47.936514 9
6.857579 15.789084 -48.499022 9
9.806636 14.073395 -49.002719 9
12.746217 12.331446 -49.489811 9
15.648216 10.482219 -49.891017 9
18.532817 8.569181 -50.246377 9
21.408073 6.607267 -50.570296 9
24.244803 4.500037 -50.782740 9
27.065369 2.299569 -50.930702 9
29.859265 -0.041982 -50.976762 9
32.631360 -2.527233 -50.922018 9
35.363089 -5.243900 -50.698272 9
38.076335 -8.142073 -50.350910 9
40.711051 -11.488043 -49.670744 9
43.253301 -15.408582 -48.566700 9
45.456187 -21.084123 -46.122480 9
47.479360 -28.061398 -42.727773 9
-104.620167 41.087367 -0.121321 8
-99.212024 41.052460 -2.939189 8
-94.076702 40.840008 -5.495067 8
-89.228898 40.413949 -7.755662 8
-84.525793 39.922887 -9.900543 8
-80.016596 39.297268 -11.854750 8
-75.586095 38.666845 -13.770077 8
-71.332363 37.901175 -15.503066 8
-67.146954 37.129047 -17.201279 8
-65.200910 33.400200 -15.648563 8
-56.899868 38.450166 -23.615153 9
-51.098962 40.319586 -28.034877 9
-45.752488 41.743397 -31.906552 9
-41.466957 41.760246 -34.236371 9
-37.739213 41.027533 -35.751366 9
-34.262310 39.968050 -36.910150 9
-30.792324 38.951837 -38.100726 9
-27.407920 37.847116 -39.189289 9
-24.012352 36.812123 -40.337611 9
-20.705506 35.671605 -41.370365 9
-17.387131 34.598852 -42.461611 9
-14.130545 33.458238 -43.477852 9
-12.304995 29.552611 -41.814314 9
-9.091215 28.328260 -42.760753 9
-5.934769 27.023274 -43.625834 9
-2.934742 25.413735 -44.201399 9
0.155839 24.018180 -44.979144 9
3.218361 22.583281 -45.719963 9
6.259094 21.118053 -46.433495 9
9.257209 19.566014 -47.069573 9
12.242107 17.991240 -47.688332 9
15.210476 16.380767 -48.279088 9
18.156067 14.711669 -48.822739 9
21.073468 12.960014 -49.299983 9
23.978475 11.161398 -49.743953 9
26.862992 9.283494 -50.128152 9
29.732074 7.331180 -50.458797 9
32.582964 5.284109 -50.720581 9
35.407102 3.098077 -50.878747 9
38.219176 0.806688 -50.964511 9
41.017765 -1.611774 -50.962454 9
43.760775 -4.348208 -50.719504 9
46.364258 -7.811896 -49.911130 9
48.780949 -12.335136 -48.286147 9
50.888382 -18.681893 -45.259001 9
52.773298 -26.739174 -40.956988 9
-110.076731 35.731643 12.973186 8
-99.644370 41.010293 3.559635 8
-94.109442 41.171894 0.457776 8
-88.893415 41.106539 -2.314946 8
-83.937208 40.860998 -4.823831 8
-79.184656 40.484476 -7.134386 8
-76.730754 37.335653 -6.219495 8
-70.122213 39.493695 -11.362310 8
-65.862991 38.790939 -13.188621 8
-65.177729 33.323393 -9.672365 8
-54.681907 41.365781 -21.149213 9
-48.826558 43.327200 -25.762220 9
-43.811512 44.281158 -29.203144 9
-39.743900 43.973007 -31.232144 9
-36.077817 43.139829 -32.672735 9
-32.497888 42.238042 -34.022348 9
-28.984232 41.291576 -35.308850 9
-25.542699 40.283831 -36.517201 9
-22.140392 39.264202 -37.700502 9
-18.803317 38.182276 -38.808657 9
-15.470922 37.142221 -39.948815 9
-12.198581 36.039638 -41.016458 9
-8.928384 34.980491 -42.118526 9
-5.733762 33.817105 -43.109967 9
-3.725533 30.200930 -41.716970 9
-0.643331 28.796847 -42.486479 9
2.469233 27.486477 -43.343929 9
5.445285 25.889904 -43.928780 9
8.511108 24.519187 -44.727707 9
11.534317 23.067226 -45.450707 9
14.549661 21.612891 -46.172673 9
17.534934 20.094555 -46.837904 9
20.522754 18.593781 -47.521954 9
23.457578 16.950127 -48.081160 9
26.392338 15.303770 -48.643586 9
29.310549 13.601012 -49.162382 9
32.210506 11.827320 -49.626481 9
35.089143 9.961126 -50.019157 9
37.957434 8.027383 -50.364141 9
40.806723 5.982555 -50.626237 9
43.637130 3.809248 -50.793515 9
46.355118 1.099352 -50.528605 9
48.943211 -2.310904 -49.708054 9
51.405894 -6.519058 -48.267263 9
53.684071 -11.953118 -45.875747 9
56.171875 -16.797289 -44.021759 9
-101.796201 39.088495 12.525373 8
-95.248735 40.262768 8.047082 8
-89.310641 40.932419 4.270246 8
-83.874291 41.177457 1.076888 8
-78.762850 41.173031 -1.759068 8
-73.904407 40.983440 -4.324414 8
-69.336014 40.540845 -6.548829 8
-65.316829 39.477246 -8.019214 8
-59.258594 41.252987 -12.702942 9
-52.746607 43.887827 -18.271031 9
-46.689128 46.142849 -23.313007 9
-42.071270 46.523763 -26.189752 9
-38.160740 45.973675 -27.997646 9
-34.481314 45.150680 -29.482208 9
-30.900258 44.240764 -30.853049 9
-27.310651 43.410091 -32.290840 9
-23.825402 42.470701 -33.595619 9
-20.367114 41.545638 -34.900157 9
-16.975426 40.561889 -36.129150 9
-13.606457 39.593097 -37.360661 9
-10.327798 38.508192 -38.461608 9
-7.057158 37.456707 -39.586677 9
-3.811432 36.404924 -40.701887 9
-0.602177 35.325948 -41.781228 9
2.563056 34.198112 -42.804762 9
5.654076 32.945739 -43.700753 9
7.636383 29.131490 -42.124096 9
10.759398 27.933122 -43.086657 9
13.715069 26.351451 -43.682392 9
16.742360 24.964343 -44.463602 9
19.753116 23.553835 -45.223104 9
22.737858 22.088514 -45.932920 9
25.719126 20.625771 -46.647199 9
28.675694 19.099313 -47.306208 9
31.610304 17.507742 -47.910567 9
34.527845 15.856818 -48.467272 9
37.435160 14.160386 -48.990232 9
40.325808 12.386852 -49.453179 9
43.202174 10.532291 -49.854761 9
45.990305 8.286404 -49.930569 9
48.671404 5.506191 -49.567939 9
51.254967 2.144429 -48.739154 9
53.737730 -1.915152 -47.359943 9
56.148281 -6.655780 -45.459567 9
58.492408 -12.174954 -42.972653 9
58.833393 -29.616791 -30.837565 9
-91.532332 38.679499 13.578918 8
-84.929455 40.171127 8.716600 8
-79.141498 40.888273 4.891184 8
-73.876789 41.124912 1.717403 8
-68.947594 41.076570 -1.057426 8
-65.401621 39.328775 -1.780768 8
-57.878271 43.019705 -8.833035 9
-51.005654 46.138736 -15.091838 9
-45.052559 48.240288 -20.071458 9
-40.612638 48.350396 -22.707242 9
-36.761651 47.693878 -24.439705 9
-33.030081 46.933590 -26.030804 9
-29.335563 46.189650 -27.616993 9
-25.724801 45.382938 -29.112630 9
-22.204375 44.493416 -30.499019 9
-18.685258 43.667226 -31.935746 9
-15.266220 42.728179 -33.235252 9
-11.864121 41.818366 -34.550723 9
-8.495714 40.905535 -35.848558 9
-5.221116 39.866796 -37.003058 9
-1.971189 38.829410 -38.148325 9
1.233332 37.746890 -39.237969 9
4.432212 36.699672 -40.354437 9
7.599581 35.630100 -41.440117 9
10.735002 34.532301 -42.490408 9
13.832087 33.385153 -43.486016 9
15.821355 29.468455 -41.800072 9
18.927710 28.320984 -42.809346 9
21.956677 27.001655 -43.651019 9
24.876437 25.396905 -44.223065 9
27.866885 24.002200 -44.995051 9
30.836620 22.560336 -45.724395 9
33.798385 21.104120 -46.442682 9
36.738295 19.582817 -47.104549 9
39.658982 17.994551 -47.710212 9
42.570940 16.366408 -48.285753 9
45.408741 14.436593 -48.600901 9
48.154384 12.082492 -48.555492 9
50.810975 9.246817 -48.109767 9
53.381425 5.859956 -47.214926 9
55.923572 2.102316 -46.037530 9
58.448669 -2.036992 -44.576656 9
60.967023 -6.575509 -42.826007 9
58.985798 -37.854742 -18.894425 9
-81.307188 38.430635 14.390421 8
-74.902924 39.949407 9.502069 8
-69.255101 40.717557 5.622694 8
-65.314524 39.406809 4.319711 8
-56.808481 44.363652 -4.428539 9
-49.508684 48.048426 -11.507105 9
-43.712833 49.910450 -16.322497 9
-39.299772 49.960138 -18.953496 9
-35.473263 49.243690 -20.662129 9
-31.663162 48.582487 -22.406946 9
-27.900952 47.927297 -24.132000 9
-24.283625 47.113985 -25.655647 9
-20.671132 46.364727 -27.228779 9
-17.123105 45.577056 -28.738529 9
-13.652869 44.719952 -30.153494 9
-10.204332 43.889218 -31.579294 9
-6.825330 42.991671 -32.917090 9
-3.495093 42.059448 -34.203451 9
-0.193563 41.127842 -35.476907 9
3.052506 40.136880 -36.676250 9
6.265906 39.128197 -37.846431 9
9.426646 38.051422 -38.937534 9
12.595352 37.040777 -40.086859 9
15.700426 35.924551 -41.122273 9
18.817952 34.882919 -42.224912 9
21.874869 33.727893 -43.209548 9
23.915691 29.802160 -41.505061 9
27.009749 28.717747 -42.572595 9
29.997908 27.359705 -43.374547 9
32.913784 25.795066 -43.981557 9
35.888122 24.421159 -44.770680 9
38.838182 22.979720 -45.498190 9
41.786654 21.540092 -46.229816 9
44.675159 19.881004 -46.764404 9
47.477801 17.864049 -46.982667 9
50.189796 15.409923 -46.822470 9
52.819136 12.479118 -46.259295 9
55.417855 9.229491 -45.443126 9
58.031020 5.825201 -44.524371 9
60.623184 2.050736 -43.320449 9
63.210156 -2.079880 -41.851735 9
65.070937 -10.989063 -36.374211 5
67.776882 -15.578339 -34.645905 5
-71.526075 37.833798 15.595972 8
-65.325169 39.354795 10.708459 8
-56.387175 44.824456 1.107286 9
-48.210148 49.679743 -7.564333 9
-42.557658 51.313451 -12.222586 9
-38.230088 51.207536 -14.738125 9
-34.296456 50.620662 -16.647163 9
-30.389489 50.082265 -18.581254 9
-26.606953 49.434842 -20.359339 9
-22.909349 48.730594 -22.045614 9
-19.231102 48.073549 -23.760166 9
-15.680452 47.272872 -25.289816 9
-12.131986 46.540982 -26.874717 9
-8.650302 45.759430 -28.384104 9
-5.234970 44.920996 -29.812612 9
-1.878776 44.031459 -31.169043 9
1.467377 43.184997 -32.555911 9
4.761037 42.291677 -33.877942 9
8.012961 41.367639 -35.154106 9
11.235624 40.435589 -36.409484 9
14.388073 39.393667 -37.540546 9
17.514921 38.337711 -38.648368 9
20.630333 37.300106 -39.766535 9
23.710179 36.215639 -40.830046 9
26.811487 35.235352 -41.990070 9
29.820983 34.039988 -42.931489 9
32.485232 31.829899 -42.883782 9
34.950603 28.932141 -42.188531 9
37.976279 27.767724 -43.173454 9
40.868281 26.174187 -43.749609 9
43.815932 24.775016 -44.512602 9
46.670094 23.027549 -44.953767 9
49.434877 20.890827 -45.044302 9
52.107353 18.286390 -44.722330 9
54.754742 15.434339 -44.198426 9
57.394623 12.373363 -43.513265 9
60.097590 9.421501 -42.954517 9
62.643496 5.411398 -41.491069 9
64.840666 -0.991938 -37.981604 5
67.767431 -3.613798 -37.826349 5
70.677861 -6.548251 -37.425361 5
73.561884 -9.951646 -36.652865 5
76.404066 -14.080832 -35.302945 5
79.001203 -20.956229 -31.703571 5
-57.587966 43.075695 9.500771 9
-47.426730 50.588414 -2.691624 9
-41.702833 52.281311 -7.543325 9
-37.382245 52.122445 -10.066593 9
-33.254914 51.787423 -12.334417 9
-29.296273 51.294381 -14.376205 9
-25.427155 50.753093 -16.327649 9
-21.618545 50.203743 -18.238408 9
-17.912214 49.569763 -20.022010 9
-15.811273 46.163460 -18.622365 9
-10.693168 48.207906 -23.404093 9
-7.183951 47.460176 -24.984603 9
-3.709910 46.719626 -26.551884 9
-0.293772 45.937697 -28.053423 9
3.069096 45.116631 -29.493826 9
6.363179 44.215506 -30.831099 9
9.670504 43.407135 -32.252646 9
12.910100 42.510065 -33.564836 9
16.115570 41.592554 -34.842424 9
19.293189 40.665116 -36.097589 9
22.415663 39.652502 -37.253943 9
25.509886 38.614563 -38.375444 9
28.593066 37.594051 -39.506515 9
31.629551 36.485462 -40.541724 9
34.683662 35.472211 -41.665780 9
37.682872 34.331532 -42.657823 9
40.657907 33.146070 -43.602176 9
42.819360 29.124133 -41.806554 9
45.909886 28.287247 -43.103283 9
48.902530 27.136350 -44.094207 9
51.512113 24.446314 -43.636601 9
54.030612 21.219138 -42.702321 9
56.791069 18.889406 -42.628900 9
59.431949 15.861507 -41.934419 9
59.612801 -0.175020 -29.471026 9
59.612783 -19.254015 -14.509092 9
67.176252 4.236201 -37.760926 5
70.139725 2.026727 -37.925650 5
73.106858 -0.302405 -38.001857 5
76.065424 -2.879234 -37.881391 5
79.023468 -5.712122 -37.562902 5
81.975170 -8.940676 -36.933316 5
84.905881 -12.863124 -35.749634 5
87.757232 -18.458078 -33.207765 5
-58.587116 34.753285 23.351158 9
-41.126044 52.844510 -2.284664 9
-36.649696 52.861481 -5.102618 9
-32.456873 52.576774 -7.500329 9
-28.382595 52.218042 -9.766072 9
-24.361555 51.880240 -12.017859 9
-20.511210 51.363988 -14.020066 9
-16.734467 50.816181 -15.952833 9
-12.957506 50.361862 -17.963947 9
-9.369480 49.657321 -19.655667 9
-5.777665 49.041290 -21.423863 9
-2.272844 48.340360 -23.070786 9
1.179412 47.612456 -24.665031 9
4.593859 46.882532 -26.236085 9
7.958277 46.120365 -27.751738 9
11.264097 45.299746 -29.185337 9
14.521128 44.433989 -30.553838 9
17.768004 43.609058 -31.951190 9
20.962892 42.720691 -33.266579 9
24.120243 41.796262 -34.531274 9
27.259845 40.882599 -35.795649 9
30.350020 39.887560 -36.965147 9
33.416545 38.874423 -38.107238 9
36.462526 37.847548 -39.227407 9
39.477545 36.768198 -40.287749 9
42.412332 35.457751 -41.112752 9
45.210831 33.678279 -41.474785 9
47.912622 31.504195 -41.459190 9
50.563660 29.053000 -41.190128 9
53.217527 26.501898 -40.844750 9
55.889098 23.898960 -40.471358 9
58.559931 21.147712 -39.980461 9
59.633168 10.225928 -31.887089 9
59.617184 -7.814292 -17.366191 9
66.373471 10.562448 -36.517730 5
69.359234 8.720541 -36.971275 5
72.350152 6.833141 -37.393980 5
75.334434 4.799646 -37.697333 5
78.320104 2.638967 -37.901764 5
81.311458 0.346061 -38.006039 5
84.307168 -2.141015 -37.959538 5
87.302513 -4.953355 -37.653876 5
90.313516 -8.033478 -37.145732 5
93.323964 -11.764502 -36.116759 5
96.325598 -16.700248 -34.116703 5
-48.609069 48.541100 12.278002 9
-40.990930 52.764905 3.894059 9
-36.274399 53.063319 0.627613 9
-31.883330 53.015367 -2.144648 9
-27.618543 52.898216 -4.780511 9
-23.519395 52.636123 -7.191790 9
-19.552504 52.266659 -9.431040 9
-15.653590 51.886668 -11.619850 9
-11.833926 51.470654 -13.729785 9
-7.975577 51.229526 -16.011539 9
-4.356709 50.643792 -17.855403 9
-0.941213 49.745274 -19.310964 9
2.584919 49.141705 -21.084077 9
6.036899 48.468884 -22.753876 9
9.447965 47.788830 -24.393138 9
12.771628 46.991149 -25.880422 9
16.102131 46.282305 -27.447492 9
19.358887 45.471075 -28.883975 9
22.563636 44.597498 -30.237043 9
25.777477 43.813395 -31.671817 9
28.920480 42.905186 -32.959862 9
32.047186 42.011320 -34.250995 9
35.148657 41.103601 -35.516094 9
38.214181 40.143145 -36.716052 9
41.201493 38.979575 -37.699141 9
44.071500 37.444472 -38.300803 9
46.854682 35.589690 -38.583711 9
49.524167 33.259595 -38.401859 9
52.204860 30.879738 -38.188049 9
54.891893 28.420122 -37.914365 9
57.595383 25.911680 -37.612968 9
59.718538 20.468507 -34.512399 9
59.637008 3.155324 -20.178077 9
65.426910 15.905591 -34.490657 5
68.437887 14.350182 -35.184208 5
71.435298 12.677684 -35.774171 5
74.439445 10.995312 -36.362291 5
77.437366 9.198690 -36.854003 5
80.439487 7.336490 -37.296300 5
83.442392 5.351424 -37.639725 5
86.446134 3.194347 -37.843820 5
89.465955 0.970403 -38.005318 5
92.490592 -1.512618 -37.958400 5
95.531500 -4.218701 -37.740344 5
98.592650 -7.227498 -37.288174 5
101.677193 -10.733860 -36.443464 5
104.785388 -15.371816 -34.684027 5
-227.109015 145.080535 51.557519 0
-220.950355 142.830959 49.542301 0
-215.128162 140.539027 47.778197 0
-209.385854 138.300466 46.017561 0
-41.553904 51.668824 11.538409 9
-36.367248 52.559658 7.389940 9
-31.679848 52.876917 4.054093 9
-27.167589 53.073520 0.933928 9
-22.889671 53.035207 -1.834668 9
-18.704149 52.973469 -4.524277 9
-14.716252 52.697421 -6.903790 9
-8.184334 57.121253 -14.943145 4
-4.781795 56.147446 -16.349172 4
-1.766328 54.491930 -16.923956 4
1.023295 52.401911 -16.983115 4
4.024349 50.731922 -17.538863 9
7.386449 49.846375 -18.998629 9
10.848699 49.251710 -20.772275 9
14.236782 48.576526 -22.430191 9
17.593958 47.911170 -24.077423 9
20.891676 47.182347 -25.633023 9
24.152924 46.438168 -27.152896 9
27.352617 45.605775 -28.558752 9
30.539941 44.808388 -29.987412 9
33.675246 43.931212 -31.315458 9
36.799786 43.086253 -32.664977 9
39.893158 42.209388 -33.968181 9
42.835758 40.891134 -34.799301 9
45.679374 39.244467 -35.288233 9
48.424502 37.217534 -35.391422 9
51.109968 34.898467 -35.209177 9
53.809642 32.541543 -35.005627 9
56.525198 30.146699 -34.781843 9
59.261781 27.730128 -34.554954 9
59.623198 13.440473 -22.709445 9
59.624235 -4.529180 -7.513561 9
67.407371 19.215080 -32.769467 5
70.426488 17.776340 -33.562664 5
73.441273 16.294940 -34.318255 5
76.450081 14.743566 -35.012050 5
79.455683 13.119554 -35.643650 5
82.461992 11.429649 -36.221370 5
85.471576 9.671168 -36.744664 5
88.485745 7.826515 -37.199540 5
91.504393 5.849810 -37.547160 5
94.533923 3.761813 -37.809363 5
97.576192 1.519024 -37.950642 5
100.637750 -0.858000 -37.992770 5
103.720262 -3.471727 -37.850289 5
106.816719 -7.092282 -36.867730 5
109.940779 -14.127996 -33.019159 5
-230.351933 146.176119 60.824571 0
-219.076065 145.809867 53.688466 0
-206.767617 146.097174 45.294338 0
-201.099710 143.892378 43.479906 0
-195.680671 141.666400 41.847654 0
-190.331993 139.489195 40.218107 0
-185.042006 137.364279 38.580484 0
-37.215618 50.917283 15.820366 9
-32.026158 51.880488 11.515292 9
-27.159518 52.533409 7.694851 9
-22.612860 52.843362 4.385592 9
-11.963444 63.654823 -12.133826 4
-7.821429 63.926844 -15.141197 4
-4.513099 62.839069 -16.409894 4
-1.558709 61.144637 -16.915392 4
1.196451 59.077122 -16.964190 4
1.598314 52.276847 -11.326540 9
5.777966 52.965711 -14.725377 4
8.805012 51.359938 -15.359825 9
12.186829 50.562598 -16.934927 9
15.640636 50.008714 -18.770507 9
19.023394 49.378708 -20.493153 9
22.353690 48.706106 -22.144431 9
25.646656 48.021385 -23.760939 9
28.901396 47.316876 -25.335408 9
32.115579 46.579700 -26.855086 9
35.273271 45.754568 -28.261281 9
38.411917 44.941798 -29.666195 9
41.493983 44.017697 -30.937268 9
44.414404 42.604015 -31.675700 9
47.215870 40.775140 -31.974734 9
49.937003 38.608093 -31.927174 9
52.658263 36.365487 -31.814962 9
55.410240 34.162124 -31.758267 9
58.146632 31.797255 -31.551817 9
59.637927 23.390416 -25.267869 9
59.630700 6.432438 -10.560002 9
66.043175 22.179570 -28.538833 5
69.294606 22.044699 -30.616429 5
72.361372 20.943002 -31.732029 5
75.378359 19.541687 -32.555098 5
78.396775 18.136321 -33.376434 5
81.409741 16.663933 -34.136806 5
84.421332 15.134370 -34.847507 5
87.433100 13.536761 -35.500166 5
90.449134 11.884836 -36.109453 5
93.467888 10.123593 -36.626655 5
96.494506 8.266895 -37.067274 5
99.533785 6.336489 -37.453415 5
102.587847 4.310032 -37.767156 5
105.653672 1.918161 -37.773024 5
108.731726 -1.770155 -36.664503 5
111.863409 -8.333833 -33.101396 5
-236.221689 146.384988 72.944827 0
-224.139418 146.151368 64.933882 0
-212.534682 145.989181 57.183665 0
-201.317861 145.920322 49.613698 0
-188.814535 146.643866 40.460944 0
-182.686735 144.858313 37.884634 0
-177.580457 142.713351 36.323730 0
-172.551872 140.607087 34.780824 0
-167.623702 138.526115 33.283348 0
-162.824228 136.452729 31.866348 0
-33.635157 48.919262 21.792667 9
-27.877525 50.820459 16.170976 9
-14.111802 66.173045 -6.883935 4
-8.170197 69.380579 -13.793865 1
-4.234416 69.410948 -16.508413 1
0.489455 71.006130 -21.153227 1
3.395125 69.422467 -21.729268 1
5.844247 66.966918 -21.218312 1
5.890165 59.618150 -14.714300 4
8.260586 56.722029 -13.758316 4
10.481795 53.421916 -12.341406 4
13.446574 51.681678 -12.819948 9
16.932146 51.163733 -14.741527 9
20.380098 50.654584 -16.645493 9
23.751548 50.052801 -18.415077 9
27.095356 49.471453 -20.184206 9
30.377935 48.816849 -21.846617 9
33.626307 48.152854 -23.477559 9
36.841812 47.478304 -25.076912 9
39.984097 46.660900 -26.499461 9
43.017589 45.558483 -27.594498 9
45.912300 44.020249 -28.207451 9
48.685747 42.038282 -28.343267 9
51.428198 39.884711 -28.305605 9
54.188534 37.727492 -28.277207 9
56.937494 35.438836 -28.124466 9
59.254209 31.066148 -25.823780 9
59.611430 16.742448 -13.337401 9
59.631523 -1.141864 2.544154 9
67.825531 24.380323 -25.750223 5
70.900523 23.207173 -26.813514 5
73.997295 22.210923 -28.049217 5
77.200923 22.045142 -30.096455 5
80.294501 21.242950 -31.502986 5
83.315890 19.917193 -32.395031 5
86.328204 18.488400 -33.189563 5
89.343155 17.038660 -33.967562 5
92.357076 15.504196 -34.669836 5
95.376375 13.928527 -35.339453 5
98.401593 12.285549 -35.953588 5
101.433999 10.537657 -36.479696 5
104.478391 8.707686 -36.941356 5
107.526443 6.160570 -36.768511 5
110.598396 2.151996 -35.313609 5
113.748069 -4.032670 -31.978520 5
117.030647 -11.227585 -27.837146 6
-230.147134 146.243835 77.439915 0
-217.848826 146.169495 68.903480 0
-206.075468 146.154958 60.680416 0
-195.006385 146.108466 52.979402 0
-184.574337 146.033670 45.750059 0
-174.924447 145.842438 39.173855 0
-165.487523 145.767638 32.641277 0
-160.676886 143.691419 31.161508 0
-155.994590 141.621952 29.765706 0
-151.318519 139.616592 28.316389 0
-146.739235 137.628403 26.919497 0
-23.212511 71.123770 1.107792 1
-19.918263 69.651002 0.151144 1
-14.835931 71.075005 -4.688766 1
-13.758760 66.116017 -0.925618 4
-6.428011 71.629779 -11.055426 1
-3.135968 70.528604 -12.347663 1
1.011366 71.045010 -15.708422 1
4.784217 71.022493 -18.317254 1
8.223356 70.476966 -20.217073 1
10.277930 67.214240 -18.677806 1
10.542944 60.075469 -12.362092 4
12.617541 56.481913 -10.534980 4
14.576788 52.487449 -8.262161 9
18.141549 52.104843 -10.396468 9
21.661207 51.725468 -12.502026 9
25.098325 51.249515 -14.461868 9
28.483175 50.740770 -16.355177 9
31.821489 50.206511 -18.192572 9
35.098068 49.594775 -19.916150 9
38.339551 48.971530 -21.604543 9
41.478096 48.114492 -23.008068 9
44.484754 46.887501 -23.982558 9
47.345221 45.178929 -24.416377 9
50.102709 43.068387 -24.412110 9
52.878942 40.963500 -24.425762 9
55.692830 38.942595 -24.541838 9
58.487231 36.768080 -24.504149 9
59.638620 26.790413 -16.214809 9
59.667956 10.020808 -0.957285 9
66.566125 27.960287 -22.096800 5
69.656310 26.851943 -23.234988 5
72.745667 25.785217 -24.410238 5
75.814190 24.629700 -25.489833 5
78.872429 23.433201 -26.524663 5
81.928676 22.245795 -27.566116 5
85.092763 22.079137 -29.612252 5
88.195292 21.557392 -31.291813 5
91.213709 20.240288 -32.187981 5
94.227992 18.829192 -32.995359 5
97.245994 17.389966 -33.779412 5
100.267169 15.878665 -34.499717 5
103.295523 14.322123 -35.183507 5
106.326424 12.432255 -35.565063 5
109.364544 9.559007 -35.055305 5
112.444589 5.096268 -33.126028 5
115.613302 -0.240500 -30.461578 5
118.830673 -3.432715 -29.784694 6
122.091127 -6.455632 -29.291665 6
125.428877 -10.181865 -28.211099 6
128.943296 -15.940523 -25.400837 6
-223.970438 146.151039 81.786405 0
-212.106504 145.985270 73.406357 0
-197.554069 147.186921 61.832028 0
-186.597498 147.208787 53.933627 0
-178.654324 146.151823 49.199045 0
-168.763943 146.145168 42.095690 0
-159.785175 145.935306 35.836362 0
-149.741406 146.448901 28.144173 0
-144.856089 144.602809 26.340634 0
-140.396731 142.611697 24.978188 0
-136.038908 140.629948 23.681005 0
-131.697337 138.700836 22.347784 0
-127.404638 136.805906 21.019004 0
-39.930557 95.738433 -3.531848 3
-36.634154 94.268487 -4.518385 3
-33.327998 92.853088 -5.561773 3
-30.079012 91.408740 -6.536572 3
-26.833178 90.001629 -7.542924 3
-23.634677 88.572368 -8.494051 3
-22.803982 77.737557 1.000458 1
-19.535986 76.274295 0.034006 1
-18.337845 71.640267 3.496073 1
-10.417913 77.605776 -7.701455 1
-7.278109 76.192548 -8.620617 1
-4.055919 74.957035 -9.763157 1
-0.191418 74.907427 -12.466989 1
2.574033 72.971956 -12.630591 1
5.384860 71.117562 -12.901202 1
9.113616 71.069624 -15.507537 1
12.577493 70.612528 -17.543325 1
14.671375 67.353522 -15.992371 1
14.481791 58.954508 -8.025562 4
16.012228 53.965484 -4.459455 4
19.250290 52.781095 -5.653264 9
22.846737 52.534821 -7.975603 9
26.339056 52.148467 -10.092534 9
29.788482 51.763788 -12.179755 9
33.177277 51.326375 -14.173938 9
36.510009 50.837653 -16.079667 9
39.777817 50.258294 -17.853973 9
42.906533 49.330104 -19.203369 9
45.853127 47.848649 -19.906581 9
48.691740 45.987824 -20.178414 9
51.492717 43.948247 -20.255919 9
54.312215 41.921914 -20.358057 9
57.133482 39.838714 -20.407518 9
59.508759 35.665505 -18.189460 9
59.659800 20.419060 -4.059232 9
59.629447 2.284617 12.896868 9
68.351081 30.166464 -19.298558 5
71.466154 29.204551 -20.598411 5
74.557987 28.164955 -21.808468 5
77.636900 27.093622 -22.978921 5
80.712775 26.052446 -24.174555 5
83.771544 24.922760 -25.274613 5
86.822292 23.753555 -26.331263 5
89.862000 22.487065 -27.288415 5
92.968351 22.076000 -29.090742 5
96.064977 21.820577 -31.030783 5
99.084593 20.531515 -31.950188 5
102.103254 19.139735 -32.772122 5
105.126074 17.676166 -33.529073 5
108.145345 15.487803 -33.605558 5
111.185110 12.130505 -32.603519 5
114.311756 4.024479 -27.225129 5
117.445932 4.311432 -29.692284 6
120.623258 2.141400 -29.893413 6
123.830798 -0.124624 -30.025177 6
127.085012 -2.730250 -29.871514 6
130.395840 -5.647091 -29.465895 6
133.795382 -9.159590 -28.565062 6
137.370049 -14.035273 -26.512478 6
-206.503027 145.752265 78.041085 0
-194.652937 145.920340 69.125279 0
-180.655728 147.294627 57.491535 0
-171.654613 146.771892 51.333724 0
