ply
format ascii 1.0
element vertex 1362
property float x
property float y
property float z
property int scalar_Label
end_header
-52.030394 -33.627903 -36.374302 9
-55.233120 -30.920795 -36.165853 9
-58.573619 -27.762975 -35.925587 9
-61.993123 -24.559342 -35.686696 9
-66.697773 -14.959868 -34.933439 8
-69.705084 -14.870579 -34.958704 8
-72.718498 -14.813578 -34.991585 8
-75.751572 -14.725369 -35.026973 8
-78.812104 -14.578641 -35.062718 8
-81.870052 -14.508842 -35.109806 8
-84.960143 -14.369944 -35.156509 8
-88.063057 -14.246912 -35.209728 8
-91.182953 -14.124962 -35.268327 8
-94.324647 -13.989137 -35.331171 8
-97.497531 -13.810871 -35.396062 8
-100.687439 -13.644000 -35.467360 8
-103.907062 -13.448847 -35.541996 8
-107.825818 -11.146780 -35.456826 8
105.882300 -7.167746 -37.100789 5
101.945105 -8.846604 -36.962748 5
98.388901 -9.598195 -36.765484 5
94.890725 -10.286557 -36.571106 5
91.433126 -10.956060 -36.382665 5
88.051852 -11.489470 -36.191041 5
84.680875 -12.085266 -36.011075 5
81.353151 -12.636180 -35.834444 5
78.069553 -13.131556 -35.660098 5
74.841244 -13.522016 -35.483904 5
71.608307 -14.017998 -35.322322 5
68.420768 -14.433724 -35.160527 5
65.277412 -14.761368 -34.997633 5
59.304335 -27.180196 -35.827098 9
55.582358 -30.782545 -35.952014 9
52.024263 -34.012441 -36.055304 9
48.676849 -36.583803 -36.112272 9
45.598571 -38.093909 -36.087873 9
42.701252 -38.843728 -36.005656 9
39.927777 -39.026375 -35.880738 9
37.181034 -39.121649 -35.753156 9
34.432263 -39.293377 -35.636793 9
31.702591 -39.409476 -35.520308 9
28.981225 -39.533020 -35.409050 9
26.277413 -39.589255 -35.296469 9
23.577314 -39.674771 -35.190897 9
20.887793 -39.729454 -35.087046 9
18.198601 -39.843223 -34.992784 9
15.523073 -39.880032 -34.896080 9
12.850455 -39.941288 -34.805846 9
10.181945 -40.013118 -34.720840 9
7.520710 -40.040194 -34.636084 9
4.860635 -40.108495 -34.559246 9
2.203775 -40.185429 -34.487397 9
-0.450034 -40.269308 -34.420372 9
-3.099489 -40.289256 -34.351720 9
-5.748176 -40.347998 -34.290727 9
-8.395304 -40.399545 -34.233208 9
-11.041194 -40.497314 -34.184028 9
-13.686681 -40.535460 -34.133505 9
-16.331459 -40.610604 -34.090465 9
-18.977338 -40.654197 -34.048614 9
-21.625341 -40.673857 -34.008631 9
-24.273327 -40.730274 -33.976102 9
-26.925521 -40.747935 -33.944062 9
-29.580986 -40.761151 -33.915672 9
-32.233133 -40.856519 -33.898948 9
-34.894794 -40.874931 -33.879172 9
-37.564132 -40.860709 -33.860441 9
-40.234490 -40.886073 -33.849457 9
-42.922967 -40.804821 -33.832668 9
-45.681441 -40.248834 -33.775913 9
-48.565301 -38.926708 -33.652156 9
-51.541282 -37.211397 -33.496075 9
-54.707147 -34.569043 -33.258247 9
-57.916257 -32.025126 -33.033986 9
-61.241869 -29.160854 -32.784602 9
-65.739538 -20.471424 -32.000494 8
-68.689323 -20.441003 -32.023483 8
-71.651848 -20.404999 -32.050540 8
-74.629607 -20.355475 -32.080966 8
-77.611581 -20.344739 -32.119625 8
-80.628436 -20.242517 -32.154550 8
-83.648012 -20.191055 -32.198892 8
-86.691222 -20.106395 -32.244973 8
-89.758225 -19.994059 -32.293362 8
-92.831563 -19.921655 -32.350300 8
-95.921898 -19.850566 -32.412297 8
-99.054486 -19.699010 -32.471982 8
-102.183065 -19.625788 -32.543852 8
-105.420266 -19.275655 -32.595847 8
-109.625827 -16.091363 -32.398251 8
106.568344 -15.290211 -34.349558 5
102.825450 -16.537055 -34.205771 5
99.438816 -16.932267 -33.997800 5
96.066991 -17.369651 -33.800043 5
92.744278 -17.749685 -33.603872 5
89.467185 -18.074929 -33.409260 5
86.201479 -18.444892 -33.224722 5
82.983916 -18.742333 -33.039859 5
79.775384 -19.088448 -32.865236 5
76.615496 -19.348127 -32.688700 5
73.462708 -19.659008 -32.522456 5
70.346435 -19.914189 -32.356759 5
67.255562 -20.147643 -32.194537 5
62.230431 -28.297408 -32.769610 9
58.547005 -31.527516 -32.901457 9
54.981238 -34.579113 -33.025063 9
51.554504 -37.324296 -33.127873 9
48.303266 -39.537860 -33.187867 9
45.293348 -40.800458 -33.164111 9
42.431928 -41.453838 -33.087729 9
39.692961 -41.539752 -32.961741 9
36.951958 -41.699384 -32.847251 9
34.237787 -41.759758 -32.727514 9
31.523602 -41.879499 -32.617824 9
28.821415 -41.980410 -32.510555 9
26.128247 -42.077497 -32.407118 9
23.453677 -42.084789 -32.298976 9
20.770511 -42.223714 -32.207948 9
18.099823 -42.315329 -32.116337 9
15.437584 -42.383923 -32.026483 9
12.778172 -42.485530 -31.943948 9
10.128819 -42.524082 -31.859077 9
7.479630 -42.624850 -31.784417 9
4.835736 -42.713318 -31.712464 9
2.199574 -42.711130 -31.635235 9
-0.437118 -42.780589 -31.569140 9
-3.070368 -42.815708 -31.503414 9
-5.702058 -42.850265 -31.441464 9
-8.332654 -42.881572 -31.383002 9
-10.962548 -42.935416 -31.330658 9
-13.592203 -42.970750 -31.280214 9
-16.221712 -43.022932 -31.235292 9
-18.851432 -43.081058 -31.194767 9
-21.486586 -43.034364 -31.147192 9
-24.120008 -43.079450 -31.112857 9
-26.752298 -43.172774 -31.087286 9
-29.395277 -43.140456 -31.052464 9
-32.037617 -43.168425 -31.027651 9
-34.687751 -43.151858 -31.001976 9
-37.336905 -43.193817 -30.986149 9
-39.989840 -43.240856 -30.974629 9
-42.671035 -43.094381 -30.946756 9
-45.404414 -42.618841 -30.888410 9
-48.230251 -41.600420 -30.777329 9
-51.192422 -39.857181 -30.594595 9
-54.273292 -37.635153 -30.365903 9
-57.442728 -35.197781 -30.118798 9
-60.679281 -32.703381 -29.869891 9
-65.553264 -21.907944 -28.761952 8
-68.492462 -21.902205 -28.780900 8
-71.441231 -21.903739 -28.804849 8
-74.405962 -21.885156 -28.830983 8
-77.391976 -21.828514 -28.857479 8
-80.382117 -21.812540 -28.892537 8
-83.388446 -21.786570 -28.930940 8
-86.423010 -21.707904 -28.968321 8
-89.454348 -21.701070 -29.017583 8
-92.513383 -21.650453 -29.066838 8
-95.569581 -21.667769 -29.127628 8
-98.633122 -21.714492 -29.196011 8
-101.727726 -21.713839 -29.264165 8
-104.876924 -21.599623 -29.325426 8
-108.587228 -19.864708 -29.226620 8
-114.484848 -11.932195 -28.504842 8
-118.543779 -9.721505 -28.371418 7
-121.934062 -9.530445 -28.448121 7
-125.384697 -9.249777 -28.521135 7
-128.839134 -9.035412 -28.606252 7
-132.345711 -8.762706 -28.691049 7
-135.899375 -8.450983 -28.777605 7
-139.479132 -8.155565 -28.871542 7
-143.113616 -7.811129 -28.966500 7
-146.791377 -7.449572 -29.065783 7
123.810400 1.017501 -29.975167 6
119.216133 -1.571268 -29.949102 6
108.829217 -19.038114 -31.337912 5
104.640245 -21.424426 -31.325478 5
101.285857 -21.773840 -31.127059 5
97.979229 -22.072256 -30.929854 5
94.712968 -22.333615 -30.734991 5
91.463515 -22.621132 -30.548489 5
88.331414 -22.630555 -30.340205 5
85.221559 -22.629364 -30.136104 5
82.131252 -22.622899 -29.936618 5
79.050370 -22.642156 -29.744784 5
76.014259 -22.565062 -29.548177 5
72.987332 -22.506386 -29.358271 5
69.965105 -22.482576 -29.176724 5
66.978291 -22.376183 -28.991391 5
61.602715 -31.962505 -29.818313 9
58.032835 -34.819799 -29.957279 9
54.552128 -37.592144 -30.094866 9
51.196775 -40.097125 -30.211491 9
48.018318 -42.043443 -30.275658 9
45.033681 -43.256825 -30.267793 9
42.230837 -43.681235 -30.180701 9
39.499706 -43.800760 -30.065240 9
36.787169 -43.874789 -29.948949 9
34.075627 -44.002848 -29.842515 9
31.380601 -44.087520 -29.735360 9
28.700058 -44.130611 -29.627584 9
26.013095 -44.281089 -29.535439 9
23.350898 -44.299189 -29.432625 9
20.687626 -44.381430 -29.340658 9
18.030714 -44.467053 -29.252847 9
15.389172 -44.451745 -29.157572 9
12.745529 -44.510513 -29.074209 9
10.105730 -44.582944 -28.996052 9
7.471992 -44.631499 -28.918882 9
4.843653 -44.646570 -28.841574 9
2.215090 -44.728154 -28.775344 9
-0.407922 -44.742491 -28.705124 9
-3.029318 -44.757187 -28.638493 9
-5.650005 -44.806989 -28.579378 9
-8.269264 -44.844064 -28.522353 9
-10.887635 -44.915605 -28.472770 9
-13.505961 -44.933617 -28.420604 9
-16.125457 -44.929262 -28.369373 9
-18.745847 -44.942139 -28.323588 9
-21.364846 -45.022926 -28.289056 9
-23.990446 -44.996027 -28.245666 9
-26.617158 -45.003743 -28.209707 9
-29.247580 -45.003357 -28.176283 9
-31.879339 -45.031965 -28.149660 9
-34.517012 -45.036142 -28.123696 9
-37.158259 -45.050330 -28.102359 9
-39.798726 -45.115061 -28.090328 9
-42.450972 -45.118982 -28.074774 9
-45.159142 -44.743407 -28.018915 9
-47.961462 -43.799864 -27.900966 9
-50.885046 -42.222750 -27.713347 9
-53.936628 -40.089877 -27.465076 9
-57.067286 -37.787907 -27.200887 9
-60.217079 -35.680564 -26.962880 9
-65.027288 -25.124583 -25.753606 8
-67.941783 -25.125187 -25.766892 8
-70.866606 -25.128626 -25.784391 8
-73.810498 -25.097487 -25.801817 8
-76.762883 -25.084719 -25.825305 8
-79.739622 -25.024590 -25.847317 8
-82.714286 -25.030659 -25.880953 8
-85.712862 -24.997981 -25.914175 8
-88.723471 -24.977053 -25.952826 8
-91.758421 -24.925156 -25.992047 8
-94.804427 -24.893332 -26.037732 8
-97.870947 -24.850444 -26.086360 8
-100.961014 -24.790086 -26.137253 8
-104.058658 -24.765512 -26.196529 8
-107.400637 -24.066482 -26.183580 8
-111.842772 -20.274288 -25.824926 8
-116.899725 -15.037549 -25.309388 7
-119.887511 -15.818667 -25.479866 7
-123.229560 -15.674178 -25.550498 7
-126.573441 -15.592483 -25.633027 7
-129.970548 -15.441741 -25.712720 7
-133.390690 -15.303303 -25.798794 7
-136.855086 -15.127996 -25.885850 7
-140.338360 -14.979514 -25.981072 7
-143.861173 -14.811444 -26.079392 7
-147.408732 -14.659912 -26.184901 7
149.696839 -7.026348 -29.170928 6
145.601769 -7.806558 -28.949220 6
141.545606 -8.613585 -28.738456 6
137.604603 -9.286279 -28.522316 6
133.725297 -9.926956 -28.310628 6
129.921451 -10.500047 -28.099495 6
126.163397 -11.064881 -27.894697 6
122.497241 -11.510914 -27.684562 6
118.858697 -11.979546 -27.483467 6
116.926698 -8.349455 -26.856118 6
107.986915 -22.259633 -28.094721 5
104.449027 -23.010053 -27.950226 5
101.143809 -23.243384 -27.756375 5
97.871174 -23.460966 -27.566357 5
94.586542 -23.785327 -27.393431 5
91.391323 -23.927774 -27.205962 5
88.217733 -24.072803 -27.023902 5
85.066218 -24.216927 -26.846780 5
81.929713 -24.380430 -26.676782 5
78.821439 -24.518864 -26.508857 5
75.734297 -24.651584 -26.345071 5
72.664109 -24.790439 -26.186688 5
69.587079 -25.022059 -26.043554 5
66.559914 -25.135776 -25.891541 5
61.130910 -34.974993 -26.867239 9
57.670366 -37.453127 -27.003641 9
54.240698 -40.069003 -27.162760 9
50.943439 -42.372575 -27.291968 9
47.799748 -44.213043 -27.372920 9
44.862777 -45.248482 -27.364454 9
42.074948 -45.653150 -27.285978 9
39.335502 -45.882904 -27.190773 9
36.645321 -45.898473 -27.073866 9
33.955601 -45.963993 -26.966579 9
31.275549 -46.024136 -26.862286 9
28.602165 -46.095675 -26.762966 9
25.944483 -46.107506 -26.659994 9
23.287386 -46.167228 -26.566328 9
20.639399 -46.205582 -26.473559 9
17.997859 -46.238075 -26.383528 9
15.357072 -46.320387 -26.303016 9
12.725661 -46.357885 -26.220431 9
10.099318 -46.386155 -26.140086 9
7.477057 -46.409198 -26.062440 9
4.858113 -46.429841 -25.987819 9
2.241835 -46.450836 -25.916542 9
-0.373522 -46.511697 -25.853496 9
-2.985815 -46.549276 -25.790841 9
-5.596248 -46.568838 -25.729199 9
-8.206046 -46.634505 -25.676550 9
-10.815069 -46.620467 -25.617177 9
-13.423523 -46.692248 -25.571754 9
-16.034417 -46.649146 -25.515144 9
-18.643390 -46.725964 -25.476773 9
-21.254836 -46.755705 -25.435690 9
-23.868611 -46.774832 -25.396460 9
-26.486550 -46.766609 -25.356963 9
-29.102030 -46.838631 -25.330767 9
-31.728203 -46.809877 -25.295032 9
-34.353681 -46.839980 -25.269909 9
-36.984916 -46.853799 -25.245911 9
-39.621901 -46.859877 -25.224117 9
-42.258336 -46.915742 -25.211821 9
-44.954317 -46.557220 -25.150206 9
-47.742356 -45.643881 -25.021412 9
-50.640652 -44.166950 -24.824289 9
-53.669696 -42.106166 -24.556272 9
-56.726742 -40.167694 -24.306994 9
-59.873941 -37.991655 -24.030889 9
-63.063407 -35.870006 -23.765086 9
-67.520436 -27.694808 -22.735000 8
-70.427367 -27.701696 -22.746401 8
-73.345711 -27.708303 -22.761330 8
-76.284365 -27.678670 -22.775256 8
-79.230407 -27.673448 -22.795893 8
-82.196002 -27.643668 -22.817066 8
-85.166590 -27.650251 -22.846516 8
-88.166469 -27.601983 -22.872742 8
-91.174451 -27.582254 -22.906320 8
-94.194039 -27.578291 -22.945666 8
-97.243766 -27.529488 -22.983181 8
-100.302176 -27.510954 -23.028372 8
-103.393046 -27.448504 -23.071951 8
-106.601354 -27.094524 -23.082944 8
-110.409292 -25.082079 -22.890480 8
-115.804619 -18.790397 -22.168239 8
-118.787124 -19.502173 -22.326508 7
-122.071381 -19.432974 -22.391482 7
-125.384092 -19.353443 -22.459521 7
-128.723763 -19.270289 -22.531530 7
-132.068155 -19.240013 -22.614564 7
-135.482129 -19.106936 -22.689444 7
-138.867844 -19.106795 -22.785339 7
-142.321284 -19.015855 -22.874746 7
-145.776839 -18.986736 -22.976505 7
-149.303587 -18.869431 -23.072338 7
146.342040 -14.706972 -26.123295 6
142.506838 -15.120410 -25.894824 6
138.722265 -15.517851 -25.671460 6
135.006976 -15.856505 -25.448176 6
131.313670 -16.231003 -25.235434 6
127.675497 -16.568638 -25.024854 6
124.098623 -16.850148 -24.813987 6
118.925239 -20.911517 -25.048119 6
117.042718 -17.421515 -24.411009 6
111.155012 -23.596975 -24.911252 5
107.017559 -25.780366 -24.953080 5
103.676299 -26.090788 -24.779915 5
100.440152 -26.199683 -24.587903 5
97.207969 -26.363787 -24.407469 5
94.002913 -26.520491 -24.231046 5
90.813599 -26.699926 -24.062203 5
87.659537 -26.843330 -23.893700 5
84.537383 -26.955158 -23.725936 5
81.433690 -27.072981 -23.563423 5
78.339729 -27.224033 -23.409482 5
75.258129 -27.400422 -23.263113 5
72.219376 -27.493771 -23.110693 5
69.197565 -27.587944 -22.962582 5
66.185479 -27.708285 -22.821925 5
61.884868 -33.056554 -23.349646 9
57.374588 -39.790477 -24.063513 9
54.017991 -42.142533 -24.226693 9
50.736678 -44.420548 -24.386293 9
47.638285 -46.095267 -24.473786 9
44.759859 -46.885685 -24.451829 9
41.968627 -47.349918 -24.391648 9
39.280211 -47.343187 -24.273879 9
36.587819 -47.410051 -24.169088 9
33.909513 -47.447720 -24.063844 9
31.233076 -47.528638 -23.967609 9
28.571044 -47.568645 -23.869291 9
25.917230 -47.602202 -23.773372 9
23.268660 -47.648348 -23.682341 9
20.621520 -47.740519 -23.600628 9
17.988861 -47.757690 -23.512111 9
15.359410 -47.794349 -23.429322 9
12.732637 -47.858118 -23.353275 9
10.112501 -47.898115 -23.277139 9
7.498515 -47.903441 -23.199403 9
4.882600 -48.000363 -23.137047 9
2.275698 -47.983597 -23.062384 9
-0.332853 -48.062407 -23.003642 9
-2.937374 -48.092203 -22.941262 9
-5.540721 -48.144190 -22.884870 9
-8.126946 -44.345359 -22.307306 9
-10.765254 -44.349876 -22.249546 9
-13.403384 -44.392358 -22.199935 9
-15.947895 -48.206330 -22.668931 9
-18.551803 -48.206964 -22.620210 9
-21.157774 -48.202817 -22.573735 9
-23.760324 -48.306927 -22.545010 9
-26.374565 -48.239217 -22.495606 9
-28.986049 -48.271591 -22.462836 9
-31.599839 -48.313562 -22.434285 9
-34.223842 -48.281812 -22.398478 9
-36.846155 -48.318280 -22.374960 9
-39.480305 -48.288804 -22.345246 9
-42.098090 -48.444547 -22.343995 9
-44.791864 -48.046574 -22.269192 9
-47.549178 -47.301550 -22.149294 9
-50.428483 -45.894547 -21.940733 9
-53.422067 -43.998546 -21.667381 9
-56.489625 -41.937689 -21.374081 9
-60.518103 -34.845105 -20.387693 9
-62.760387 -37.890797 -20.806677 9
-67.188986 -29.810425 -19.689712 8
-70.081550 -29.825062 -19.695754 8
-72.989364 -29.821334 -19.702479 8
-75.914065 -29.797094 -19.709615 8
-78.845777 -29.798303 -19.723538 8
-81.787498 -29.812360 -19.742530 8
-84.751352 -29.793835 -19.760339 8
-87.735326 -29.756114 -19.778849 8
-90.723476 -29.759973 -19.806476 8
-93.722540 -29.780226 -19.839770 8
-96.765196 -29.709716 -19.864005 8
-99.787334 -29.763805 -19.908872 8
-102.848227 -29.749925 -19.947899 8
-107.237311 -25.832192 -19.454677 8
-109.640344 -27.950808 -19.793842 8
-114.438490 -23.287833 -19.207504 8
-118.174701 -21.844460 -19.066822 7
-121.434328 -21.800837 -19.121622 7
-124.719768 -21.752217 -19.179644 7
-128.030624 -21.702101 -19.241423 7
-131.356677 -21.677496 -19.310687 7
-134.708691 -21.653027 -19.384036 7
-138.086720 -21.630635 -19.461796 7
-141.488619 -21.617033 -19.544937 7
-144.940185 -21.557275 -19.626118 7
-148.420396 -21.501653 -19.712212 7
146.470431 -22.526838 -23.527836 6
142.762462 -22.772031 -23.301565 6
139.087747 -23.029467 -23.082890 6
135.462780 -23.264046 -22.867334 6
131.886473 -23.473965 -22.654484 6
128.339742 -23.695840 -22.448770 6
124.855510 -23.856031 -22.240757 6
121.385390 -24.056304 -22.043173 6
117.920345 -24.318405 -21.858789 6
115.893067 -21.247345 -21.249397 5
110.290096 -26.781993 -21.757362 5
106.412424 -28.366859 -21.762337 5
103.117426 -28.601757 -21.596943 5
99.893442 -28.721880 -21.421169 5
96.678968 -28.882532 -21.255274 5
93.510068 -28.983711 -21.085941 5
90.370536 -29.064545 -20.918212 5
87.236809 -29.191328 -20.760876 5
84.140157 -29.269611 -20.601201 5
81.057950 -29.364459 -20.447847 5
77.990721 -29.473485 -20.300448 5
74.962122 -29.514785 -20.147775 5
71.927300 -29.637758 -20.010142 5
68.924400 -29.708625 -19.869204 5
65.941289 -29.765191 -19.730043 5
60.564298 -39.435298 -20.927630 9
57.194566 -41.631414 -21.098164 9
53.873615 -43.862864 -21.279116 9
50.631182 -45.995522 -21.451622 9
47.551371 -47.610775 -21.556596 9
44.673496 -48.430156 -21.553991 9
41.922691 -48.718262 -21.480106 9
39.214183 -48.854322 -21.387996 9
36.536490 -48.875952 -21.282780 9
33.864916 -48.912805 -21.182774 9
31.200378 -48.958370 -21.087033 9
28.550210 -48.958680 -20.987797 9
25.895222 -49.046562 -20.904075 9
23.256216 -49.067102 -20.813614 9
20.619902 -49.117718 -20.730384 9
17.991667 -49.149143 -20.647258 9
15.364183 -49.230012 -20.574147 9
12.745562 -49.272952 -20.498375 9
10.131941 -49.309579 -20.424488 9
7.523492 -49.326658 -20.350529 9
4.916949 -49.366396 -20.282632 9
2.315215 -49.365795 -20.211572 9
-0.285939 -49.402583 -20.148703 9
-2.884697 -49.426284 -20.086621 9
-5.482046 -49.447125 -20.026807 9
-8.078439 -49.444215 -19.966167 9
-10.674932 -49.435382 -19.907305 9
-13.270885 -49.505492 -19.862754 9
-15.868467 -49.492536 -19.808570 9
-18.465571 -49.541462 -19.766180 9
-21.063689 -49.588115 -19.726090 9
-23.667161 -49.561581 -19.677759 9
-26.270518 -49.588984 -19.640052 9
-28.876520 -49.617507 -19.605127 9
-31.487669 -49.622239 -19.569272 9
-34.103171 -49.624359 -19.535633 9
-36.721600 -49.643193 -19.507095 9
-39.348320 -49.630806 -19.476506 9
-41.969197 -49.714569 -19.462893 9
-44.653531 -49.350914 -19.385009 9
-47.403890 -48.618506 -19.254521 9
-50.265353 -47.295433 -19.038157 9
-53.238451 -45.490639 -18.752155 9
-56.288388 -43.494612 -18.440002 9
-59.379123 -41.541440 -18.136811 9
-62.507505 -39.644693 -17.844688 9
-66.946664 -31.478134 -16.615638 8
-69.836165 -31.467933 -16.611650 8
-72.733281 -31.476154 -16.613313 8
-75.651223 -31.445911 -16.612120 8
-78.564597 -31.489483 -16.624916 8
-81.502863 -31.483485 -16.633233 8
-84.459540 -31.460763 -16.642016 8
-87.434193 -31.427114 -16.652161 8
-90.402745 -31.471016 -16.676935 8
-93.409347 -31.436093 -16.692961 8
-96.424188 -31.430670 -16.716479 8
-99.459718 -31.414393 -16.741484 8
-102.524368 -31.364544 -16.764619 8
-105.603913 -31.328754 -16.793036 8
-109.126734 -30.072961 -16.642846 8
-113.678503 -26.073010 -16.087659 8
-118.848361 -20.689819 -15.331237 7
-120.981855 -23.673947 -15.823198 7
-124.245939 -23.654632 -15.871879 7
-127.535042 -23.633257 -15.923772 7
-130.865186 -23.573273 -15.973518 7
-134.213072 -23.534739 -16.030070 7
-137.589177 -23.494021 -16.089983 7
-140.994809 -23.450447 -16.153217 7
-144.413370 -23.442485 -16.225493 7
-147.905622 -23.340452 -16.287805 7
-151.391204 -23.319920 -16.366026 7
145.438203 -25.564117 -20.190921 6
141.786336 -25.744197 -19.978668 6
138.171634 -25.925543 -19.772005 6
134.599412 -26.095122 -19.569026 6
131.069020 -26.251088 -19.369332 6
127.622343 -26.300840 -19.159957 6
124.143160 -26.487991 -18.974473 6
120.720083 -26.622314 -18.786457 6
117.593301 -26.144635 -18.517071 6
114.792521 -24.933244 -18.147776 5
109.682986 -29.321858 -18.576134 5
106.010830 -30.430451 -18.546713 5
102.776144 -30.539810 -18.379687 5
99.566812 -30.648199 -18.216679 5
96.378751 -30.764395 -18.058876 5
93.238972 -30.811155 -17.895011 5
90.105951 -30.899704 -17.741090 5
86.980852 -31.028327 -17.596864 5
83.901810 -31.081204 -17.445334 5
81.769834 -28.179028 -16.862169 5
77.792955 -31.211458 -17.156829 5
74.756862 -31.307237 -17.022488 5
71.757811 -31.335400 -16.881613 5
68.767059 -31.391347 -16.748294 5
65.783624 -31.479630 -16.623203 5
60.432683 -41.041947 -17.925505 9
57.078602 -43.196190 -18.122926 9
53.784370 -45.334763 -18.322990 9
50.560850 -47.402479 -18.517194 9
47.527137 -48.820508 -18.617307 9
44.652762 -49.638904 -18.630047 9
41.893459 -49.991455 -18.575060 9
39.210406 -50.012196 -18.472280 9
36.529459 -50.073818 -18.378558 9
33.865999 -50.085081 -18.279850 9
31.203040 -50.145139 -18.191381 9
28.557323 -50.142025 -18.095844 9
25.914231 -50.169034 -18.007616 9
23.273372 -50.232631 -17.927706 9
20.633185 -50.352045 -17.859121 9
18.011289 -50.365526 -17.776638 9
15.388230 -50.445394 -17.707085 9
12.778370 -50.434886 -17.625936 9
10.170002 -50.452364 -17.551672 9
7.564968 -50.474025 -17.480553 9
4.962053 -50.516132 -17.415128 9
2.364151 -50.514933 -17.345334 9
-0.231091 -50.489021 -17.274062 9
-2.827433 -50.545710 -17.218266 9
-5.421663 -50.596033 -17.163887 9
-8.014217 -50.593181 -17.103478 9
-10.606803 -50.595889 -17.046327 9
-13.199197 -50.639653 -16.998078 9
-15.792446 -50.651910 -16.947183 9
-18.386655 -50.669957 -16.899565 9
-20.984843 -50.631757 -16.845311 9
-23.581106 -50.686643 -16.808266 9
-26.181829 -50.698395 -16.766665 9
-28.786574 -50.696615 -16.725226 9
-31.394941 -50.696625 -16.686400 9
-34.009438 -50.675898 -16.646567 9
-36.621875 -50.725002 -16.620269 9
-39.243714 -50.727802 -16.588863 9
-41.858938 -50.830643 -16.575874 9
-44.544245 -50.433485 -16.484748 9
-47.289697 -49.714322 -16.344016 9
-50.115816 -48.604460 -16.142539 9
-53.093471 -46.741050 -15.821756 9
-56.131097 -44.792435 -15.489348 9
-59.202294 -42.921907 -15.171704 9
-62.323973 -41.032775 -14.853291 9
-66.752481 -32.903384 -13.529767 8
-69.636362 -32.891742 -13.518959 8
-72.542932 -32.830798 -13.502749 8
-75.450696 -32.822177 -13.497562 8
-78.360684 -32.857500 -13.502062 8
-81.311454 -32.781225 -13.491146 8
-84.259042 -32.775981 -13.494329 8
-87.228719 -32.743594 -13.495776 8
-90.200967 -32.758081 -13.507461 8
-93.190271 -32.767453 -13.521011 8
-96.196293 -32.775526 -13.537065 8
-99.229405 -32.751698 -13.550715 8
-102.274645 -32.747096 -13.570236 8
-105.355848 -32.691245 -13.584297 8
-110.535141 -26.659831 -12.638925 8
-113.142511 -28.223337 -12.919907 8
-117.548517 -24.883941 -12.415001 7
-120.786396 -24.865483 -12.447559 7
-124.041753 -24.862179 -12.485603 7
-127.307756 -24.891807 -12.532021 7
-130.612454 -24.886011 -12.575883 7
-133.938851 -24.889621 -12.624429 7
-137.281517 -24.916389 -12.679899 7
-140.677603 -24.883736 -12.729136 7
-144.086329 -24.886862 -12.787415 7
-147.555761 -24.823301 -12.838441 7
-151.042163 -24.790458 -12.897813 7
148.351761 -27.892636 -17.033379 6
144.721859 -27.988618 -16.825202 6
141.112849 -28.115571 -16.626475 6
137.555618 -28.212453 -16.428069 6
133.997942 -28.380364 -16.244931 6
130.530372 -28.434689 -16.049368 6
127.065503 -28.550206 -15.867423 6
123.632011 -28.666924 -15.690030 6
120.238244 -28.764033 -15.513930 6
117.605105 -27.184916 -15.085677 6
116.623822 -21.694322 -14.058797 5
109.432954 -30.983708 -15.307541 5
105.805474 -31.995220 -15.290272 5
102.550605 -32.171839 -15.148189 5
99.352272 -32.269544 -14.997615 5
96.214841 -32.267171 -14.835031 5
93.072300 -32.337638 -14.687360 5
89.952765 -32.404612 -14.542627 5
86.848807 -32.487562 -14.403842 5
83.775890 -32.538323 -14.263327 5
80.710177 -32.626932 -14.132122 5
77.665553 -32.709428 -14.003207 5
74.687480 -32.628182 -13.851274 5
71.681898 -32.694276 -13.726004 5
68.695184 -32.752450 -13.602546 5
65.727330 -32.799291 -13.480289 5
60.375190 -42.346586 -14.900039 9
57.050979 -44.388042 -15.111801 9
53.782926 -46.420617 -15.326604 9
50.574061 -48.425622 -15.541284 9
47.529923 -49.896814 -15.672854 9
44.661651 -50.694836 -15.697721 9
41.915039 -50.992883 -15.643515 9
39.224762 -51.064509 -15.554706 9
36.548007 -51.116452 -15.465159 9
33.870812 -51.228227 -15.387987 9
31.222821 -51.212711 -15.292176 9
28.577715 -51.225251 -15.203393 9
25.940477 -51.230564 -15.115763 9
23.301172 -51.304239 -15.041871 9
20.677374 -51.303240 -14.957840 9
18.053559 -51.352912 -14.884574 9
15.440620 -51.346441 -14.804172 9
12.826971 -51.398054 -14.735768 9
10.225340 -51.350214 -14.652862 9
7.621840 -51.368907 -14.583351 9
5.019763 -51.420179 -14.521536 9
2.424865 -51.383497 -14.447033 9
-0.171619 -51.427198 -14.388281 9
-2.764853 -51.429583 -14.324678 9
-5.357395 -51.451521 -14.266521 9
-7.948868 -51.437043 -14.204291 9
-10.540225 -51.503912 -14.158012 9
-13.131748 -51.502165 -14.102148 9
-15.724346 -51.495750 -14.047568 9
-18.316735 -51.540104 -14.003736 9
-20.912464 -51.530953 -13.952830 9
-23.510640 -51.522923 -13.904171 9
-26.109896 -51.544493 -13.862639 9
-28.713446 -51.546269 -13.819764 9
-31.319908 -51.557666 -13.780588 9
-33.930807 -51.564295 -13.742638 9
-36.548497 -51.549235 -13.702997 9
-39.164743 -51.595807 -13.676006 9
-41.782726 -51.667044 -13.655317 9
-44.448114 -51.415290 -13.580984 9
-47.193443 -50.682454 -13.425620 9
-50.034983 -49.459236 -13.187485 9
-52.991923 -47.721161 -12.862233 9
-56.017461 -45.834012 -12.512988 9
-59.061353 -44.102468 -12.192447 9
-62.199797 -42.108883 -11.828444 9
-66.667759 -33.783953 -10.370678 8
-69.543099 -33.810406 -10.359837 8
-72.442924 -33.776271 -10.340739 8
-75.347707 -33.776017 -10.329751 8
-78.248723 -33.843776 -10.332799 8
-81.177348 -33.849704 -10.327409 8
-84.119865 -33.855468 -10.324275 8
-87.081092 -33.845807 -10.320768 8
-90.055723 -33.843333 -10.320825 8
-93.039750 -33.863100 -10.327071 8
-96.059374 -33.819223 -10.324646 8
-99.071128 -33.857763 -10.338876 8
-102.106358 -33.876879 -10.352139 8
-105.196317 -33.787934 -10.349115 8
-108.588427 -32.893024 -10.209054 8
-112.870445 -29.632086 -9.662214 8
-117.339751 -26.115425 -9.074113 8
-120.621016 -25.975302 -9.072831 7
-123.864369 -25.998497 -9.102425 7
-127.164321 -25.939473 -9.120484 7
-130.469116 -25.931703 -9.150103 7
-133.819501 -25.877630 -9.174479 7
-137.165606 -25.896848 -9.214277 7
-140.539673 -25.914063 -9.256546 7
-143.968992 -25.872315 -9.291527 7
-147.413148 -25.863522 -9.335094 7
-150.873211 -25.885161 -9.386843 7
147.921232 -29.751570 -13.602022 6
144.324871 -29.800732 -13.406725 6
140.726742 -29.922241 -13.227328 6
137.198183 -29.978707 -13.041692 6
133.702225 -30.037581 -12.860526 6
130.216871 -30.142203 -12.690800 6
126.780581 -30.212404 -12.519410 6
123.342070 -30.354569 -12.363657 6
120.022951 -30.301383 -12.179573 6
117.635821 -28.178921 -11.657027 6
113.972376 -28.998304 -11.623418 5
109.255933 -32.461888 -12.034270 5
105.711035 -33.278185 -12.010335 5
102.512533 -33.318704 -11.860606 5
99.330064 -33.379112 -11.717468 5
96.169419 -33.443351 -11.578182 5
93.040607 -33.481700 -11.437666 5
89.930683 -33.526618 -11.301328 5
86.826933 -33.614133 -11.175249 5
83.748110 -33.688819 -11.049982 5
80.711851 -33.691314 -10.915299 5
77.677624 -33.744303 -10.792092 5
74.658929 -33.805143 -10.673049 5
71.665864 -33.836829 -10.551752 5
68.724862 -33.737201 -10.410453 5
65.756993 -33.787380 -10.297663 5
60.424522 -43.223961 -11.818191 9
57.098936 -45.264035 -12.060982 9
53.828433 -47.300568 -12.307217 9
50.606543 -49.358286 -12.561129 9
47.560261 -50.839043 -12.717792 9
44.711893 -51.542133 -12.741212 9
41.959988 -51.868814 -12.701109 9
39.276384 -51.907905 -12.612701 9
36.595837 -51.984612 -12.533133 9
33.938225 -51.980184 -12.441385 9
31.276706 -52.051470 -12.365179 9
28.637352 -52.027661 -12.274199 9
26.001270 -52.026176 -12.189240 9
23.363340 -52.090111 -12.117988 9
20.737502 -52.108618 -12.040673 9
18.125387 -52.048011 -11.951203 9
15.507631 -52.086061 -11.881360 9
12.895848 -52.112397 -11.811391 9
10.288740 -52.133451 -11.742423 9
7.683318 -52.186218 -11.681099 9
5.086386 -52.152936 -11.606187 9
2.487272 -52.207559 -11.549023 9
-0.107027 -52.207698 -11.483906 9
-2.699354 -52.185094 -11.416530 9
-5.291834 -52.206402 -11.358954 9
-7.883597 -52.261625 -11.309380 9
-10.474360 -52.298922 -11.258397 9
-13.065336 -52.302841 -11.203170 9
-15.657753 -52.282231 -11.145279 9
-18.251221 -52.283587 -11.093182 9
-20.846880 -52.276815 -11.041390 9
-23.444030 -52.288239 -10.994703 9
-26.042379 -52.321506 -10.953790 9
-28.645126 -52.330485 -10.910210 9
-31.252550 -52.326181 -10.865965 9
-33.862158 -52.344867 -10.827696 9
-36.474714 -52.377168 -10.793689 9
-39.096872 -52.364599 -10.753205 9
-41.726013 -52.343450 -10.712893 9
-44.385947 -52.139267 -10.640655 9
-47.122272 -51.473110 -10.485067 9
-49.966387 -50.232735 -10.225294 9
-52.913841 -48.555299 -9.886443 9
-55.946018 -46.628983 -9.503113 9
-58.992662 -44.884468 -9.154745 9
-62.112820 -42.989825 -8.780147 9
-66.604462 -34.557589 -7.199483 8
-69.487122 -34.552416 -7.176583 8
-72.381906 -34.545345 -7.155236 8
-75.273242 -34.606018 -7.148328 8
-78.193207 -34.596469 -7.130360 8
-81.125260 -34.592896 -7.115428 8
-84.071566 -34.588759 -7.102334 8
-87.029241 -34.596947 -7.093477 8
-90.005274 -34.593846 -7.084498 8
-93.003798 -34.568907 -7.073458 8
-96.009068 -34.578026 -7.070721 8
-99.021314 -34.619215 -7.075937 8
-102.071498 -34.596926 -7.071430 8
-105.149668 -34.548738 -7.064176 8
-108.522480 -33.715615 -6.913646 8
-112.751070 -30.613229 -6.345089 8
-117.138916 -27.322683 -5.743993 8
-120.580640 -26.755811 -5.649409 7
-123.823839 -26.784537 -5.667302 7
-127.106350 -26.773919 -5.680160 7
-130.418493 -26.752505 -5.693298 7
-133.737883 -26.775604 -5.716973 7
-137.107572 -26.743733 -5.732822 7
-140.497036 -26.730938 -5.754568 7
-143.912238 -26.724973 -5.779981 7
-147.351354 -26.731260 -5.810094 7
-150.836697 -26.705087 -5.836696 7
147.753516 -31.121624 -10.116609 6
144.155284 -31.179338 -9.942231 6
140.584947 -31.253033 -9.774381 6
137.070744 -31.286241 -9.603163 6
133.581363 -31.336598 -9.438495 6
130.117490 -31.401732 -9.279909 6
126.703585 -31.428960 -9.118080 6
123.300727 -31.497294 -8.966819 6
119.945488 -31.526618 -8.811931 6
117.619131 -29.278329 -8.255533 6
113.976901 -30.046645 -8.237390 5
109.309818 -33.379537 -8.681479 5
105.740989 -34.249403 -8.690454 5
102.515370 -34.357937 -8.566316 5
99.360414 -34.347852 -8.423702 5
96.209984 -34.384188 -8.292212 5
93.092113 -34.391304 -8.158152 5
89.992601 -34.404823 -8.027899 5
86.907339 -34.435240 -7.903324 5
83.849927 -34.440531 -7.776730 5
80.798645 -34.484252 -7.659668 5
77.779824 -34.482308 -7.536715 5
74.760690 -34.538031 -7.426770 5
71.767386 -34.563949 -7.313743 5
68.792926 -34.579584 -7.201161 5
65.831903 -34.601647 -7.092067 5
61.652646 -39.467572 -7.883825 9
57.175910 -46.018804 -8.994817 9
53.898914 -48.071247 -9.274883 9
50.726087 -49.898711 -9.516527 9
47.671455 -51.399363 -9.700388 9
44.811884 -52.142306 -9.745319 9
42.043625 -52.541768 -9.728221 9
39.366373 -52.539266 -9.637706 9
36.693287 -52.563266 -9.554049 9
34.034069 -52.555937 -9.466339 9
31.375535 -52.593901 -9.389002 9
28.724960 -52.632188 -9.313546 9
26.086202 -52.638078 -9.233743 9
23.454561 -52.637792 -9.154522 9
20.827807 -52.645017 -9.078460 9
18.207930 -52.637900 -9.001382 9
15.586513 -52.696638 -8.938557 9
12.972779 -52.728523 -8.872308 9
10.365104 -52.738266 -8.803498 9
7.761222 -52.743534 -8.735477 9
5.159787 -52.757951 -8.670840 9
2.560859 -52.775548 -8.608432 9
-0.035086 -52.771647 -8.543495 9
-2.629609 -52.764695 -8.479552 9
-5.224098 -52.809328 -8.427123 9
-7.817038 -52.818015 -8.369335 9
-10.409872 -52.809365 -8.309749 9
-13.002907 -52.830491 -8.257459 9
-15.596273 -52.859112 -8.208156 9
-18.191542 -52.856101 -8.154253 9
-20.787959 -52.870873 -8.105311 9
-23.386751 -52.879525 -8.056689 9
-25.986951 -52.907673 -8.013357 9
-28.592976 -52.893459 -7.963282 9
-31.202002 -52.891844 -7.917141 9
-33.811888 -52.927082 -7.879663 9
-36.434071 -52.881754 -7.827954 9
-39.059224 -52.864373 -7.783159 9
-41.678886 -52.941314 -7.758260 9
-44.353893 -52.635311 -7.659962 9
-47.097085 -51.940042 -7.486866 9
-49.932893 -50.775174 -7.223085 9
-52.909020 -48.937287 -6.828590 9
-55.919866 -47.160497 -6.447099 9
-58.983064 -45.341900 -6.058476 9
-62.086604 -43.554224 -5.677015 9
-66.576741 -35.155110 -3.998067 8
-69.457110 -35.171949 -3.972862 8
-72.348927 -35.188141 -3.949109 8
-75.256776 -35.186683 -3.923468 8
-78.192101 -35.125352 -3.887632 8
-81.124292 -35.134364 -3.867227 8
-84.066786 -35.157018 -3.851112 8
-87.044726 -35.102650 -3.821434 8
-90.026238 -35.093669 -3.802312 8
-93.006188 -35.144820 -3.796670 8
-96.023420 -35.125429 -3.778764 8
-99.063692 -35.089636 -3.759270 8
-102.114316 -35.079864 -3.746568 8
-105.176349 -35.092648 -3.739992 8
-108.590585 -34.154298 -3.547434 8
-112.895565 -30.861805 -2.891987 8
-117.207800 -27.802365 -2.284168 8
-120.694521 -27.133099 -2.149784 7
-123.958710 -27.125166 -2.147719 7
-127.251231 -27.107451 -2.145550 7
-130.560984 -27.109459 -2.149122 7
-133.884802 -27.139094 -2.160014 7
-137.260142 -27.111150 -2.161437 7
-140.657687 -27.097048 -2.167510 7
-144.065379 -27.123855 -2.183597 7
-147.526796 -27.098942 -2.191453 7
-151.010102 -27.093524 -2.205154 7
147.798822 -32.099064 -6.575257 6
144.206223 -32.142243 -6.417538 6
140.646684 -32.191166 -6.264107 6
137.138430 -32.208397 -6.107896 6
133.703525 -32.145244 -5.939645 6
130.251252 -32.179430 -5.792584 6
126.833618 -32.206870 -5.647167 6
123.436914 -32.254358 -5.508386 6
120.103106 -32.228518 -5.358498 6
117.623417 -30.327167 -4.854654 6
114.281409 -30.393825 -4.726756 5
109.483707 -34.008326 -5.279559 5
105.925487 -34.838398 -5.304846 5
102.723019 -34.876491 -5.181257 5
99.525991 -34.962416 -5.069304 5
96.383094 -34.967750 -4.944224 5
93.256016 -34.988671 -4.824461 5
90.150776 -35.007272 -4.706518 5
87.077828 -34.990370 -4.583903 5
84.002333 -35.037927 -4.475987 5
80.955779 -35.055410 -4.364368 5
77.927511 -35.071936 -4.254660 5
74.908523 -35.115319 -4.152271 5
71.920388 -35.110940 -4.042552 5
68.944077 -35.119752 -3.937397 5
65.982857 -35.128550 -3.834183 5
60.658867 -44.440944 -5.568902 9
57.345147 -46.396033 -5.857593 9
54.074506 -48.392961 -6.157725 9
50.857479 -50.386782 -6.460356 9
47.808328 -51.840081 -6.658614 9
44.918594 -52.709427 -6.743250 9
42.152750 -53.082571 -6.731138 9
39.470644 -53.092518 -6.648324 9
36.800564 -53.085373 -6.563668 9
34.142531 -53.054642 -6.475829 9
31.484023 -53.073793 -6.399505 9
28.835652 -53.075832 -6.321258 9
26.190222 -53.106911 -6.250340 9
23.557540 -53.090749 -6.171385 9
20.930230 -53.075366 -6.094023 9
18.304055 -53.096977 -6.025555 9
15.683619 -53.113105 -5.957401 9
13.067907 -53.128068 -5.890411 9
10.456896 -53.135179 -5.823214 9
7.850248 -53.128641 -5.754610 9
5.243732 -53.169655 -5.697021 9
2.641666 -53.182630 -5.635076 9
0.043120 -53.156948 -5.566576 9
-2.555694 -53.178798 -5.509072 9
-5.152877 -53.185150 -5.449706 9
-7.749404 -53.184509 -5.390195 9
-10.345882 -53.193784 -5.333986 9
-12.942346 -53.223338 -5.283200 9
-15.539358 -53.244269 -5.231908 9
-18.138042 -53.244744 -5.177666 9
-20.739198 -53.231119 -5.121759 9
-23.342360 -53.228880 -5.069415 9
-25.948592 -53.223365 -5.017612 9
-28.557864 -53.222886 -4.968057 9
-31.165808 -53.284185 -4.932453 9
-33.785271 -53.254159 -4.879209 9
-36.407416 -53.250074 -4.832509 9
-39.036114 -53.235041 -4.784730 9
-41.671553 -53.214228 -4.736933 9
-44.339798 -52.995908 -4.649388 9
-47.087041 -52.300900 -4.464114 9
-49.939726 -51.053189 -4.165124 9
-52.893273 -49.387042 -3.780060 9
-55.926064 -47.504732 -3.350787 9
-59.008099 -45.610182 -2.919636 9
-62.123171 -43.793192 -2.505310 9
-66.646543 -35.272393 -0.696114 8
-69.541183 -35.256547 -0.657631 8
-72.444747 -35.254672 -0.623303 8
-75.360462 -35.253701 -0.590413 8
-78.285670 -35.266907 -0.561732 8
-81.221352 -35.291151 -0.536614 8
-84.185949 -35.257918 -0.500754 8
-87.147921 -35.290571 -0.479918 8
-90.129942 -35.304875 -0.456518 8
-93.136908 -35.288537 -0.427985 8
-96.139789 -35.341383 -0.415202 8
-99.196147 -35.277684 -0.379319 8
-102.254885 -35.266376 -0.355688 8
-105.342404 -35.226910 -0.327458 8
-108.774327 -34.264291 -0.107116 8
-113.092285 -30.967915 0.601129 8
-117.704784 -27.134887 1.420914 7
-120.944505 -27.157405 1.431282 7
-124.219382 -27.149165 1.446708 7
-127.525333 -27.124875 1.464099 7
-130.843941 -27.132011 1.473481 7
-134.185329 -27.146593 1.479868 7
-137.565251 -27.134420 1.490423 7
-140.963094 -27.145170 1.494703 7
-144.399722 -27.134307 1.502038 7
-147.863137 -27.130724 1.506346 7
-151.355267 -27.132060 1.508103 7
148.111930 -32.589104 -2.943014 6
146.265594 -29.375807 -2.156706 6
140.943097 -32.682042 -2.669618 6
137.441783 -32.670793 -2.525371 6
133.959962 -32.685833 -2.388906 6
130.526749 -32.667450 -2.248209 6
127.118801 -32.659758 -2.112055 6
123.729658 -32.675246 -1.982922 6
120.359745 -32.712587 -1.860519 6
117.586254 -31.467259 -1.480424 6
114.781063 -30.291018 -1.115459 5
109.890403 -34.082842 -1.762884 5
106.247800 -35.090607 -1.847766 5
103.010081 -35.196287 -1.751151 5
99.843994 -35.182379 -1.632120 5
96.689577 -35.196039 -1.520682 5
93.554825 -35.215587 -1.412371 5
90.427433 -35.274242 -1.313997 5
87.329054 -35.310110 -1.212793 5
84.271600 -35.282633 -1.100309 5
81.220948 -35.289738 -0.996721 5
78.198881 -35.262275 -0.887686 5
75.195936 -35.225881 -0.778459 5
72.182157 -35.281208 -0.689958 5
69.207786 -35.255218 -0.586158 5
66.232888 -35.285395 -0.495665 5
60.908656 -44.532715 -2.335310 9
57.576081 -46.524616 -2.662120 9
54.284721 -48.570271 -3.002968 9
51.063514 -50.544883 -3.331616 9
47.973016 -52.152997 -3.585736 9
45.094786 -52.937992 -3.668661 9
42.323225 -53.309052 -3.665985 9
39.639813 -53.294809 -3.583357 9
36.962217 -53.296702 -3.505408 9
34.292324 -53.303000 -3.429646 9
31.629627 -53.314455 -3.356214 9
28.972781 -53.337865 -3.286543 9
26.328238 -53.324060 -3.210157 9
23.689345 -53.313486 -3.135628 9
21.052807 -53.331378 -3.068328 9
18.421114 -53.357281 -3.003891 9
15.797351 -53.355867 -2.934749 9
13.179320 -53.337690 -2.863127 9
10.561172 -53.367788 -2.802944 9
7.950443 -53.344671 -2.732431 9
5.337662 -53.402910 -2.680462 9
2.731730 -53.388341 -2.613907 9
0.125882 -53.417755 -2.557861 9
-2.475536 -53.353321 -2.482619 9
-5.079756 -53.448529 -2.442827 9
-7.680772 -53.402854 -2.373637 9
-10.282422 -53.417661 -2.318505 9
-12.884590 -53.406151 -2.258665 9
-15.487733 -53.402009 -2.201389 9
-18.092495 -53.393712 -2.144174 9
-20.698445 -53.405045 -2.092174 9
-23.305270 -53.439956 -2.046249 9
-25.917952 -53.415952 -1.988457 9
-28.527846 -53.482120 -1.951221 9
-31.151681 -53.409987 -1.884789 9
-33.773690 -53.419158 -1.836981 9
-36.397988 -53.450758 -1.794981 9
-39.027538 -53.476922 -1.752706 9
-41.662069 -53.505222 -1.711803 9
-44.349704 -53.175933 -1.593537 9
-47.091977 -52.557247 -1.412654 9
-49.935906 -51.401807 -1.114785 9
-52.920828 -49.571126 -0.669287 9
-55.964065 -47.665750 -0.207679 9
-59.045366 -45.812692 0.242156 9
-62.200965 -43.819955 0.722389 9
-66.766400 -35.145304 2.672328 8
-69.657158 -35.193753 2.703615 8
-72.577283 -35.159316 2.752229 8
-75.488263 -35.219925 2.778986 8
-78.438889 -35.166589 2.829945 8
-81.387726 -35.178147 2.865684 8
-84.346048 -35.206890 2.896711 8
-87.334397 -35.178797 2.939377 8
-90.328162 -35.188298 2.972825 8
-93.335698 -35.205536 3.003646 8
-96.367060 -35.199294 3.038745 8
-99.412742 -35.203948 3.070515 8
-103.435997 -32.298913 3.746040 8
-105.594564 -35.110792 3.154006 8
-109.104025 -33.961724 3.438888 8
-113.634963 -30.122679 4.319930 8
-118.086805 -26.781335 5.090322 7
-121.352248 -26.775114 5.119751 7
-124.635881 -26.783171 5.145040 7
-127.963298 -26.743650 5.179925 7
-131.309061 -26.723266 5.209579 7
-134.670144 -26.729646 5.232295 7
-138.066525 -26.717634 5.258104 7
-141.491012 -26.706605 5.282691 7
-144.929586 -26.728708 5.298889 7
-148.440810 -26.661017 5.334059 7
148.638036 -32.696454 0.778026 6
145.036595 -32.716489 0.902631 6
141.472911 -32.733277 1.025767 6
137.954125 -32.730471 1.150973 6
134.473258 -32.718239 1.276159 6
130.997347 -32.760695 1.387690 6
127.580679 -32.746545 1.509371 6
124.186400 -32.748018 1.625827 6
120.795692 -32.805393 1.728431 6
117.514228 -32.683018 1.867890 6
115.528452 -29.621921 2.639480 5
110.466395 -33.760277 1.856255 5
106.670739 -35.100786 1.673748 5
103.387766 -35.291653 1.737861 5
100.230998 -35.227871 1.855554 5
97.064123 -35.246980 1.953718 5
93.921825 -35.259294 2.051838 5
90.807386 -35.252655 2.152610 5
87.723483 -35.215181 2.258683 5
84.667736 -35.148732 2.369713 5
81.604427 -35.159305 2.462518 5
78.540003 -35.231849 2.540355 5
75.533207 -35.174641 2.645356 5
72.530243 -35.156993 2.740387 5
69.538413 -35.154786 2.830755 5
66.561129 -35.154622 2.919430 5
61.186905 -44.518528 0.935695 9
57.842360 -46.514415 0.577002 9
54.520027 -48.645438 0.186007 9
51.288071 -50.625162 -0.173750 9
48.193068 -52.212445 -0.448464 9
45.305554 -53.002019 -0.547510 9
42.514657 -53.431886 -0.567822 9
39.808377 -53.504107 -0.509528 9
37.128009 -53.488136 -0.432534 9
34.453566 -53.485502 -0.359469 9
31.784798 -53.497020 -0.290509 9
29.122305 -53.517900 -0.224573 9
26.471224 -53.508371 -0.152721 9
23.824877 -53.510427 -0.084354 9
21.179018 -53.559622 -0.027470 9
18.548840 -53.519983 0.048555 9
15.921943 -53.488756 0.121861 9
13.292485 -53.531666 0.177613 9
10.677632 -53.443482 0.262173 9
8.055109 -53.497868 0.313708 9
5.441672 -53.460395 0.385245 9
2.827024 -53.486493 0.441609 9
0.216388 -53.469251 0.507041 9
-2.393958 -53.484405 0.564369 9
-5.002001 -53.436183 0.635373 9
-7.611083 -53.485225 0.683524 9
-10.219425 -53.463699 0.747025 9
-12.828745 -53.434147 0.811664 9
-15.437861 -53.477574 0.858954 9
-18.050342 -53.436270 0.924913 9
-20.664519 -53.418153 0.984910 9
-23.280474 -53.417802 1.040183 9
-25.898739 -53.426049 1.092829 9
-28.520470 -53.430206 1.145765 9
-31.146563 -53.426784 1.199802 9
-33.777062 -53.423049 1.253283 9
-36.411354 -53.429849 1.303721 9
-39.055160 -53.398043 1.362430 9
-41.695917 -53.443548 1.402733 9
-44.384831 -53.166785 1.516735 9
-47.141045 -52.505280 1.719044 9
-50.006191 -51.266256 2.054404 9
-52.991163 -49.493886 2.512925 9
-56.051214 -47.544197 3.012530 9
-59.177079 -45.501178 3.533866 9
-62.352719 -43.466438 4.053431 9
-66.935935 -34.777031 6.116142 8
-69.854687 -34.752423 6.170693 8
-72.779633 -34.755517 6.218237 8
-75.723987 -34.728955 6.272093 8
-78.667354 -34.762267 6.311461 8
-81.637516 -34.741878 6.362748 8
-84.622532 -34.721436 6.413489 8
-87.617232 -34.722006 6.458782 8
-90.626810 -34.725519 6.502832 8
-93.670975 -34.667792 6.560620 8
-96.700552 -34.716753 6.592966 8
-99.764263 -34.711346 6.637455 8
-102.846278 -34.707003 6.681155 8
-105.984379 -34.595111 6.749480 8
-109.662896 -33.013389 7.161389 8
-114.440237 -28.562135 8.245400 8
-118.570168 -26.162342 8.849309 7
-121.860188 -26.138444 8.896135 7
-125.156216 -26.161043 8.931511 7
-128.489950 -26.150817 8.974047 7
-131.841177 -26.160700 9.011318 7
-135.238215 -26.125611 9.058618 7
-138.681660 -26.049891 9.114943 7
-142.129406 -26.031359 9.157290 7
-145.598341 -26.031679 9.194662 7
-149.100889 -26.025651 9.232990 7
145.787098 -32.391647 4.720976 6
142.226898 -32.367434 4.835170 6
138.689867 -32.364349 4.943035 6
135.184303 -32.365270 5.048463 6
131.730338 -32.327446 5.161175 6
128.264213 -32.378165 5.252371 6
124.879329 -32.323028 5.366172 6
121.504717 -32.306639 5.469815 6
118.158476 -32.289281 5.572347 6
116.722898 -27.934100 6.663850 5
111.294883 -32.848485 5.637773 5
107.304505 -34.603922 5.330430 5
103.956480 -34.914257 5.352065 5
100.767746 -34.893322 5.448390 5
97.596074 -34.886071 5.540444 5
94.449171 -34.870484 5.633309 5
91.306269 -34.902011 5.714239 5
88.203860 -34.876876 5.807174 5
85.114143 -34.870624 5.894729 5
82.055101 -34.827076 5.989915 5
78.999061 -34.828828 6.073647 5
75.983246 -34.754655 6.174040 5
72.960116 -34.757581 6.255629 5
69.953049 -34.760355 6.336340 5
66.976261 -34.707605 6.429093 5
61.622746 -43.900434 4.364964 9
58.225246 -46.039782 3.941689 9
54.904657 -48.097235 3.535580 9
51.624606 -50.217680 3.112834 9
48.464943 -52.038121 2.758484 9
45.551013 -52.903268 2.626508 9
42.750897 -53.331254 2.596025 9
40.027375 -53.446547 2.638142 9
37.342178 -53.408957 2.715510 9
34.657364 -53.415817 2.781773 9
31.981887 -53.414925 2.849223 9
29.322146 -53.357147 2.929483 9
26.652282 -53.416614 2.981454 9
23.995734 -53.430769 3.043522 9
21.348137 -53.421161 3.110634 9
18.706440 -53.405131 3.178708 9
16.068941 -53.393238 3.245255 9
13.436876 -53.366700 3.314750 9
10.803290 -53.405032 3.368305 9
8.176499 -53.403809 3.430745 9
5.551851 -53.416412 3.489390 9
2.931827 -53.387282 3.557495 9
0.314004 -53.335769 3.630481 9
-2.306025 -53.386156 3.678674 9
-4.923344 -53.393097 3.736783 9
-7.539689 -53.350969 3.806194 9
-10.156677 -53.352334 3.864771 9
-12.774476 -53.323917 3.930069 9
-15.392577 -53.346451 3.982738 9
-18.014254 -53.290002 4.053976 9
-20.636394 -53.292642 4.110638 9
-23.259286 -53.324939 4.159780 9
-25.888581 -53.290696 4.224571 9
-28.520402 -53.277105 4.284037 9
-31.151867 -53.317469 4.330135 9
-33.796020 -53.259091 4.399729 9
-36.441581 -53.245395 4.458213 9
-39.095933 -53.203456 4.523215 9
-41.744246 -53.265119 4.562829 9
-44.440248 -53.006206 4.679821 9
-47.210321 -52.313516 4.901859 9
-50.859826 -46.013229 6.485441 9
-53.124375 -49.033287 5.806382 9
-56.212342 -46.998115 6.355302 9
-59.351975 -44.957404 6.906118 9
-62.542265 -42.921210 7.456385 9
-67.170872 -34.091831 9.663405 8
-70.114930 -34.022532 9.736197 8
-73.052720 -34.040952 9.787353 8
-76.005338 -34.048393 9.840948 8
-78.997184 -33.949438 9.920338 8
-81.962561 -34.016232 9.958975 8
-84.974053 -33.959353 10.027673 8
-87.989276 -33.948233 10.084974 8
-91.018783 -33.943500 10.140519 8
-94.078740 -33.892644 10.207208 8
-97.148004 -33.871086 10.266540 8
-100.222816 -33.889862 10.315794 8
-103.331197 -33.862578 10.376219 8
-106.562739 -33.533962 10.510722 8
-110.393328 -31.586975 11.044122 8
-115.669054 -25.849586 12.513130 8
-119.286513 -24.929368 12.794964 7
-122.588538 -24.938574 12.847405 7
-125.938050 -24.888796 12.914314 7
-129.295742 -24.883105 12.970231 7
-132.688555 -24.856094 13.031336 7
-136.126692 -24.788062 13.102531 7
-139.553176 -24.812625 13.150714 7
-143.049617 -24.745923 13.221470 7
-146.547874 -24.742612 13.276450 7
-150.085210 -24.722548 13.335547 7
146.853067 -31.496564 8.706433 6
143.281437 -31.445960 8.809186 6
139.733346 -31.415221 8.906166 6
136.223235 -31.375081 9.004384 6
132.729941 -31.365324 9.094354 6
129.268963 -31.353919 9.183756 6
125.865160 -31.285738 9.285859 6
122.462933 -31.275179 9.373239 6
119.080198 -31.284561 9.454941 6
117.568288 -27.065726 10.554690 6
112.492821 -31.078668 9.669985 5
108.164630 -33.568321 9.150130 5
104.695566 -34.121121 9.096482 5
101.472372 -34.136765 9.171823 5
98.273742 -34.149064 9.247237 5
95.120405 -34.099063 9.337056 5
91.978561 -34.073478 9.420285 5
88.849589 -34.068396 9.497877 5
85.752734 -34.026006 9.583910 5
82.659510 -34.028239 9.658466 5
79.593165 -34.003058 9.739104 5
76.540317 -33.989447 9.816344 5
73.514667 -33.939228 9.901974 5
70.483695 -33.961628 9.969305 5
67.484268 -33.926199 10.050263 5
