ply
format ascii 1.0
element vertex 1350
property float x
property float y
property float z
property int scalar_Label
end_header
133.069094 136.649721 -153.767059 0
128.753148 136.645285 -153.504605 0
124.447834 136.624482 -153.252221 0
120.170847 136.704870 -153.006363 0
115.988707 137.375241 -152.752049 0
159.566745 136.058766 -150.495067 0
155.294621 136.694188 -150.160593 0
150.866460 136.601163 -149.861726 0
146.471774 136.574925 -149.570134 0
142.084908 136.502718 -149.289857 0
137.720989 136.460439 -149.017946 0
133.386236 136.491413 -148.752549 0
129.065233 136.523711 -148.496301 0
124.765227 136.606792 -148.247121 0
120.472749 136.667849 -148.007819 0
116.183273 136.676545 -147.779606 0
111.800915 135.915706 -147.592492 0
151.285644 136.689180 -144.796884 0
146.868328 136.624147 -144.516794 0
142.468614 136.557015 -144.245971 0
138.090995 136.515096 -143.982956 0
133.738973 136.526058 -143.726209 0
129.398808 136.524549 -143.478883 0
125.072455 136.525218 -143.240159 0
120.774783 136.629824 -143.004652 0
116.476060 136.659519 -142.781531 0
112.184352 136.663656 -142.568218 0
107.780209 135.692666 -142.415472 0
147.208973 136.409164 -139.471089 0
142.857917 136.635740 -139.192343 0
138.463354 136.578856 -138.939206 0
134.081130 136.500482 -138.695899 0
129.736084 136.543956 -138.453442 0
125.389505 136.501246 -138.224619 0
121.070007 136.545623 -137.998518 0
116.751143 136.518361 -137.785057 0
112.462932 136.630777 -137.570695 0
108.174431 136.676104 -137.368550 0
103.787042 135.799877 -137.234288 0
143.065219 135.822865 -134.192782 0
138.839089 136.656373 -133.884792 0
134.444293 136.585461 -133.649933 0
130.075946 136.574865 -133.418616 0
125.723590 136.577161 -133.194179 0
121.379173 136.548379 -132.979804 0
117.056610 136.582970 -132.768379 0
112.740115 136.584699 -132.567010 0
108.435030 136.594350 -132.372582 0
104.146653 136.665689 -132.180922 0
99.862703 136.708422 -131.998824 0
96.378425 144.826669 -131.201432 0
139.014921 135.709453 -128.905021 0
134.805943 136.658106 -128.593664 0
130.420357 136.627794 -128.371865 0
126.039637 136.540483 -128.162336 0
121.688919 136.551187 -127.951779 0
117.353382 136.584128 -127.746527 0
113.025022 136.591548 -127.550625 0
108.702384 136.562455 -127.365004 0
104.398318 136.603522 -127.180311 0
100.104752 136.666178 -127.000679 0
95.817217 136.719260 -126.828786 0
91.913527 141.011489 -126.287890 0
135.029085 135.984912 -123.596435 0
130.757851 136.637204 -123.317473 0
126.371090 136.592228 -123.112209 0
122.002616 136.574970 -122.911145 0
117.656338 136.622985 -122.710514 0
113.305819 136.564259 -122.527023 0
108.984450 136.641256 -122.336890 0
104.658698 136.611010 -122.163898 0
100.349470 136.644235 -121.991188 0
96.043214 136.630694 -121.829614 0
91.754708 136.728961 -121.663340 0
87.511847 137.338103 -121.452215 0
126.711173 136.690409 -118.044050 0
122.319356 136.613203 -117.856621 0
117.955225 136.629383 -117.665427 0
113.590915 136.563485 -117.489462 0
109.252110 136.602570 -117.308254 0
104.915433 136.582778 -117.139659 0
100.596643 136.639750 -116.968715 0
96.276326 136.609005 -116.813513 0
91.970130 136.644738 -116.656965 0
87.669495 136.674048 -116.507087 0
83.322239 135.967710 -116.445351 0
122.643589 136.693223 -112.783152 0
118.256165 136.644338 -112.606150 0
113.880968 136.593062 -112.435299 0
109.529817 136.636483 -112.258797 0
105.181308 136.625639 -112.094565 0
100.840045 136.595254 -111.938388 0
96.515648 136.643526 -111.778253 0
92.192817 136.635418 -111.630565 0
87.877351 136.632035 -111.487841 0
83.569605 136.651181 -111.347849 0
79.212356 135.786341 -111.322323 0
118.475983 136.111403 -107.604310 0
114.173918 136.637311 -107.364271 0
109.801781 136.619989 -107.201035 0
105.445680 136.649500 -107.036863 0
101.092994 136.631314 -106.884235 0
96.753193 136.653501 -106.731410 0
92.419558 136.663880 -106.585283 0
88.091271 136.657835 -106.446446 0
83.769951 136.662162 -106.311279 0
79.452849 136.649942 -106.183361 0
75.093374 135.736040 -106.182063 0
114.337932 135.756946 -102.409213 0
110.080683 136.650322 -102.121404 0
105.706036 136.633265 -101.968928 0
101.344004 136.642703 -101.817405 0
96.991837 136.667103 -101.668434 0
92.646455 136.686285 -101.524889 0
88.306830 136.695479 -101.387433 0
83.971004 136.674425 -101.258990 0
79.644858 136.715755 -101.126036 0
75.451807 139.210419 -100.638951 3
71.125051 139.631309 -100.458787 3
110.234814 135.722831 -97.172824 0
105.976230 136.691052 -96.873068 0
101.594553 136.642456 -96.735386 0
97.230980 136.677762 -96.588907 0
92.871433 136.679531 -96.451884 0
88.519798 136.692720 -96.317266 0
84.170908 136.661623 -96.193758 0
79.988744 139.188560 -95.672092 3
75.626638 139.164447 -95.555063 3
71.273038 139.236070 -95.427036 3
66.916915 139.181951 -95.322918 3
106.151860 135.965598 -91.888483 0
101.851289 136.689416 -91.627398 0
97.470706 136.685755 -91.491545 0
93.099869 136.701580 -91.356199 0
88.733654 136.691588 -91.228925 0
84.561682 139.253811 -90.672224 3
80.178310 139.177555 -90.562824 3
75.805174 139.176727 -90.444395 3
71.437534 139.211476 -90.323591 3
67.071768 139.229063 -90.209297 3
62.706626 139.189703 -90.108253 3
97.711526 136.695457 -86.374301 0
93.561871 139.223748 -85.792433 3
89.152697 139.145281 -85.680499 3
84.761177 139.199601 -85.547998 3
80.371904 139.218636 -85.425062 3
75.985318 139.206158 -85.311012 3
71.602762 139.189684 -85.200878 3
67.224545 139.197942 -85.089441 3
62.847966 139.182721 -84.985391 3
58.473783 139.201942 -84.878221 3
89.374227 139.201558 -80.513014 3
84.969213 139.250468 -80.384139 3
80.562758 139.204369 -80.276217 3
76.165372 139.220196 -80.159188 3
71.770792 139.216170 -80.048690 3
67.377783 139.162854 -79.950374 3
62.991059 139.223373 -79.832843 3
58.603652 139.210630 -79.732065 3
54.217388 139.212362 -79.631138 3
85.168305 139.168626 -75.223856 3
80.754302 139.188225 -75.105939 3
76.343750 139.189333 -74.994054 3
71.936564 139.175890 -74.887388 3
67.533533 139.181191 -74.779144 3
63.133700 139.220911 -74.666086 3
58.733802 139.201184 -74.567349 3
54.335365 139.224094 -74.462073 3
49.936496 139.250813 -74.358162 3
80.946897 139.174951 -69.911853 3
76.524623 139.189303 -69.799466 3
72.106184 139.204503 -69.688675 3
67.690502 139.213679 -69.580940 3
63.276660 139.205611 -69.478663 3
58.864725 139.203546 -69.376816 3
54.453616 139.190309 -69.279089 3
50.042617 139.226392 -69.172384 3
45.630917 139.206758 -69.079395 3
76.708191 139.222165 -64.572442 3
72.273924 139.173695 -64.477812 3
67.846644 139.201458 -64.367186 3
63.421021 139.218243 -64.260310 3
58.995901 139.182359 -64.166657 3
54.572913 139.237031 -64.053628 3
50.149174 139.218628 -63.958443 3
45.724830 139.216104 -63.860836 3
41.299781 139.178957 -63.772312 3
36.720133 143.735632 -62.634816 3
72.445559 139.209419 -59.225366 3
68.004015 139.201561 -59.124356 3
63.564727 139.177705 -59.027961 3
59.128209 139.190532 -58.923571 3
54.692270 139.195247 -58.821868 3
50.256202 139.229801 -58.713743 3
45.819552 139.200744 -58.621573 3
41.380998 139.211033 -58.520666 3
36.941594 139.168923 -58.433022 3
32.421427 140.947995 -57.908043 3
68.161318 139.176800 -53.859835 3
63.710637 139.192199 -53.754861 3
59.261607 139.221697 -53.646627 3
54.812551 139.199944 -53.551517 3
50.364034 139.169722 -53.458791 3
45.914555 139.201784 -53.350636 3
41.463677 139.199109 -53.251424 3
37.013321 139.109800 -53.174241 3
32.622819 137.592454 -53.457524 3
28.144293 138.234603 -53.196375 3
63.856311 139.167323 -48.462324 3
59.395147 139.216236 -48.349145 3
54.933733 139.237123 -48.243089 3
50.472127 139.213755 -48.148427 3
46.010091 139.202688 -48.050273 3
41.552847 138.923327 -48.022577 3
37.161769 136.725056 -48.501055 3
32.881364 132.888709 -49.412828 3
28.667549 129.163855 -50.296544 3
55.055084 139.197063 -42.924024 3
50.580983 139.218630 -42.816803 3
46.114003 138.588583 -42.888206 3
41.707809 135.764667 -43.563602 3
37.388771 131.925609 -44.519445 3
33.140328 128.154608 -45.457481 3
28.959433 124.456948 -46.376203 3
24.845150 120.801149 -47.284263 3
50.693218 138.134782 -37.764976 3
46.258963 134.715110 -38.644517 3
41.899868 130.927501 -39.630150 3
37.614341 127.136658 -40.617208 3
33.395941 123.478617 -41.566534 3
29.244169 119.873060 -42.501191 3
25.160449 116.260727 -43.438247 3
21.137066 112.741222 -44.348962 3
50.813161 133.692803 -33.709301 3
46.414763 129.872087 -34.750050 3
42.088738 126.175482 -35.753659 3
37.834353 122.486104 -36.755102 3
33.648890 118.845238 -37.742012 3
29.529441 115.266546 -38.710275 3
25.472246 111.768943 -39.654182 3
21.476725 108.317249 -40.584272 3
17.541782 104.899922 -41.504007 3
46.567990 125.120158 -30.909008 3
42.274941 121.487552 -31.937102 3
38.052818 117.851668 -32.965740 3
33.897401 114.296928 -33.968610 3
29.806303 110.808215 -34.950406 3
25.778544 107.357976 -35.919725 3
21.811229 103.960634 -36.872053 3
17.904695 100.584738 -37.817228 3
13.600524 102.154322 -37.211738 3
42.458083 116.883733 -28.171169 3
38.267950 113.289500 -29.229844 3
34.141411 109.836114 -30.241942 3
30.082303 106.354553 -31.262264 3
26.081045 103.000871 -32.240178 3
22.142149 99.649889 -33.216322 3
18.260755 96.351412 -34.174526 3
14.435540 93.095561 -35.118000 3
38.478123 108.851970 -25.526665 3
34.381934 105.439655 -26.566095 3
30.349766 102.052843 -27.595571 3
26.380894 98.679516 -28.619178 3
22.469422 95.385977 -29.614577 3
18.607562 92.229024 -30.562567 3
14.707610 90.101206 -31.161328 3
10.757192 88.810372 -31.474971 3
38.686412 104.444168 -21.884221 3
34.621011 101.059484 -22.954987 3
30.616777 97.748752 -23.998130 3
26.674284 94.455246 -25.033480 3
22.769018 91.500772 -25.948485 3
18.824912 89.672062 -26.467387 3
14.843822 88.570064 -26.729049 3
10.802900 88.192843 -26.733468 3
6.748607 87.927253 -26.695230 3
34.857707 96.718324 -19.399336 3
30.882377 93.460780 -20.462866 3
31.610862 15.524999 -48.565138 9
28.417033 13.727075 -49.118039 9
25.182156 12.811447 -49.348703 9
21.966922 11.826356 -49.601827 9
18.746237 11.029978 -49.783666 9
15.521714 10.351476 -49.919789 9
12.311514 9.609800 -50.075981 9
9.108669 8.866941 -50.229707 9
5.880827 8.342795 -50.300732 9
2.662908 7.763991 -50.388628 9
-0.556152 7.203976 -50.466584 9
-3.755544 6.537494 -50.580403 9
-6.984397 6.042773 -50.628240 9
-10.210035 5.523089 -50.682025 9
-13.431459 4.974330 -50.743270 9
-16.655904 4.430918 -50.799326 9
-19.883109 3.888100 -50.851905 9
-23.132814 3.425436 -50.871636 9
-26.374646 2.908567 -50.907974 9
-29.626325 2.409452 -50.934356 9
-32.891272 1.935993 -50.947790 9
-36.148688 1.409238 -50.977465 9
-39.423258 0.916694 -50.990929 9
-42.729320 0.499291 -50.972857 9
-46.423349 1.274210 -50.506969 9
51.575630 7.340491 -48.057461 9
48.399393 2.078926 -49.943754 9
45.267525 -0.252158 -50.734518 9
42.136417 -1.143258 -50.984747 9
38.992674 -1.347832 -50.975167 9
35.850935 -1.566277 -50.967417 9
32.711663 -1.808962 -50.965381 9
29.570958 -2.020075 -50.948132 9
26.429291 -2.224412 -50.924930 9
23.294413 -2.514249 -50.930413 9
20.153844 -2.748990 -50.911781 9
17.012799 -2.994984 -50.893925 9
13.874556 -3.280852 -50.887617 9
10.728418 -3.522315 -50.861092 9
7.591064 -3.848508 -50.863022 9
4.432523 -4.053204 -50.815540 9
1.288271 -4.377447 -50.809667 9
-1.869554 -4.645297 -50.778876 9
-5.032616 -4.914394 -50.744919 9
-8.196474 -5.210335 -50.717481 9
-11.361316 -5.531273 -50.695859 9
-14.530065 -5.863197 -50.674716 9
-17.723405 -6.117247 -50.620158 9
-20.913489 -6.422726 -50.581375 9
-24.106152 -6.752485 -50.548024 9
-27.317776 -7.043560 -50.495997 9
-30.526132 -7.384716 -50.459204 9
-33.755883 -7.685701 -50.403033 9
-36.989086 -8.014392 -50.353455 9
-40.223340 -8.378046 -50.313257 9
-43.524051 -8.568934 -50.202332 9
-47.150569 -7.816697 -49.722716 9
-51.585908 -4.794921 -48.359286 9
-58.534176 5.130277 -44.311387 9
58.143537 7.333646 -44.191366 9
54.834013 0.522965 -46.745995 9
51.662986 -3.944641 -48.396158 9
48.566429 -6.866900 -49.448256 9
45.501355 -8.485710 -49.994658 9
42.435865 -9.080970 -50.142574 9
39.364249 -9.288166 -50.136973 9
36.292035 -9.456513 -50.112689 9
33.220377 -9.633527 -50.088079 9
30.144845 -9.762477 -50.041136 9
27.072864 -9.958522 -50.016482 9
23.992665 -10.079137 -49.958803 9
20.920215 -10.307428 -49.939182 9
17.839334 -10.476930 -49.892932 9
14.760520 -10.691956 -49.860594 9
11.676132 -10.889667 -49.817688 9
8.587219 -11.085299 -49.770110 9
5.500806 -11.328499 -49.737227 9
2.395082 -11.482518 -49.665567 9
-0.702343 -11.723425 -49.623935 9
-3.809628 -11.942806 -49.569899 9
-6.922849 -12.167247 -49.513827 9
-10.046332 -12.378327 -49.448441 9
-13.169760 -12.628140 -49.394185 9
-16.304389 -12.865165 -49.330762 9
-19.446229 -13.110520 -49.266441 9
-22.595717 -13.364108 -49.201146 9
-25.742580 -13.666734 -49.150990 9
-28.915755 -13.909142 -49.072691 9
-32.102214 -14.146665 -48.988054 9
-35.296359 -14.401278 -48.905749 9
-38.494618 -14.685206 -48.830612 9
-41.704055 -14.975474 -48.753471 9
-45.035889 -14.935563 -48.539781 9
-48.743931 -13.854747 -47.904267 9
-53.195977 -10.790921 -46.466815 9
-58.435529 -5.815726 -44.251748 9
-80.394510 13.073183 -35.669293 8
-82.958776 10.030561 -36.639677 8
-86.049133 8.296799 -37.076675 8
-89.304717 6.955582 -37.350237 8
-92.641134 5.789959 -37.547867 8
-96.044904 4.755865 -37.687064 8
-99.489113 3.785697 -37.795116 8
-102.962065 2.849192 -37.884198 8
-107.646719 4.269097 -36.997217 8
61.283653 0.289768 -43.011945 9
58.013013 -4.111971 -44.698980 9
54.840971 -7.776307 -46.090121 9
51.744227 -10.905883 -47.265766 9
48.702446 -13.189313 -48.101478 9
45.686355 -14.500176 -48.546251 9
42.673084 -15.085990 -48.698185 9
39.651780 -15.239245 -48.673558 9
36.627776 -15.333245 -48.621262 9
33.605739 -15.482463 -48.587039 9
30.582926 -15.633492 -48.549529 9
27.557642 -15.772283 -48.503079 9
24.529904 -15.909513 -48.451938 9
21.501427 -16.068066 -48.405268 9
18.467117 -16.202567 -48.344824 9
15.435499 -16.392635 -48.302590 9
12.390943 -16.513718 -48.228426 9
9.348252 -16.687032 -48.171095 9
6.304794 -16.889074 -48.121142 9
3.249410 -17.050937 -48.050716 9
0.185363 -17.201849 -47.971549 9
-2.873256 -17.422318 -47.916203 9
-5.939808 -17.636876 -47.854123 9
-9.021375 -17.815570 -47.773087 9
-12.107456 -18.014519 -47.695816 9
-15.199124 -18.229114 -47.620416 9
-18.295064 -18.465502 -47.549367 9
-21.410020 -18.665014 -47.458689 9
-24.530450 -18.886406 -47.372295 9
-27.663493 -19.103543 -47.279455 9
-30.810165 -19.315855 -47.179866 9
-33.955463 -19.577043 -47.095524 9
-37.136106 -19.764605 -46.976026 9
-40.297310 -20.060788 -46.896305 9
-43.524934 -20.196282 -46.745262 9
-46.964250 -19.763421 -46.353758 9
-50.829843 -18.211141 -45.491946 9
-55.371920 -14.961150 -43.916902 9
-60.162133 -11.314722 -42.165940 9
-67.345553 -1.774059 -37.945308 8
-70.742196 -2.350670 -37.929785 8
-74.171272 -2.883240 -37.890352 8
-77.624527 -3.397108 -37.837433 8
-81.091009 -3.921108 -37.783005 8
-84.572445 -4.452653 -37.725903 8
-88.072771 -4.984666 -37.663055 8
-91.586384 -5.531064 -37.600241 8
-95.145356 -6.026604 -37.509710 8
-98.709441 -6.558208 -37.428155 8
-102.310786 -7.062214 -37.328419 8
-106.166602 -7.127124 -37.034419 8
-131.892577 9.842051 -28.338454 7
-134.581803 7.057468 -29.161316 7
-137.877538 5.324416 -29.524982 7
-141.370659 3.907745 -29.745715 7
-144.975422 2.648940 -29.891459 7
-148.706004 1.557881 -29.957139 7
107.876525 8.076459 -36.258317 5
103.931969 4.500143 -37.721463 5
100.624598 4.472258 -37.727347 5
97.321400 4.405306 -37.744563 5
94.030197 4.353359 -37.750993 5
90.744362 4.272276 -37.764728 5
87.470325 4.216481 -37.763497 5
84.201886 4.140032 -37.766127 5
80.936264 4.013167 -37.784832 5
77.677820 3.877648 -37.802519 5
74.429870 3.784667 -37.798208 5
71.182618 3.607752 -37.823765 5
67.943006 3.443505 -37.839594 5
64.392575 -4.401530 -41.004200 9
61.155953 -7.399545 -42.176395 9
57.971263 -10.941768 -43.568996 9
54.868005 -13.741037 -44.653246 9
51.822583 -16.320224 -45.643872 9
48.823296 -18.258780 -46.367693 9
45.847908 -19.466115 -46.786977 9
42.873643 -19.955146 -46.906494 9
39.891750 -20.066920 -46.866324 9
36.908720 -20.165473 -46.816393 9
33.928109 -20.324375 -46.787067 9
30.939093 -20.375896 -46.709029 9
27.957577 -20.560228 -46.681546 9
24.967194 -20.663161 -46.616008 9
21.978602 -20.818129 -46.567617 9
18.980800 -20.919396 -46.492525 9
15.979863 -21.034240 -46.418582 9
12.982977 -21.217340 -46.368512 9
9.977538 -21.371316 -46.301827 9
6.970146 -21.548361 -46.240204 9
3.947410 -21.667304 -46.149765 9
0.924385 -21.827192 -46.071762 9
-2.107084 -21.980980 -45.986533 9
-5.143113 -22.152464 -45.903988 9
-8.183529 -22.342850 -45.824612 9
-11.235829 -22.518217 -45.734140 9
-14.284159 -22.752307 -45.663504 9
-17.360722 -22.906580 -45.554406 9
-20.444164 -23.078689 -45.447828 9
-23.532137 -23.277961 -45.347681 9
-26.630436 -23.482565 -45.244717 9
-29.739798 -23.691789 -45.138575 9
-32.858996 -23.911690 -45.031769 9
-35.999511 -24.106186 -44.908903 9
-39.134954 -24.363021 -44.807221 9
-42.294764 -24.588994 -44.687013 9
-45.599758 -24.435987 -44.399308 9
-49.204635 -23.505379 -43.772381 9
-53.305755 -21.335494 -42.606086 9
-58.420590 -16.670107 -40.356987 9
-63.484346 -12.481693 -38.298968 9
-68.171018 -9.548158 -36.768703 8
-71.569835 -9.976145 -36.680602 8
-75.015928 -10.335756 -36.556678 8
-78.465502 -10.735217 -36.443653 8
-81.934634 -11.137591 -36.325438 8
-85.424842 -11.541481 -36.201314 8
-88.938366 -11.944167 -36.069968 8
-92.482630 -12.332590 -35.925539 8
-96.028645 -12.768138 -35.794836 8
-99.619436 -13.165254 -35.640158 8
-103.245944 -13.546186 -35.471062 8
-107.274133 -13.232932 -34.986912 8
-117.057919 -2.548496 -29.885570 7
-120.767569 -3.219719 -29.808523 7
-124.474229 -3.941906 -29.746651 7
-128.236106 -4.615103 -29.655201 7
-132.049379 -5.251068 -29.539093 7
-135.896890 -5.882202 -29.412600 7
-139.767841 -6.528089 -29.284365 7
-143.696463 -7.137045 -29.130809 7
-147.642310 -7.774887 -28.981509 7
109.723712 -1.402079 -36.071272 5
105.859161 -4.744701 -37.493973 5
102.567114 -5.142889 -37.667460 5
99.359709 -5.115485 -37.656165 5
96.158556 -5.103305 -37.646367 5
92.960077 -5.131448 -37.648690 5
89.771117 -5.149957 -37.642043 5
86.587074 -5.190737 -37.639924 5
83.408060 -5.253196 -37.642101 5
80.240635 -5.267524 -37.619072 5
77.072233 -5.359217 -37.623909 5
73.913584 -5.405136 -37.604548 5
70.755978 -5.512042 -37.606161 5
67.606010 -5.577475 -37.585397 5
64.357659 -8.101066 -38.600986 9
61.101383 -12.608992 -40.453552 9
57.971341 -15.607222 -41.663111 9
54.904511 -18.559673 -42.849830 9
51.899078 -20.793458 -43.728219 9
48.934683 -22.558117 -44.403829 9
45.991842 -23.638881 -44.785104 9
43.049854 -24.070771 -44.886411 9
40.101597 -24.184696 -44.848007 9
37.154978 -24.337834 -44.821693 9
34.202914 -24.405197 -44.754219 9
31.252634 -24.532015 -44.707423 9
28.299859 -24.651133 -44.652674 9
25.340693 -24.729523 -44.575824 9
22.381851 -24.850174 -44.512291 9
19.423261 -25.006043 -44.459079 9
16.452789 -25.095445 -44.372621 9
13.485757 -25.251987 -44.310115 9
10.508325 -25.370075 -44.226262 9
7.531169 -25.529873 -44.155437 9
4.545306 -25.673220 -44.072621 9
1.549241 -25.798132 -43.976889 9
-1.453355 -25.930641 -43.879397 9
-4.460105 -26.084715 -43.786145 9
-7.470276 -26.263604 -43.698520 9
-10.497337 -26.405449 -43.589709 9
-13.524130 -26.592589 -43.495314 9
-16.564768 -26.763333 -43.388552 9
-19.604524 -26.980735 -43.296772 9
-22.674361 -27.124216 -43.167437 9
-25.747791 -27.301566 -43.047390 9
-28.825107 -27.510321 -42.935552 9
-31.920040 -27.703171 -42.811190 9
-35.027302 -27.901367 -42.683516 9
-38.138403 -28.133234 -42.564914 9
-41.276340 -28.328157 -42.424277 9
-44.490229 -28.348736 -42.200795 9
-48.089701 -27.339983 -41.515927 9
-52.218957 -25.008058 -40.236699 9
-56.558189 -22.326201 -38.791374 9
-61.642800 -17.954606 -36.582747 9
-66.336815 -14.879370 -34.936763 8
-69.706182 -15.254228 -34.818849 8
-73.125260 -15.557411 -34.662177 8
-76.559577 -15.875859 -34.505424 8
-79.992723 -16.247004 -34.365343 8
-83.472838 -16.564567 -34.194054 8
-86.961335 -16.916235 -34.030877 8
-90.488858 -17.238611 -33.847056 8
-94.018607 -17.609713 -33.677782 8
-97.592146 -17.946966 -33.485462 8
-101.181956 -18.307382 -33.295848 8
-104.821921 -18.628546 -33.080280 8
-109.570307 -16.997920 -31.960272 8
-117.488344 -9.909793 -28.313709 7
-121.260973 -10.389002 -28.133234 7
-125.041398 -10.909451 -27.963146 7
-128.899024 -11.356072 -27.749957 7
-132.755462 -11.862462 -27.555402 7
-136.676336 -12.323485 -27.330372 7
-140.610215 -12.823701 -27.114097 7
-144.597121 -13.302543 -26.878016 7
-148.610499 -13.802912 -26.642037 7
148.044515 1.987167 -29.926675 6
144.624832 2.207604 -29.910977 6
141.221209 2.434385 -29.886574 6
137.821257 2.626211 -29.871569 6
134.433586 2.814197 -29.852393 6
131.047006 2.956778 -29.847238 6
127.674826 3.105788 -29.833501 6
124.310633 3.237733 -29.821474 6
120.950577 3.336055 -29.818411 6
117.602137 3.434649 -29.809556 6
112.825311 -3.678042 -32.938851 5
108.412764 -9.732095 -35.600044 5
104.958983 -11.193663 -36.253583 5
101.784179 -11.237617 -36.283908 5
98.623025 -11.261744 -36.300319 5
95.477252 -11.245379 -36.293837 5
92.337528 -11.242938 -36.288195 5
89.203007 -11.259486 -36.285621 5
86.075631 -11.277762 -36.278608 5
82.954474 -11.301015 -36.268587 5
79.837201 -11.349006 -36.264187 5
76.727284 -11.381960 -36.248079 5
73.620642 -11.440649 -36.238050 5
70.520049 -11.483789 -36.216102 5
67.422462 -11.548416 -36.198396 5
64.256595 -13.331275 -36.925916 9
61.119223 -15.445355 -37.793661 9
57.984603 -19.552354 -39.528244 9
54.950130 -22.357549 -40.690253 9
51.974425 -24.381839 -41.506876 9
49.039032 -26.280043 -42.264331 9
46.124009 -27.285086 -42.626554 9
43.211190 -27.730479 -42.739046 9
40.291777 -27.840891 -42.699878 9
37.371702 -27.946601 -42.653722 9
34.449883 -28.041810 -42.598006 9
31.526200 -28.137469 -42.537510 9
28.596487 -28.189982 -42.453022 9
25.669835 -28.317939 -42.396702 9
22.738110 -28.425551 -42.326375 9
19.802239 -28.531742 -42.250335 9
16.859953 -28.623418 -42.162759 9
13.917731 -28.756430 -42.088292 9
10.968752 -28.879082 -42.004062 9
8.015714 -29.014649 -41.920329 9
5.056027 -29.148826 -41.830719 9
2.095108 -29.315884 -41.750412 9
-0.880511 -29.441972 -41.646553 9
-3.856178 -29.610561 -41.556208 9
-6.853386 -29.715675 -41.432115 9
-9.863435 -29.809055 -41.297215 9
-12.892987 -29.866434 -41.140562 9
-15.953383 -29.848693 -40.944484 9
-19.000706 -29.941667 -40.792157 9
-22.080420 -29.962256 -40.601427 9
-25.174626 -29.986755 -40.406408 9
-28.272293 -30.055761 -40.225333 9
-31.385005 -30.127881 -40.039513 9
-34.525830 -30.162951 -39.830685 9
-37.672276 -30.237495 -39.633360 9
-40.847440 -30.280256 -39.415166 9
-44.055198 -30.285483 -39.173297 9
-47.392849 -29.985118 -38.785286 9
-51.502624 -27.659148 -37.464126 9
-55.702508 -25.300909 -36.116745 9
-59.873119 -23.223119 -34.886258 9
-64.250365 -20.818140 -33.493718 9
-68.265277 -19.491950 -32.585897 8
-71.630539 -19.830643 -32.436645 8
-75.043899 -20.107150 -32.251315 8
-78.480573 -20.383675 -32.058442 8
-81.935001 -20.674400 -31.864481 8
-85.411134 -20.972071 -31.665947 8
-88.914221 -21.267567 -31.458442 8
-92.412679 -21.626244 -31.272444 8
-95.979097 -21.904308 -31.040413 8
-99.568702 -22.194819 -30.805742 8
-103.155645 -22.546924 -30.591533 8
-107.027657 -22.438551 -30.150294 8
-116.898112 -11.826725 -24.703821 7
-118.997679 -15.170804 -25.873802 7
-122.800093 -15.571172 -25.634403 7
-126.619777 -16.001306 -25.399616 7
-130.506704 -16.381163 -25.130805 7
-134.433744 -16.759036 -24.850827 7
-138.359026 -17.201754 -24.591808 7
-142.315210 -17.658362 -24.329024 7
-146.389927 -18.001478 -24.000110 7
149.261030 -6.392740 -29.319580 6
145.890324 -6.224202 -29.340169 6
142.524828 -6.091203 -29.370463 6
139.177774 -5.949135 -29.390381 6
135.830446 -5.861654 -29.428673 6
132.510502 -5.728562 -29.440224 6
129.195016 -5.630909 -29.461608 6
125.887642 -5.555387 -29.486862 6
122.596220 -5.468232 -29.500834 6
119.312171 -5.403052 -29.518686 6
116.635002 -2.521732 -28.264596 5
111.480919 -11.749567 -32.447409 5
107.641873 -15.153936 -34.005821 5
104.333883 -16.060524 -34.435827 5
101.208435 -16.058580 -34.451974 5
98.096692 -16.029917 -34.450518 5
94.987448 -16.040436 -34.461087 5
91.892757 -16.006259 -34.446030 5
88.799485 -16.015232 -34.444821 5
85.715561 -16.005039 -34.429490 5
82.628632 -16.081481 -34.447578 5
79.555878 -16.085110 -34.427475 5
76.486418 -16.110650 -34.411742 5
73.420277 -16.158691 -34.400661 5
70.360867 -16.176686 -34.370617 5
67.302339 -16.245970 -34.358186 5
64.179267 -17.931382 -35.067521 9
61.084351 -19.894832 -35.897178 9
58.023232 -22.247260 -36.897376 9
55.014107 -24.394509 -37.800761 9
52.049794 -26.550685 -38.703828 9
49.121673 -27.844111 -39.213489 9
46.232686 -29.800376 -40.017724 9
43.333094 -30.117130 -40.077292 9
40.426220 -30.145614 -40.001456 9
37.516863 -30.166818 -39.917016 9
34.602863 -30.158836 -39.814023 9
31.690162 -30.224890 -39.739180 9
28.768688 -30.221883 -39.627655 9
25.845421 -30.254543 -39.526863 9
22.917523 -30.290322 -39.422025 9
19.981934 -30.306762 -39.302896 9
17.042016 -30.340585 -39.186122 9
14.096245 -30.380942 -39.066739 9
11.136472 -30.374690 -38.920466 9
8.178351 -30.435392 -38.799048 9
5.206493 -30.461863 -38.656268 9
2.225171 -30.487876 -38.507476 9
-0.755097 -30.572710 -38.379790 9
-3.757180 -30.595320 -38.217683 9
-6.774604 -30.599239 -38.040987 9
-9.791051 -30.664094 -37.886255 9
-12.819996 -30.726117 -37.724134 9
-15.865836 -30.770401 -37.547660 9
-18.934523 -30.778559 -37.348211 9
-21.991411 -30.888553 -37.189538 9
-25.040833 -31.075017 -37.060015 9
-28.100960 -31.268286 -36.927357 9
-31.177568 -31.450674 -36.783258 9
-34.265638 -31.641942 -36.636822 9
-37.360477 -31.858099 -36.495460 9
-40.489520 -32.016418 -36.320402 9
-43.604130 -32.266244 -36.181465 9
-46.918805 -31.998170 -35.792272 9
-50.481548 -31.133225 -35.113996 9
-54.445391 -29.326123 -33.981660 9
-58.546498 -27.339875 -32.753186 9
-62.757612 -25.261546 -31.469003 9
-67.060920 -23.145718 -30.154435 8
-70.425944 -23.410416 -29.961072 8
-73.818591 -23.663411 -29.754242 8
-77.203172 -23.986789 -29.573054 8
-80.621716 -24.286576 -29.372503 8
-84.070451 -24.574669 -29.158073 8
-87.544237 -24.864620 -28.936091 8
-91.032991 -25.178513 -28.717079 8
-96.199340 -22.291395 -26.936457 8
-98.091433 -25.811389 -28.255160 8
-101.678604 -26.102121 -27.998108 8
-105.283010 -26.418796 -27.744379 8
-109.462747 -25.780246 -27.012299 8
-116.959615 -19.546681 -23.512954 8
-121.229590 -19.088899 -22.835869 7
-125.076214 -19.421857 -22.537634 7
-128.936572 -19.794499 -22.248412 7
-132.866458 -20.119120 -21.924391 7
-136.844333 -20.434258 -21.584344 7
-140.848966 -20.774766 -21.245440 7
-144.925970 -21.074602 -20.874222 7
147.930853 -11.748581 -27.580571 6
144.592101 -11.634120 -27.634441 6
141.262030 -11.546903 -27.694253 6
137.966540 -11.397731 -27.718593 6
134.656844 -11.351807 -27.784313 6
131.375955 -11.257948 -27.821208 6
128.115328 -11.140325 -27.840588 6
124.849853 -11.095219 -27.887174 6
121.613859 -10.982894 -27.896198 6
118.378992 -10.917338 -27.920562 6
115.496523 -9.246810 -27.195239 5
110.770980 -16.611796 -30.647875 5
107.078222 -19.452810 -31.998251 5
103.870137 -19.999128 -32.279962 5
100.777488 -19.992294 -32.299638 5
97.696187 -19.972786 -32.307510 5
94.621698 -19.964117 -32.314485 5
91.556363 -19.947047 -32.311687 5
88.496552 -19.943072 -32.309083 5
85.439513 -19.974010 -32.316785 5
82.392598 -19.974769 -32.304698 5
79.346500 -20.026574 -32.310419 5
76.311828 -20.015815 -32.281389 5
73.279768 -20.026469 -32.256475 5
70.248207 -20.092632 -32.251480 5
67.221550 -20.152873 -32.237974 5
64.131376 -21.785681 -32.947383 9
61.067108 -23.732096 -33.796976 9
58.050970 -25.399045 -34.511995 9
55.069161 -27.171376 -35.270922 9
52.124589 -28.863586 -35.987809 9
49.211417 -30.180076 -36.525383 9
46.314054 -30.955310 -36.806474 9
43.418867 -31.317724 -36.890380 9
40.519752 -31.449433 -36.861481 9
37.617709 -31.522880 -36.799849 9
34.713478 -31.589228 -36.729249 9
31.807478 -31.665474 -36.657574 9
28.898238 -31.737111 -36.578034 9
25.988885 -31.845631 -36.509981 9
23.074326 -31.936320 -36.427835 9
20.156792 -32.038859 -36.345435 9
17.234956 -32.144408 -36.258613 9
14.308280 -32.252713 -36.167214 9
11.377321 -32.371165 -36.074668 9
8.441126 -32.495504 -35.978942 9
5.499635 -32.627936 -35.881033 9
2.549733 -32.753006 -35.773615 9
-0.405868 -32.889667 -35.665568 9
-3.378571 -32.982118 -35.530472 9
-6.348360 -33.135346 -35.417881 9
-9.331328 -33.270673 -35.290549 9
-12.321696 -33.418338 -35.162727 9
-15.317629 -33.586968 -35.038474 9
-18.331584 -33.727556 -34.894414 9
-21.361640 -33.853442 -34.736768 9
-24.388924 -34.037169 -34.600090 9
-27.430010 -34.216903 -34.454827 9
-30.483204 -34.401179 -34.304976 9
-33.554325 -34.573133 -34.142348 9
-36.625925 -34.790592 -33.994656 9
-39.727159 -34.963736 -33.818591 9
-42.876413 -35.045992 -33.591405 9
-46.091560 -34.998414 -33.293846 9
-49.564126 -34.315950 -32.680212 9
-53.353441 -32.904156 -31.702397 9
-57.345799 -31.122128 -30.532912 9
-61.532151 -29.028487 -29.198888 9
-65.933145 -26.604315 -27.689664 8
-69.258950 -26.891486 -27.497381 8
-72.658776 -27.060159 -27.238501 8
-76.029222 -27.350346 -27.030873 8
-79.430236 -27.625757 -26.807360 8
-82.848671 -27.917190 -26.583013 8
-86.308096 -28.177555 -26.334300 8
-91.244584 -25.561896 -24.641860 8
-93.250278 -28.815564 -25.867807 8
-96.777886 -29.107096 -25.606776 8
-100.332546 -29.404502 -25.339018 8
-103.909655 -29.717813 -25.069408 8
-110.665883 -24.512899 -21.996172 8
-113.464265 -26.401289 -22.497268 8
-120.078860 -21.892835 -19.733609 7
-123.944966 -22.157386 -19.382629 7
-127.817709 -22.475811 -19.047702 7
-131.772746 -22.728751 -18.667393 7
-135.765353 -22.991246 -18.279811 7
-139.783296 -23.283415 -17.895123 7
-143.864682 -23.550152 -17.484502 7
-148.027019 -23.770595 -17.036563 7
146.968294 -15.939770 -25.388993 6
143.658940 -15.845715 -25.461730 6
140.375388 -15.723161 -25.513682 6
137.090247 -15.660371 -25.587208 6
133.836794 -15.542512 -25.627380 6
130.581843 -15.483635 -25.688847 6
127.350604 -15.390301 -25.726970 6
124.121398 -15.342972 -25.780266 6
120.913440 -15.263177 -25.811297 6
117.712098 -15.208214 -25.847476 6
114.620448 -14.694906 -25.658386 5
110.591836 -18.820077 -27.674402 5
106.985082 -21.269116 -28.883712 5
103.611438 -22.780567 -29.639179 5
100.532632 -22.808374 -29.681135 5
97.471777 -22.786706 -29.693218 5
94.403944 -22.868205 -29.748169 5
91.362917 -22.827289 -29.738572 5
88.324362 -22.819298 -29.738440 5
85.290943 -22.825001 -29.738636 5
82.260962 -22.858543 -29.745915 5
79.240863 -22.855330 -29.729529 5
76.220997 -22.907703 -29.733477 5
73.213108 -22.873708 -29.690143 5
70.206324 -22.870781 -29.655479 5
67.202111 -22.878552 -29.619786 5
64.101184 -25.186378 -30.674888 9
61.070611 -26.882852 -31.433023 9
58.078363 -28.514886 -32.154999 9
55.120600 -30.184318 -32.889503 9
52.198109 -31.743460 -33.566098 9
49.304927 -32.980141 -34.083365 9
46.428201 -33.783537 -34.388101 9
43.456084 -30.896421 -32.920980 9
40.673779 -34.247345 -34.433687 9
37.791378 -34.307872 -34.365563 9
34.909204 -34.404672 -34.308845 9
32.021752 -34.453419 -34.223063 9
29.137580 -34.583320 -34.170212 9
26.239678 -34.590271 -34.052203 9
23.344218 -34.673653 -33.964816 9
20.446983 -34.780504 -33.882597 9
17.541892 -34.860899 -33.781454 9
14.638017 -34.992489 -33.698803 9
11.726727 -35.109149 -33.602709 9
8.809133 -35.224909 -33.499891 9
5.885922 -35.347711 -33.394142 9
2.947692 -35.427061 -33.260915 9
0.011909 -35.566073 -33.150173 9
-2.932403 -35.703369 -33.032104 9
-5.885649 -35.840340 -32.907317 9
-8.853382 -35.954952 -32.764988 9
-11.817294 -36.131836 -32.646361 9
-14.797017 -36.284803 -32.509307 9
-17.792573 -36.419535 -32.356477 9
-20.802004 -36.548282 -32.193758 9
-23.823162 -36.682052 -32.026463 9
-26.849294 -36.846151 -31.866986 9
-29.889950 -37.007736 -31.699091 9
-32.939926 -37.186178 -31.532255 9
-36.003329 -37.369284 -31.360379 9
-39.088281 -37.534576 -31.172199 9
-42.184969 -37.714469 -30.983686 9
-45.374545 -37.682866 -30.681983 9
-48.792504 -37.095444 -30.094153 9
-52.471436 -35.920946 -29.202532 9
-56.448345 -34.121508 -27.985882 9
-60.491065 -32.328776 -26.759656 9
-64.641697 -30.444833 -25.474134 9
-69.536168 -27.001005 -23.385791 8
-71.594038 -30.231771 -24.663664 8
-74.970477 -30.450449 -24.409016 8
-78.380585 -30.651341 -24.136076 8
-81.774581 -30.941809 -23.899457 8
-85.202289 -31.215901 -23.645048 8
-88.627742 -31.548173 -23.410904 8
-92.126270 -31.791094 -23.121039 8
-95.621838 -32.096446 -22.853311 8
-99.153226 -32.390691 -22.569657 8
-102.703143 -32.707761 -22.287453 8
-106.471684 -32.698402 -21.824320 8
-111.134603 -31.234146 -20.587555 8
-118.112635 -26.049474 -17.379213 8
-123.099742 -24.420037 -16.013623 7
-127.037675 -24.611021 -15.591758 7
-130.998408 -24.835084 -15.174622 7
-135.011965 -25.046818 -14.737887 7
-139.065997 -25.267924 -14.292747 7
-144.884822 -22.989420 -12.492247 7
-147.363659 -25.648770 -13.327833 7
146.409655 -18.869057 -22.647608 6
143.124763 -18.765747 -22.725550 6
139.859999 -18.651988 -22.790796 6
136.566822 -18.690308 -22.923552 6
133.326950 -18.604668 -22.987760 6
130.091844 -18.557017 -23.063342 6
126.879195 -18.480753 -23.117569 6
123.666598 -18.459693 -23.191736 6
120.476262 -18.404329 -23.241880 6
117.450917 -17.672047 -22.952502 6
113.990295 -18.959770 -23.647959 5
110.122605 -22.449917 -25.416592 5
106.660559 -24.285602 -26.365558 5
103.523341 -24.610790 -26.566469 5
100.460834 -24.599114 -26.595423 5
97.406668 -24.593090 -26.620465 5
94.770262 -21.849171 -25.297078 5
91.709313 -21.802492 -25.289070 5
88.648624 -21.805587 -25.298797 5
85.596345 -21.797164 -25.296248 5
82.248947 -24.607668 -26.668385 5
79.234470 -24.638017 -26.671743 5
76.228893 -24.630990 -26.650270 5
73.225718 -24.649069 -26.634600 5
70.224709 -24.698737 -26.627924 5
67.230039 -24.710103 -26.595986 5
64.086885 -28.187565 -28.258006 9
61.080999 -29.788476 -28.993812 9
58.111909 -31.309952 -29.684842 9
55.175769 -32.812659 -30.360942 9
52.271258 -34.378283 -31.062336 9
49.396137 -35.593510 -31.585934 9
46.536535 -36.340817 -31.873697 9
43.679097 -36.685451 -31.957370 9
40.813888 -36.709867 -31.877193 9
37.948830 -36.779862 -31.813161 9
35.079958 -36.816816 -31.726507 9
32.212944 -36.922211 -31.667275 9
29.339558 -36.977048 -31.576706 9
26.468310 -37.096308 -31.511578 9
23.587039 -37.148598 -31.406885 9
20.711026 -37.291468 -31.340580 9
17.822994 -37.368258 -31.235026 9
14.934076 -37.481075 -31.140793 9
12.034591 -37.559993 -31.023116 9
9.137446 -37.698037 -30.928203 9
6.224779 -37.781081 -30.799206 9
3.311176 -37.904225 -30.683439 9
0.380442 -37.978458 -30.536419 9
-2.558454 -38.059691 -30.385969 9
-5.501769 -38.167641 -30.241914 9
-8.445914 -38.317451 -30.111842 9
-11.409787 -38.425041 -29.953489 9
-14.381160 -38.548925 -29.796149 9
-17.365791 -38.667126 -29.628684 9
-20.352122 -38.826305 -29.474574 9
-23.349864 -38.989094 -29.314912 9
-26.363906 -39.140630 -29.142076 9
-29.399937 -39.265681 -28.948192 9
-32.423193 -39.480945 -28.792490 9
-35.481399 -39.631645 -28.596172 9
-38.561547 -39.765554 -28.383347 9
-41.653406 -39.916138 -28.170980 9
-44.803064 -39.955475 -27.893329 9
-48.119489 -39.602224 -27.405126 9
-51.733641 -38.552777 -26.548280 9
-55.658815 -36.839499 -25.336812 9
-59.707490 -34.986110 -24.039335 9
-63.780762 -33.244615 -22.785851 9
-68.616652 -29.896032 -20.681349 8
-70.748435 -32.900211 -21.874350 8
-74.117915 -33.089671 -21.592121 8
-77.488873 -33.331572 -21.327618 8
-80.890034 -33.564233 -21.048413 8
-84.319829 -33.793713 -20.757464 8
-87.771542 -34.035675 -20.462838 8
-91.231742 -34.317187 -20.178750 8
-94.736776 -34.569323 -19.868462 8
-98.278909 -34.810554 -19.541467 8
-103.355215 -32.370896 -17.766698 8
-105.454119 -35.307530 -18.861538 8
-109.739279 -34.457170 -17.911492 8
-116.845645 -29.028226 -14.467314 8
-122.613444 -26.095904 -12.345443 7
-126.535935 -26.301468 -11.908782 7
-130.534445 -26.456982 -11.431237 7
-134.566800 -26.632263 -10.950492 7
-138.667191 -26.777836 -10.439033 7
-142.792448 -26.960890 -9.933464 7
-147.025902 -27.063310 -9.368013 7
145.846154 -21.802382 -19.945829 6
142.583779 -21.696530 -20.032070 6
139.330686 -21.615626 -20.123023 6
136.096580 -21.526687 -20.202010 6
132.875522 -21.447041 -20.277905 6
129.670428 -21.364191 -20.344445 6
126.477081 -21.291064 -20.408249 6
123.296071 -21.223573 -20.467309 6
120.126932 -21.161360 -20.521502 6
118.140731 -15.920596 -17.951994 6
113.577891 -22.188196 -21.188856 5
109.749977 -25.587885 -22.967890 5
106.380263 -27.059861 -23.765675 5
103.286975 -27.251170 -23.909849 5
100.242981 -27.238545 -23.944042 5
97.202335 -27.262412 -23.989585 5
94.180691 -27.221999 -23.995712 5
91.169731 -27.157517 -23.982738 5
88.154006 -27.178003 -24.005635 5
85.146811 -27.188579 -24.016614 5
82.147485 -27.186614 -24.014371 5
79.154316 -27.179225 -24.002514 5
76.164714 -27.187257 -23.991562 5
73.175008 -27.257555 -24.005142 5
70.194955 -27.261312 -23.978345 5
67.217803 -27.272422 -23.948419 5
64.092541 -30.708519 -25.639318 9
61.107107 -32.194148 -26.340370 9
58.153956 -33.697045 -27.043971 9
55.232843 -35.232058 -27.757731 9
52.344375 -36.704704 -28.434035 9
49.482833 -37.744701 -28.885734 9
46.638264 -38.576219 -29.225928 9
43.795606 -38.932229 -29.319315 9
40.950086 -39.082274 -29.301963 9
38.100930 -39.150848 -29.236745 9
35.250305 -39.224841 -29.167621 9
32.394074 -39.252355 -29.068222 9
29.539389 -39.345112 -28.995223 9
26.677358 -39.391564 -28.891942 9
23.815111 -39.480359 -28.803406 9
20.939006 -39.485595 -28.665473 9
18.066136 -39.570125 -28.561043 9
15.189196 -39.665856 -28.455419 9
12.302585 -39.736236 -28.329879 9
9.406479 -39.791478 -28.189549 9
6.515907 -39.927605 -28.083561 9
3.611241 -40.023733 -27.949964 9
0.696834 -40.112976 -27.805631 9
-2.223963 -40.216341 -27.661288 9
-5.145600 -40.360915 -27.530856 9
-8.086254 -40.461912 -27.370579 9
-11.033374 -40.582039 -27.212698 9
-13.990965 -40.705091 -27.048780 9
-16.957043 -40.841114 -26.883955 9
-19.921814 -41.027717 -26.737710 9
-22.922628 -41.127199 -26.538393 9
-25.943755 -41.206492 -26.320566 9
-28.946722 -41.398026 -26.153270 9
-31.979445 -41.538674 -25.951309 9
-35.028891 -41.676364 -25.739559 9
-38.103123 -41.789712 -25.506640 9
-41.178073 -41.952677 -25.291315 9
-44.314193 -41.994470 -25.003425 9
-47.585292 -41.730147 -24.544509 9
-51.150465 -40.775518 -23.709466 9
-55.021722 -39.165756 -22.514187 9
-59.027580 -37.383216 -21.212973 9
-63.095282 -35.619767 -19.907310 9
-66.734615 -35.012033 -19.205869 8
-70.017785 -35.304068 -18.975647 8
-73.366629 -35.501454 -18.684636 8
-76.747702 -35.685164 -18.375966 8
-80.132762 -35.917013 -18.082850 8
-83.556308 -36.125788 -17.766616 8
-87.016880 -36.318301 -17.430644 8
-90.499131 -36.527406 -17.092579 8
-94.002658 -36.754835 -16.753212 8
-97.579554 -36.906435 -16.360608 8
-101.104353 -37.213257 -16.041584 8
-104.719629 -37.418748 -15.654690 8
-108.835402 -36.836552 -14.817835 8
-115.501432 -32.126834 -11.664497 8
-122.375295 -27.370030 -8.452200 7
-126.304484 -27.564216 -7.985662 7
-130.396929 -27.574407 -7.401126 7
-134.469924 -27.691720 -6.861720 7
-138.570091 -27.842811 -6.326084 7
-142.748013 -27.954933 -5.752558 7
-146.974948 -28.073957 -5.166704 7
145.475354 -24.138109 -16.968666 6
142.220563 -24.055493 -17.076874 6
138.972861 -24.006653 -17.194311 6
135.758734 -23.902686 -17.274639 6
132.548321 -23.839783 -17.368165 6
129.348341 -23.795457 -17.463205 6
126.170898 -23.722668 -17.535333 6
123.009673 -23.639934 -17.594289 6
119.857746 -23.571840 -17.652929 6
118.126234 -17.301857 -14.481991 6
113.262294 -24.954031 -18.534998 5
109.528406 -27.975269 -20.173043 5
106.197044 -29.323226 -20.934086 5
103.111149 -29.551383 -21.106394 5
100.079464 -29.552847 -21.153641 5
97.065045 -29.506455 -21.168666 5
94.052224 -29.501450 -21.197763 5
91.047855 -29.493888 -21.218189 5
88.052677 -29.472475 -21.224126 5
85.055226 -29.524674 -21.260905 5
82.071991 -29.513972 -21.257843 5
79.092052 -29.525373 -21.258988 5
76.122434 -29.479011 -21.222992 5
73.151426 -29.496299 -21.212755 5
70.183513 -29.530491 -21.204081 5
67.220701 -29.543857 -21.177429 5
64.112103 -32.898914 -22.875981 9
61.140064 -34.378654 -23.595977 9
58.199826 -35.895247 -24.328568 9
55.292932 -37.372237 -25.034204 9
52.417652 -38.758015 -25.686163 9
49.569496 -39.929854 -26.220710 9
46.737236 -40.682063 -26.530817 9
43.906476 -40.996586 -26.606750 9
41.072519 -41.117125 -26.574932 9
38.235689 -41.183104 -26.507761 9
35.397556 -41.257921 -26.438200 9
32.551761 -41.257206 -26.322210 9
29.708325 -41.338766 -26.242059 9
26.859214 -41.394421 -26.141282 9
24.008271 -41.474854 -26.046317 9
21.151839 -41.546366 -25.939507 9
18.288350 -41.603486 -25.817923 9
15.425836 -41.713162 -25.716627 9
12.559361 -41.834315 -25.614073 9
9.673584 -41.871045 -25.459768 9
6.793600 -41.992404 -25.342544 9
3.899133 -42.073358 -25.196549 9
1.005978 -42.207256 -25.070939 9
-1.912572 -42.255815 -24.892606 9
-4.831898 -42.351433 -24.731417 9
-7.764149 -42.435650 -24.556381 9
-10.705378 -42.529789 -24.378715 9
-13.659925 -42.617579 -24.189689 9
-16.618867 -42.737315 -24.009612 9
-19.605619 -42.800172 -23.791017 9
-22.573794 -42.981764 -23.627627 9
-25.571292 -43.105805 -23.425155 9
-28.586656 -43.219168 -23.208497 9
-31.611204 -43.353117 -22.994328 9
-34.631707 -43.548489 -22.804622 9
-37.694496 -43.663648 -22.562891 9
-40.769491 -43.795247 -22.321085 9
-43.877406 -43.886450 -22.048259 9
-47.151655 -43.584994 -21.552399 9
-50.647464 -42.786180 -20.774715 9
-54.513297 -41.163429 -19.534433 9
-58.524923 -39.342140 -18.170759 9
-62.539430 -37.682709 -16.880557 9
-66.163211 -37.083436 -16.159112 8
-69.493403 -37.240744 -15.842985 8
-72.880069 -37.331138 -15.479078 8
-76.255898 -37.505151 -15.150504 8
-79.639593 -37.719743 -14.833452 8
-83.059588 -37.916703 -14.495364 8
-86.519394 -38.092685 -14.134043 8
-90.018638 -38.252194 -13.751668 8
-93.542018 -38.427216 -13.365937 8
-97.097618 -38.604166 -12.968976 8
-100.673128 -38.807009 -12.574122 8
-104.291801 -38.995885 -12.158527 8
-108.237235 -38.694356 -11.449414 8
-114.712704 -34.298935 -8.375931 8
-122.424906 -28.182514 -4.278420 7
-126.447140 -28.239825 -3.707843 7
-130.545631 -28.254495 -3.096815 7
-134.650395 -28.337508 -2.509278 7
-138.829371 -28.386893 -1.885638 7
-143.070092 -28.425528 -1.238643 7
-147.387607 -28.435647 -0.557267 7
145.226431 -26.098711 -13.808939 6
141.973292 -26.044325 -13.942701 6
138.738391 -25.989432 -14.067307 6
135.529608 -25.904534 -14.167035 6
132.339164 -25.810625 -14.253276 6
129.160632 -25.727312 -14.336626 6
125.980724 -25.703881 -14.443523 6
122.809691 -25.704396 -14.554760 6
119.665236 -25.655056 -14.630965 6
116.695025 -24.897886 -14.320963 5
113.053529 -27.217503 -15.644952 5
109.356329 -30.115499 -17.267924 5
106.622541 -28.460662 -16.454348 5
102.985261 -31.574034 -18.174368 5
99.962963 -31.589173 -18.234913 5
96.960621 -31.542056 -18.254497 5
93.960500 -31.531987 -18.286057 5
90.968813 -31.518812 -18.308244 5
87.982716 -31.518707 -18.329701 5
85.001217 -31.538207 -18.353934 5
82.029818 -31.526714 -18.354043 5
79.066181 -31.491611 -18.333981 5
76.100144 -31.533424 -18.347262 5
73.146734 -31.480444 -18.302522 5
70.187394 -31.558258 -18.319835 5
67.236182 -31.577838 -18.298606 5
64.142207 -34.843387 -19.998533 9
61.182420 -36.275647 -20.715351 9
58.254794 -37.691278 -21.416404 9
55.357110 -39.172989 -22.145886 9
52.491132 -40.618923 -22.849621 9
49.652684 -41.723563 -23.364637 9
46.831086 -42.526490 -23.711858 9
44.010090 -42.819530 -23.779822 9
41.184523 -42.894124 -23.723846 9
38.357245 -42.956106 -23.653807 9
35.525759 -42.980687 -23.556387 9
32.694016 -43.047654 -23.474267 9
29.857484 -43.092670 -23.372957 9
27.016573 -43.133993 -23.262188 9
24.174188 -43.206463 -23.160634 9
21.326120 -43.269770 -23.046613 9
18.474717 -43.349799 -22.933998 9
15.617896 -43.431699 -22.814761 9
12.755760 -43.519897 -22.691235 9
9.883321 -43.585364 -22.547684 9
7.010096 -43.692629 -22.418916 9
4.111942 -43.703064 -22.229826 9
1.227309 -43.838584 -22.100552 9
-1.671767 -43.943129 -21.946491 9
-4.590586 -43.999621 -21.758191 9
-7.500488 -44.146339 -21.610830 9
-10.442538 -44.198353 -21.403569 9
-13.383640 -44.305914 -21.218240 9
-16.333777 -44.425628 -21.031120 9
-19.307338 -44.504969 -20.813307 9
-22.284047 -44.623853 -20.608516 9
-25.274283 -44.744501 -20.395938 9
-28.286521 -44.841154 -20.161239 9
-31.305831 -44.966358 -19.933279 9
-34.360163 -45.033662 -19.664099 9
-37.405721 -45.181125 -19.430052 9
-40.488556 -45.271170 -19.154685 9
-44.668772 -42.377508 -17.204594 9
-46.796542 -45.228056 -18.450004 9
-50.283135 -44.434721 -17.649593 9
-54.120966 -42.866892 -16.401237 9
-58.152326 -40.981741 -14.958963 9
-62.255153 -39.099727 -13.502034 9
-65.790601 -38.694837 -12.865025 8
-69.101961 -38.878338 -12.549502 8
-72.471236 -38.990662 -12.182277 8
-75.850860 -39.140476 -11.824861 8
-79.255244 -39.297340 -11.459764 8
-84.120859 -36.579717 -9.430786 8
-86.178161 -39.560825 -10.664541 8
-89.677240 -39.711476 -10.259178 8
-93.197927 -39.882932 -9.853135 8
-96.769539 -40.022776 -9.415731 8
-100.407740 -40.107854 -8.932963 8
-104.065205 -40.226136 -8.455742 8
-108.001411 -39.940114 -7.726607 8
-114.571854 -35.401210 -4.470721 8
-122.847593 -28.400784 0.278952 7
-126.904336 -28.427912 0.896412 7
-131.083488 -28.343628 1.597123 7
-135.273746 -28.325311 2.275990 7
-139.557710 -28.250036 3.007001 7
-143.914414 -28.154484 3.768906 7
-148.260573 -28.159949 4.488762 7
145.136316 -27.577658 -10.390223 6
141.892226 -27.510696 -10.528188 6
138.647456 -27.503912 -10.690017 6
135.440612 -27.431378 -10.806307 6
132.240106 -27.393129 -10.932354 6
129.052275 -27.367439 -11.056247 6
125.885440 -27.321286 -11.159911 6
122.729096 -27.290701 -11.263248 6
119.579972 -27.288370 -11.373286 6
117.963757 -20.655919 -7.837849 6
112.987145 -28.822669 -12.410818 5
109.272588 -31.824608 -14.140339 5
105.986463 -33.037272 -14.879910 5
102.924785 -33.239742 -15.057602 5
99.917226 -33.215488 -15.102903 5
96.918059 -33.195039 -15.142097 5
93.924551 -33.192844 -15.183127 5
90.941491 -33.174728 -15.207343 5
87.964339 -33.166535 -15.228913 5
84.997375 -33.130026 -15.226969 5
82.032681 -33.123516 -15.233410 5
79.072045 -33.132350 -15.240249 5
76.118047 -33.125765 -15.230695 5
73.165242 -33.159828 -15.235407 5
70.220243 -33.145660 -15.205821 5
67.274941 -33.189646 -15.200101 5
64.181980 -36.568577 -17.010311 9
61.232682 -37.938521 -17.714693 9
58.312792 -39.355888 -18.437730 9
55.422904 -40.843842 -19.192248 9
52.565179 -42.224085 -19.880752 9
49.735006 -43.420004 -20.461282 9
46.918564 -44.031516 -20.714400 9
44.107740 -44.440437 -20.849075 9
41.291068 -44.535195 -20.803859 9
38.471410 -44.583309 -20.725360 9
35.653323 -44.693390 -20.673213 9
32.827204 -44.711962 -20.563011 9
30.001571 -44.785085 -20.475037 9
27.169218 -44.822890 -20.359784 9
24.333111 -44.870583 -20.242101 9
