ply
format ascii 1.0
element vertex 1386
property float x
property float y
property float z
property int scalar_Label
end_header
-65.291163 -38.950851 3.511908 8
-67.376060 -40.495719 3.294988 8
-70.107690 -40.453908 3.154675 8
-72.821003 -40.505790 3.003805 8
-75.576242 -40.508499 2.849535 8
-78.343987 -40.532732 2.688218 8
-81.125885 -40.574962 2.519965 8
-83.985877 -40.500240 2.351123 8
-86.822834 -40.527397 2.171087 8
-89.715826 -40.491503 1.987560 8
-92.591222 -40.543619 1.793438 8
-95.531651 -40.520372 1.596069 8
-98.493549 -40.510463 1.391269 8
-101.456849 -40.551624 1.177319 8
-104.523499 -40.458811 0.961965 8
-116.060855 -25.518819 1.347440 8
-115.449328 -32.194390 0.832166 8
-119.929835 -30.063777 0.665735 7
-123.199222 -30.078826 0.405426 7
-126.519368 -30.070360 0.137793 7
-129.842877 -30.116702 -0.140238 7
-135.143730 -27.157557 -0.322189 7
-136.679922 -30.094991 -0.718166 7
-140.138877 -30.116556 -1.021649 7
-143.656997 -30.113707 -1.333562 7
-147.262218 -30.049998 -1.653130 7
148.969524 -31.341249 0.969904 6
146.083810 -31.338270 1.255509 6
143.198564 -31.387455 1.531958 6
140.370403 -31.356942 1.804977 6
137.611591 -31.208617 2.076651 6
134.821603 -31.182301 2.336486 6
132.037218 -31.191966 2.588249 6
129.279734 -31.182580 2.834572 6
126.540469 -31.174239 3.074641 6
123.812025 -31.185913 3.307617 6
121.116773 -31.152991 3.536808 6
118.440374 -31.112077 3.760548 6
117.451392 -25.933245 4.246414 6
114.847270 -25.589224 4.479005 5
110.379020 -31.390086 4.376044 5
106.925774 -34.198697 4.421564 5
104.077431 -35.129787 4.561171 5
101.505256 -35.170278 4.743966 5
98.961817 -35.152682 4.924750 5
96.439634 -35.097430 5.102543 5
93.917079 -35.086466 5.272726 5
91.413068 -35.042397 5.439820 5
88.905798 -35.055955 5.598561 5
86.429885 -34.971072 5.758263 5
83.930527 -35.039551 5.903901 5
81.463086 -34.997301 6.051414 5
79.008281 -34.928570 6.195842 5
76.557133 -34.877643 6.334516 5
74.104666 -34.875063 6.465535 5
71.667157 -34.822172 6.595111 5
69.237784 -34.752671 6.721209 5
66.804698 -34.746904 6.838729 5
66.193768 -20.365933 7.881608 5
61.469255 -38.898576 6.789201 9
58.932757 -40.378711 6.794229 9
56.431351 -41.835327 6.795303 9
53.968008 -43.221438 6.795671 9
51.525111 -44.729631 6.782674 9
49.128450 -46.029855 6.778395 9
46.772633 -47.105296 6.784270 9
44.462015 -47.731759 6.815755 9
42.175668 -48.099834 6.860371 9
39.907634 -48.151304 6.922349 9
37.642938 -48.145199 6.984235 9
35.378351 -48.181325 7.039232 9
33.114905 -48.172055 7.093362 9
30.851277 -48.168825 7.143108 9
28.586667 -48.136337 7.190921 9
26.321286 -48.129950 7.232977 9
24.054811 -48.130597 7.270594 9
21.786365 -48.123001 7.304838 9
19.514954 -48.100471 7.336180 9
17.242527 -48.106345 7.361591 9
14.966369 -48.097998 7.384048 9
12.687726 -48.100155 7.401814 9
10.404166 -48.087610 7.416653 9
8.119611 -48.106861 7.425290 9
5.824924 -48.071553 7.433786 9
3.530238 -48.081537 7.435109 9
1.230335 -48.090150 7.432528 9
-1.076077 -48.091426 7.426447 9
-3.389815 -48.084151 7.416935 9
-5.705931 -48.103445 7.401507 9
-8.030473 -48.111651 7.382789 9
-10.369377 -48.079903 7.362777 9
-12.709142 -48.088050 7.335853 9
-15.064720 -48.057350 7.307499 9
-17.417511 -48.084449 7.270941 9
-19.783453 -48.090799 7.231631 9
-22.161512 -48.085643 7.188889 9
-24.545008 -48.100352 7.140504 9
-26.938437 -48.116393 7.087731 9
-29.343674 -48.128243 7.030912 9
-31.775605 -48.082887 6.973628 9
-34.195704 -48.126323 6.905847 9
-36.632969 -48.150772 6.834907 9
-39.093641 -48.139097 6.761903 9
-41.588778 -48.060972 6.688788 9
-44.177992 -47.738612 6.627323 9
-46.922672 -47.011474 6.587852 9
-51.598060 -40.721703 6.910708 9
-53.117353 -43.817339 6.607167 9
-56.397176 -41.925699 6.626708 9
-59.778239 -39.918284 6.647043 9
-65.234316 -32.672854 6.997376 8
-65.306478 -39.494847 6.437181 8
-67.772186 -40.106401 6.271838 8
-70.505570 -40.092852 6.140995 8
-73.231320 -40.146816 6.000449 8
-76.022994 -40.097473 5.860762 8
-78.797878 -40.137626 5.709886 8
-81.611248 -40.142785 5.555411 8
-84.413149 -40.222546 5.390620 8
-87.266193 -40.244252 5.223399 8
-90.146118 -40.262417 5.050340 8
-93.070989 -40.243462 4.873261 8
-96.004994 -40.260352 4.687804 8
-98.977355 -40.257544 4.497050 8
-101.995047 -40.225256 4.301365 8
-105.015001 -40.244425 4.096126 8
-114.552254 -28.880568 4.495333 8
-116.083271 -31.808505 4.112669 8
-120.487135 -29.842332 3.981904 7
-123.764148 -29.871170 3.738235 7
-127.076707 -29.901036 3.486807 7
-130.426327 -29.931373 3.227477 7
-133.809086 -29.970126 2.959681 7
-137.263520 -29.960394 2.685925 7
-140.743160 -29.975996 2.402473 7
-144.235957 -30.034954 2.108397 7
-147.807481 -30.043312 1.807716 7
146.649853 -31.007299 4.363406 6
143.782692 -30.982024 4.631919 6
140.936036 -30.960307 4.893814 6
138.146170 -30.852652 5.154274 6
135.365580 -30.768513 5.407354 6
132.596100 -30.703393 5.653354 6
129.828509 -30.681401 5.890891 6
127.078684 -30.661459 6.122431 6
124.355289 -30.617720 6.349651 6
121.651367 -30.566135 6.571717 6
118.965357 -30.508729 6.788611 6
117.476485 -26.833010 7.230883 6
114.877501 -26.475402 7.459218 5
111.084921 -30.046425 7.425928 5
107.458174 -33.355730 7.399227 5
104.498046 -34.615637 7.499444 5
101.918244 -34.634893 7.676583 5
99.359693 -34.623398 7.850810 5
96.829459 -34.547653 8.024562 5
94.287011 -34.563179 8.187215 5
91.769633 -34.520672 8.349129 5
89.259725 -34.488434 8.505636 5
86.758103 -34.461776 8.657107 5
84.261506 -34.455033 8.802554 5
81.779910 -34.417600 8.945662 5
79.314321 -34.336590 9.087472 5
76.841887 -34.332241 9.219252 5
74.376090 -34.333976 9.346155 5
71.924051 -34.294324 9.471753 5
69.477532 -34.258243 9.592771 5
67.040750 -34.192329 9.711764 5
66.183506 -21.722220 10.768003 5
61.685346 -38.282106 9.614951 9
59.129061 -39.819462 9.596694 9
56.611096 -41.313063 9.576518 9
54.139175 -42.655810 9.562872 9
51.681401 -44.190619 9.529330 9
49.262616 -45.632214 9.498082 9
46.902545 -46.598913 9.499269 9
44.576501 -47.302466 9.516729 9
42.277920 -47.709128 9.553422 9
40.000480 -47.736976 9.616141 9
37.725629 -47.722626 9.678417 9
35.451122 -47.718631 9.736100 9
33.176885 -47.716022 9.789911 9
30.902218 -47.663240 9.843998 9
28.627349 -47.686934 9.888208 9
26.351415 -47.684012 9.930818 9
24.073519 -47.661863 9.971249 9
21.794403 -47.658122 10.006467 9
19.513341 -47.657054 10.037740 9
17.230536 -47.666906 10.064399 9
14.940852 -47.618853 10.092033 9
12.651892 -47.629429 10.111171 9
10.360479 -47.650490 10.125715 9
8.064833 -47.665607 10.136996 9
5.758243 -47.619954 10.149477 9
3.455096 -47.649881 10.152033 9
1.141286 -47.634256 10.154530 9
-1.174813 -47.644939 10.151093 9
-3.505138 -47.600338 10.148360 9
-5.837801 -47.587395 10.139224 9
-8.167021 -47.637246 10.121134 9
-10.517069 -47.607049 10.105704 9
-12.864185 -47.636894 10.081509 9
-15.228502 -47.619194 10.057272 9
-17.594691 -47.636080 10.026298 9
-19.973401 -47.636398 9.992709 9
-22.362960 -47.631644 9.955541 9
-24.750244 -47.679280 9.910130 9
-27.160890 -47.672104 9.865088 9
-29.575941 -47.691445 9.813828 9
-32.011483 -47.676505 9.761189 9
-34.447631 -47.703903 9.701001 9
-36.904884 -47.700284 9.639081 9
-39.367335 -47.723526 9.570778 9
-41.853832 -47.712038 9.500926 9
-44.483600 -47.299793 9.458189 9
-47.270812 -46.483826 9.442348 9
-50.331255 -44.965191 9.476172 9
-53.627282 -42.916166 9.545431 9
-56.923264 -41.034021 9.595604 9
-60.306779 -39.073291 9.645538 9
-65.214803 -33.313775 9.978639 8
-65.542571 -39.480204 9.397564 8
-68.277055 -39.453051 9.283750 8
-70.987486 -39.533816 9.156749 8
-73.746912 -39.545670 9.029788 8
-76.535400 -39.540738 8.898832 8
-79.325987 -39.581580 8.759184 8
-82.134167 -39.633048 8.613387 8
-84.944796 -39.727888 8.459006 8
-87.817071 -39.743010 8.304824 8
-90.711514 -39.764874 8.144468 8
-93.606720 -39.836628 7.974818 8
-96.538173 -39.888596 7.800707 8
-99.514599 -39.907457 7.622899 8
-102.508339 -39.947720 7.437496 8
-105.737608 -39.619294 7.270657 8
-110.831014 -36.097873 7.309080 8
-117.999507 -29.230729 7.554800 7
-121.187544 -29.384039 7.327206 7
-124.477446 -29.423069 7.100039 7
-127.800721 -29.466794 6.865345 7
-131.170682 -29.495888 6.624172 7
-134.580972 -29.522969 6.375538 7
-138.031649 -29.550035 6.119136 7
-141.576416 -29.499660 5.859360 7
-145.054889 -29.610954 5.581883 7
-148.647328 -29.620340 5.302043 7
147.426646 -30.210061 7.517083 6
144.548005 -30.166432 7.776042 6
141.697964 -30.106947 8.030018 6
138.886289 -30.004919 8.281002 6
136.088208 -29.916507 8.525311 6
133.287498 -29.882439 8.760140 6
130.517034 -29.819301 8.991395 6
127.783050 -29.705865 9.220783 6
125.042150 -29.656449 9.440169 6
122.321177 -29.598171 9.654868 6
119.629518 -29.500568 9.867262 6
117.469342 -27.826377 10.193543 6
117.306637 -19.799307 11.001445 6
111.926562 -28.272708 10.546125 5
108.100393 -32.150893 10.430406 5
105.009106 -33.791494 10.479689 5
102.375812 -33.944076 10.639565 5
99.812010 -33.895408 10.810563 5
97.256354 -33.859150 10.975973 5
94.717721 -33.798571 11.138807 5
92.182800 -33.764832 11.294991 5
89.663106 -33.708240 11.448615 5
87.154522 -33.642377 11.598646 5
84.649456 -33.600396 11.742389 5
82.155894 -33.542681 11.883171 5
79.669514 -33.487376 12.019533 5
77.186939 -33.451357 12.150081 5
74.712896 -33.406816 12.277200 5
72.248068 -33.344844 12.401708 5
69.782674 -33.325415 12.518489 5
67.326161 -33.285428 12.632995 5
66.230763 -22.617016 13.669577 5
65.271719 -9.090785 14.960986 5
59.358664 -38.960634 12.443030 9
56.820448 -40.498564 12.400180 9
54.318589 -42.006324 12.355068 9
51.853718 -43.458834 12.310054 9
49.414983 -44.981834 12.254050 9
47.040361 -45.971392 12.241222 9
44.700228 -46.700926 12.247542 9
42.388816 -47.119198 12.277916 9
40.099399 -47.144026 12.340083 9
37.811823 -47.159282 12.399537 9
35.526162 -47.105654 12.461696 9
33.239639 -47.117281 12.514383 9
30.953296 -47.128458 12.563571 9
28.665591 -47.068578 12.615740 9
26.377707 -47.078995 12.657957 9
24.087607 -47.055799 12.699747 9
21.796696 -47.060906 12.735425 9
19.502319 -47.037811 12.770195 9
17.206182 -47.032244 12.799843 9
14.908791 -47.049758 12.823848 9
12.605233 -47.028006 12.847973 9
10.301333 -47.046545 12.864852 9
7.988350 -47.012496 12.883082 9
5.674786 -47.019174 12.894008 9
3.353928 -47.005040 12.903328 9
1.026332 -46.982165 12.909910 9
-1.300149 -47.011092 12.908124 9
-3.640523 -46.985010 12.907870 9
-5.980015 -47.008752 12.899402 9
-8.334888 -46.980752 12.892127 9
-10.691883 -46.985578 12.878182 9
-13.058883 -46.978975 12.861651 9
-15.420682 -47.041018 12.835099 9
-17.807636 -47.019415 12.812599 9
-20.199031 -47.021919 12.784152 9
-22.595392 -47.045177 12.750048 9
-25.008533 -47.039301 12.714859 9
-27.429065 -47.047347 12.674585 9
-29.860822 -47.054849 12.630525 9
-32.302171 -47.069779 12.581916 9
-34.751215 -47.099917 12.528015 9
-37.220531 -47.102182 12.472716 9
-39.699227 -47.117378 12.412254 9
-42.193357 -47.126519 12.348315 9
-44.860460 -46.642599 12.324799 9
-47.683832 -45.764421 12.332332 9
-50.852119 -43.980642 12.416299 9
-54.164161 -41.943987 12.517409 9
-57.556004 -39.854959 12.617407 9
-60.933317 -37.972274 12.693149 9
-65.308142 -33.660783 12.977110 8
-66.143265 -38.548857 12.445284 8
-68.876588 -38.572193 12.337839 8
-71.621327 -38.616476 12.223824 8
-74.410728 -38.604517 12.109870 8
-77.173925 -38.702676 11.981515 8
-79.975168 -38.762573 11.851526 8
-82.799591 -38.820658 11.716668 8
-85.634078 -38.906252 11.574379 8
-88.501319 -38.972536 11.428541 8
-91.395467 -39.034225 11.277806 8
-94.341169 -39.045134 11.125885 8
-97.305616 -39.073087 10.967020 8
-100.288188 -39.119805 10.800997 8
-103.297744 -39.169587 10.629010 8
-106.734507 -38.509874 10.507942 8
-113.476664 -32.165645 10.830422 8
-118.953898 -28.311482 10.941736 7
-122.205403 -28.399712 10.734176 7
-125.497535 -28.477592 10.520854 7
-128.851236 -28.514098 10.303964 7
-132.213367 -28.597047 10.076640 7
-135.652600 -28.620035 9.846758 7
-139.125226 -28.654451 9.608746 7
-142.604349 -28.741279 9.359492 7
-146.022362 -28.977097 9.092055 7
148.335453 -29.127191 10.720282 6
145.463152 -29.017024 10.974019 6
142.599869 -28.934118 11.219974 6
139.774658 -28.808948 11.463784 6
136.972696 -28.672868 11.703107 6
134.184483 -28.547310 11.936297 6
131.400405 -28.456502 12.161403 6
128.645971 -28.333041 12.384095 6
125.902360 -28.224298 12.600516 6
123.156884 -28.165998 12.807652 6
120.468130 -27.988514 13.020129 6
117.752538 -27.932359 13.217324 6
117.412280 -20.468074 14.060872 6
113.046436 -25.611678 13.793024 5
111.094607 -23.059325 14.200406 5
105.705168 -32.332216 13.542699 5
102.940655 -32.873704 13.659379 5
100.382306 -32.733281 13.833131 5
97.819113 -32.649111 13.997496 5
95.257189 -32.601237 14.154271 5
92.709566 -32.537029 14.308342 5
90.150724 -32.564666 14.449661 5
87.632563 -32.454917 14.599709 5
85.102174 -32.441495 14.736628 5
82.586867 -32.397687 14.872375 5
80.094026 -32.276516 15.011535 5
77.592909 -32.236055 15.139058 5
75.100394 -32.186757 15.263522 5
72.611782 -32.153857 15.382525 5
70.136427 -32.074101 15.502252 5
67.660230 -32.036470 15.614079 5
66.238478 -23.814379 16.527397 5
65.154391 -11.445251 17.853089 5
59.611364 -37.900902 15.334282 9
57.049011 -39.501676 15.265923 9
54.528526 -41.025956 15.200476 9
52.039291 -42.572721 15.128192 9
49.587988 -44.049259 15.058458 9
47.178462 -45.351145 15.001957 9
45.026293 -42.155262 15.396167 9
42.504008 -46.440421 15.030042 9
40.198863 -46.551592 15.082651 9
37.899385 -46.557147 15.142621 9
35.601071 -46.540404 15.201532 9
33.302736 -46.544751 15.254968 9
31.004414 -46.543196 15.305694 9
28.704890 -46.495053 15.357905 9
26.405570 -46.524208 15.398875 9
24.103537 -46.495230 15.442539 9
21.794780 -46.364616 15.493424 9
19.487182 -46.339513 15.530144 9
17.177861 -46.333471 15.561609 9
14.864710 -46.315820 15.590992 9
12.547886 -46.297433 15.617166 9
10.231436 -46.326735 15.635096 9
7.905260 -46.295473 15.656020 9
5.580824 -46.325550 15.667264 9
3.246058 -46.306496 15.680308 9
0.903020 -46.268118 15.692044 9
-1.436744 -46.299318 15.693207 9
-3.789784 -46.279737 15.696313 9
-6.141687 -46.311101 15.690758 9
-8.505106 -46.312968 15.684902 9
-10.877570 -46.306352 15.676541 9
-13.261564 -46.281878 15.666629 9
-15.643433 -46.312741 15.647535 9
-18.039870 -46.313835 15.628089 9
-20.440287 -46.339447 15.602626 9
-22.847598 -46.375788 15.572559 9
-25.271489 -46.383187 15.541974 9
-27.714792 -46.355795 15.511435 9
-30.166131 -46.343288 15.475769 9
-33.585515 -42.799636 15.800413 9
-35.046885 -46.527584 15.372008 9
-37.533844 -46.515626 15.325362 9
-40.024460 -46.536940 15.271580 9
-42.607782 -46.304673 15.239971 9
-45.307410 -45.772173 15.235064 9
-48.203274 -44.729982 15.277875 9
-51.448018 -42.783464 15.407942 9
-54.794942 -40.712594 15.545466 9
-58.251691 -38.510256 15.690901 9
-61.715897 -36.462851 15.815171 9
-65.274818 -34.334824 15.941860 8
-66.742668 -37.626548 15.521739 8
-69.500796 -37.636662 15.425961 8
-73.860061 -33.886807 15.698087 8
-75.101672 -37.606585 15.225973 8
-77.910752 -37.648323 15.113536 8
-80.739175 -37.696471 14.995844 8
-83.593983 -37.737114 14.874181 8
-86.476745 -37.769189 14.748562 8
-89.377995 -37.814350 14.616804 8
-92.276027 -37.916682 14.474623 8
-95.261523 -37.897135 14.339060 8
-98.192938 -38.035342 14.183366 8
-101.216908 -38.049407 14.034217 8
-104.285272 -38.036970 13.882169 8
-108.061932 -36.820219 13.836302 8
-115.863795 -28.706814 14.418304 8
-120.204230 -26.895407 14.407434 7
-123.454617 -27.037414 14.210758 7
-126.790609 -27.094270 14.015696 7
-130.142203 -27.184981 13.811309 7
-133.483634 -27.349673 13.593985 7
-136.897345 -27.459439 13.375053 7
-140.375971 -27.530601 13.152815 7
-143.877188 -27.629704 12.921296 7
-147.434821 -27.708377 12.684516 7
148.352978 -23.385908 14.616249 6
143.755420 -27.180168 14.500179 6
140.918078 -27.012747 14.739439 6
138.083991 -26.882185 14.970246 6
135.281086 -26.719050 15.199147 6
132.490398 -26.568123 15.422048 6
129.722179 -26.401178 15.641709 6
126.967821 -26.238698 15.856265 6
124.220053 -26.099933 16.063905 6
121.490743 -25.950436 16.268033 6
118.767895 -25.823590 16.465441 6
117.486152 -21.233718 17.102923 6
114.292425 -22.565391 17.148264 5
110.181161 -27.111187 16.862902 5
106.512194 -30.501875 16.684586 5
103.636543 -31.342962 16.758272 5
101.023095 -31.319462 16.915608 5
98.441827 -31.218291 17.076869 5
95.859919 -31.160221 17.229687 5
93.298420 -31.059949 17.382955 5
90.739225 -30.989163 17.529260 5
88.187322 -30.926667 17.670837 5
85.647875 -30.846341 17.810491 5
83.114514 -30.775210 17.945410 5
80.588389 -30.706001 18.076399 5
78.076679 -30.595919 18.208096 5
75.563412 -30.530037 18.331407 5
73.049562 -30.507469 18.446401 5
70.556425 -30.390019 18.568103 5
68.058831 -30.335946 18.679368 5
66.207007 -25.307527 19.332651 5
65.042755 -13.731985 20.706788 5
59.902259 -36.505614 18.292875 9
57.315087 -38.142060 18.200642 9
54.751650 -39.913133 18.088950 9
52.243572 -41.467581 17.996902 9
49.768725 -43.022599 17.900520 9
47.344373 -44.288234 17.832382 9
44.972565 -45.053720 17.816499 9
42.787687 -41.759048 18.254329 9
40.431347 -41.862060 18.307155 9
37.994972 -45.625845 17.942547 9
35.681255 -45.609881 18.001553 9
33.367637 -45.586483 18.058306 9
31.053301 -45.522983 18.116540 9
28.737621 -45.479172 18.169469 9
26.421813 -45.496970 18.212299 9
24.105755 -45.533637 18.249890 9
21.784508 -45.474864 18.295332 9
19.463752 -45.484309 18.329902 9
17.138960 -45.466398 18.364546 9
14.812600 -45.471204 18.393520 9
12.479699 -45.435828 18.424050 9
10.142928 -45.406217 18.450857 9
7.800541 -45.367778 18.475614 9
5.459265 -45.386653 18.490691 9
3.108193 -45.363012 18.507588 9
0.754309 -45.362701 18.518703 9
-1.603005 -45.379575 18.524733 9
-3.971940 -45.358954 18.531981 9
-6.339497 -45.391262 18.529994 9
-8.725101 -45.356162 18.532653 9
-11.110782 -45.366728 18.526887 9
-13.506882 -45.363951 18.519493 9
-15.910559 -45.366319 18.508319 9
-18.325543 -45.357595 18.495218 9
-20.746434 -45.365953 18.476920 9
-23.182779 -45.349847 18.458190 9
-25.617190 -45.386661 18.430093 9
-28.062877 -45.419287 18.399185 9
-30.537325 -45.383146 18.372853 9
-33.002648 -45.427604 18.333911 9
-35.495772 -45.414544 18.298181 9
-37.995088 -45.425924 18.256230 9
-40.508588 -45.434599 18.211136 9
-43.045162 -45.414191 18.165866 9
-45.836627 -44.652363 18.201401 9
-48.824945 -43.395262 18.289247 9
-52.069919 -41.517501 18.443176 9
-55.581743 -39.049071 18.659217 9
-59.086634 -36.792794 18.846224 9
-65.274320 -27.599490 19.808329 8
-65.221245 -35.059496 18.892860 8
-67.595604 -36.074752 18.698876 8
-70.360313 -36.133445 18.608160 8
-73.154195 -36.170192 18.515793 8
-75.964713 -36.217371 18.418102 8
-78.783735 -36.294190 18.312913 8
-81.639554 -36.337986 18.207087 8
-84.532281 -36.352647 18.100089 8
-87.427494 -36.413910 17.983540 8
-90.340029 -36.489893 17.860890 8
-93.276203 -36.568681 17.733371 8
-96.259573 -36.605977 17.605678 8
-99.251444 -36.679852 17.469291 8
-102.275030 -36.746467 17.328853 8
-105.505863 -36.489505 17.217831 8
-111.387513 -31.595918 17.590823 8
-118.484573 -24.863503 18.145793 7
-121.763975 -24.963944 17.974093 7
-125.071597 -25.073819 17.795855 7
-128.398953 -25.208226 17.609425 7
-131.760578 -25.344382 17.417061 7
-135.168110 -25.465942 17.220304 7
-138.593431 -25.618689 17.014368 7
-142.070590 -25.751746 16.804282 7
-145.572154 -25.908498 16.585546 7
148.112253 -24.895285 17.668475 6
145.246407 -24.661462 17.911794 6
142.383355 -24.463593 18.146652 6
139.544652 -24.249947 18.378509 6
136.708370 -24.072716 18.601933 6
133.896622 -23.875835 18.822926 6
131.127781 -23.606684 19.047285 6
128.326810 -23.463308 19.253731 6
125.556637 -23.277079 19.460499 6
122.805061 -23.077734 19.664475 6
120.067267 -22.876637 19.864495 6
117.564362 -21.982895 20.137544 6
116.964620 -14.951433 21.094729 6
111.853486 -22.517605 20.412770 5
107.565317 -27.838468 19.971505 5
104.458839 -29.373998 19.950610 5
101.799518 -29.415017 20.094928 5
99.194194 -29.300244 20.253230 5
96.583306 -29.247820 20.400636 5
93.996848 -29.137719 20.551018 5
91.409328 -29.071576 20.692668 5
88.835119 -28.987282 20.832832 5
86.274485 -28.878496 20.972324 5
83.716401 -28.794554 21.105398 5
81.169453 -28.691207 21.237298 5
78.626607 -28.601876 21.364112 5
76.077925 -28.585090 21.478870 5
73.552564 -28.467700 21.602254 5
71.031695 -28.352999 21.722005 5
68.503924 -28.320046 21.828615 5
66.161667 -26.896893 22.100099 5
64.938745 -15.936079 23.526781 5
60.215933 -34.920469 21.313242 9
57.597148 -36.640623 21.190439 9
55.012814 -38.395921 21.059035 9
52.477556 -40.011700 20.940518 9
49.966397 -41.774827 20.799811 9
47.513491 -43.191853 20.697715 9
45.124906 -43.943882 20.674024 9
42.761711 -44.486457 20.672918 9
40.423868 -44.622420 20.719077 9
38.093416 -44.603760 20.781495 9
35.764118 -44.531881 20.847660 9
33.433680 -44.498487 20.906172 9
31.102857 -44.513319 20.955794 9
28.770703 -44.451412 21.012158 9
26.437977 -44.447920 21.058361 9
24.103896 -44.443518 21.101829 9
21.766304 -44.399463 21.147440 9
19.426084 -44.361023 21.189515 9
17.082500 -44.320660 21.229002 9
14.740341 -44.350202 21.256838 9
12.391277 -44.329815 21.288134 9
10.039298 -44.322783 21.314904 9
7.680555 -44.291849 21.341855 9
5.317605 -44.269879 21.364829 9
2.945987 -44.221652 21.388278 9
0.578965 -44.257131 21.398263 9
-1.800651 -44.240452 21.411989 9
-4.184845 -44.237704 21.421072 9
-6.574491 -44.243693 21.426158 9
-8.970704 -44.253026 21.427919 9
-11.379155 -44.236324 21.430070 9
-13.786756 -44.268679 21.423070 9
-16.217073 -44.227740 21.422423 9
-18.635666 -44.289604 21.405777 9
-21.076281 -44.289603 21.393998 9
-23.529500 -44.278733 21.380596 9
-25.987067 -44.294675 21.360776 9
-28.463845 -44.277034 21.342162 9
-30.947259 -44.279799 21.317895 9
-33.430765 -44.326662 21.284961 9
-35.936855 -44.334941 21.253783 9
-38.447473 -44.372302 21.215787 9
-40.979451 -44.381997 21.178100 9
-43.606771 -44.132579 21.169778 9
-46.449190 -43.281594 21.233651 9
-49.543363 -41.778762 21.375630 9
-52.980319 -39.423331 21.620370 9
-56.484315 -37.069494 21.860476 9
-60.149380 -34.463992 22.127394 9
-65.293063 -28.145233 22.851665 8
-65.825379 -34.091269 22.045558 8
-68.599080 -34.155591 21.967893 8
-71.417995 -34.157116 21.894272 8
-74.242104 -34.197316 21.812068 8
-77.078254 -34.259117 21.723360 8
-79.928376 -34.338237 21.628637 8
-82.827038 -34.359365 21.537067 8
-85.722727 -34.438531 21.434374 8
-88.655579 -34.489597 21.331028 8
-91.584357 -34.600155 21.216312 8
-94.556681 -34.673167 21.101946 8
-97.590627 -34.677914 20.991504 8
-100.597617 -34.788651 20.863928 8
-103.652453 -34.861463 20.736464 8
-107.395758 -33.741195 20.746332 8
-117.638425 -21.225036 22.099650 7
-120.480061 -22.125962 21.853433 7
-123.794380 -22.248511 21.694364 7
-127.151102 -22.357140 21.531805 7
-130.527901 -22.490862 21.361091 7
-133.985325 -22.553886 21.193225 7
-137.431229 -22.695860 21.010757 7
-140.877262 -22.896187 20.816068 7
-144.357246 -23.102826 20.615063 7
-147.834945 -23.370339 20.401465 7
147.241919 -20.994741 21.528265 6
144.387204 -20.654221 21.773126 6
144.146266 -13.959344 22.761561 6
138.661832 -20.126221 22.232282 6
135.819426 -19.870861 22.454581 6
133.002889 -19.586633 22.676255 6
130.187889 -19.335774 22.889929 6
127.379111 -19.106272 23.097056 6
124.605118 -18.815090 23.307773 6
121.816489 -18.602881 23.505031 6
119.062589 -18.322331 23.706874 6
116.918108 -16.120617 24.142702 6
114.818242 -13.670505 24.608051 5
109.201743 -23.192075 23.577202 5
105.576492 -26.369600 23.327547 5
102.723818 -26.980570 23.394058 5
100.106659 -26.783744 23.558505 5
97.480265 -26.657852 23.710578 5
94.865915 -26.520858 23.860676 5
92.256564 -26.399695 24.005408 5
89.659046 -26.263007 24.148822 5
87.071927 -26.112944 24.290701 5
84.477208 -26.035310 24.419989 5
81.896213 -25.926219 24.550121 5
79.326010 -25.794005 24.680087 5
76.738813 -25.795765 24.789405 5
74.184101 -25.643118 24.915769 5
71.625381 -25.546165 25.031754 5
69.071283 -25.451556 25.144360 5
66.522416 -25.351471 25.254646 5
64.824640 -18.206368 26.296710 5
60.587366 -32.832146 24.444368 9
57.920125 -34.752570 24.273619 9
55.302731 -36.583441 24.110671 9
52.720233 -38.469922 23.936244 9
50.185003 -40.254708 23.771497 9
47.707445 -41.714135 23.646709 9
45.290345 -42.605327 23.594989 9
42.907598 -43.143464 23.587777 9
40.550134 -43.280361 23.631914 9
38.199300 -43.299231 23.689311 9
35.849539 -43.325846 23.742977 9
33.500978 -43.281789 23.803591 9
31.151578 -43.242651 23.860904 9
28.801131 -43.212762 23.914332 9
26.449753 -43.202756 23.962419 9
24.096003 -43.166283 24.011508 9
21.740235 -43.138180 24.056840 9
19.381884 -43.111249 24.099403 9
17.020960 -43.091757 24.138339 9
14.657315 -43.080484 24.173536 9
12.287910 -43.043051 24.209725 9
9.915930 -43.026664 24.240410 9
7.545052 -43.065464 24.260876 9
5.156619 -42.982514 24.295513 9
2.771700 -42.983514 24.315954 9
0.379535 -42.971384 24.335581 9
-2.023170 -42.928741 24.356792 9
-4.423571 -42.949344 24.366624 9
-6.832543 -42.956972 24.375597 9
-9.253626 -42.935845 24.385886 9
-11.684329 -42.907021 24.394568 9
-14.112092 -42.939908 24.392030 9
-16.563550 -42.895201 24.397527 9
-19.015173 -42.897697 24.393780 9
-21.475618 -42.904044 24.386769 9
-23.952791 -42.881700 24.380978 9
-26.424376 -42.928779 24.362822 9
-28.914672 -42.942344 24.346513 9
-31.426040 -42.919286 24.332452 9
-33.950114 -42.896431 24.315526 9
-36.467786 -42.943273 24.286126 9
-39.016132 -42.927769 24.262440 9
-41.544086 -43.026410 24.220123 9
-44.232440 -42.654000 24.239680 9
-47.160495 -41.614225 24.347857 9
-50.419682 -39.700149 24.572700 9
-53.965711 -37.123433 24.884682 9
-57.649959 -34.363493 25.217705 9
-61.396054 -31.647482 25.540469 9
-65.293103 -28.739722 25.885025 8
-67.006055 -31.650315 25.431989 8
-69.818738 -31.708105 25.365011 8
-72.651321 -31.765884 25.294620 8
-75.514875 -31.799244 25.224077 8
-78.377840 -31.884431 25.142996 8
-81.267996 -31.956943 25.060074 8
-84.200392 -31.986582 24.979315 8
-87.127180 -32.080205 24.886260 8
-90.085322 -32.158064 24.791602 8
-93.072230 -32.228276 24.694177 8
-96.078961 -32.310836 24.591246 8
-99.108327 -32.401198 24.483358 8
-102.174607 -32.473602 24.373869 8
-105.472637 -32.171284 24.309833 8
-116.044812 -18.809708 25.961726 8
-122.055780 -14.149033 26.455116 7
-125.348419 -14.446666 26.290879 7
-128.690300 -14.711344 26.126426 7
-132.016985 -15.053518 25.947276 7
-135.383476 -15.381167 25.765360 7
-138.805151 -15.672707 25.583344 7
-140.258494 -19.069789 24.998096 7
-143.750735 -19.296964 24.816189 7
-147.339506 -19.437681 24.640157 7
149.860193 -15.919868 25.426176 6
146.969869 -15.503369 25.676480 6
144.091507 -15.092103 25.922298 6
141.230879 -14.670298 26.165741 6
138.391559 -14.226079 26.408450 6
135.561962 -13.786423 26.646973 6
132.757307 -13.308416 26.887041 6
129.982645 -12.772546 27.131379 6
127.204001 -12.270146 27.367929 6
124.428929 -11.780032 27.599522 6
121.707583 -11.146514 27.847186 6
118.984448 -10.530626 28.089393 6
116.895409 -7.829110 28.612301 6
112.756315 -12.012220 28.194039 5
107.150428 -21.770197 27.003111 5
103.969407 -23.382935 26.919681 5
101.296375 -23.226900 27.075609 5
98.619355 -23.124958 27.220874 5
95.939913 -23.075221 27.355701 5
93.287861 -22.952732 27.497505 5
90.679433 -22.671238 27.658509 5
88.050121 -22.512493 27.799370 5
85.438926 -22.297450 27.945194 5
82.824496 -22.126925 28.081833 5
80.214993 -21.960209 28.215032 5
77.613321 -21.777983 28.347564 5
74.982382 -21.805884 28.447298 5
72.357060 -21.850026 28.541742 5
69.754709 -21.786725 28.648641 5
67.150434 -21.778513 28.744781 5
64.749598 -20.135307 29.073597 5
61.017307 -30.241895 27.704111 9
58.292052 -32.405076 27.474762 9
55.624020 -34.452378 27.258158 9
53.001699 -36.476363 27.041041 9
50.432230 -38.361156 26.840390 9
47.913685 -40.064452 26.662579 9
45.463138 -41.152730 26.571209 9
43.062527 -41.619414 26.567797 9
40.683493 -41.760284 26.609473 9
38.310977 -41.793974 26.664372 9
35.940851 -41.762908 26.726342 9
33.570420 -41.758307 26.781992 9
31.199536 -41.687650 26.844972 9
28.827631 -41.668816 26.897906 9
26.454049 -41.631413 26.951189 9
24.079630 -41.627901 26.997063 9
21.698910 -41.521470 27.055815 9
19.320689 -41.539484 27.093726 9
16.937547 -41.514650 27.135617 9
14.552116 -41.505866 27.172741 9
12.162637 -41.491458 27.208323 9
9.769658 -41.483794 27.240520 9
7.371366 -41.467488 27.271626 9
4.964038 -41.415541 27.305673 9
2.551662 -41.372868 27.335956 9
0.140607 -41.389119 27.355044 9
-2.278024 -41.392404 27.373672 9
-4.703623 -41.392248 27.390412 9
-7.142616 -41.352334 27.410694 9
-9.581270 -41.362419 27.421073 9
-12.039106 -41.309223 27.438503 9
-14.483177 -41.377327 27.435321 9
-16.963539 -41.302470 27.451111 9
-19.425702 -41.365037 27.443842 9
-21.914500 -41.346149 27.446304 9
-24.417575 -41.311983 27.448561 9
-26.914115 -41.352612 27.437101 9
-29.430963 -41.354564 27.428910 9
-31.958464 -41.361157 27.417477 9
-34.505987 -41.339501 27.407707 9
-37.055902 -41.356877 27.389504 9
-39.618228 -41.376915 27.368294 9
-42.225636 -41.293809 27.359869 9
-44.998412 -40.737677 27.419432 9
-48.061893 -39.371629 27.597092 9
-51.552656 -36.868835 27.941269 9
-55.277083 -33.895858 28.352104 9
-59.099660 -30.877483 28.766030 9
-64.803521 -22.984420 29.901227 8
-65.667329 -28.347867 29.061190 8
-68.525763 -28.354997 29.014842 8
-71.348348 -28.502886 28.944549 8
-74.206093 -28.609963 28.877229 8
-77.116708 -28.639482 28.818248 8
-80.009233 -28.762095 28.742325 8
-82.953673 -28.815905 28.673333 8
-85.938230 -28.833563 28.606369 8
-88.905596 -28.941323 28.522816 8
-91.898972 -29.044818 28.436522 8
-94.934619 -29.113209 28.351941 8
-97.972203 -29.230424 28.256731 8
-101.065883 -29.290358 28.166333 8
-104.260084 -29.215031 28.091960 8
-109.180173 -26.022306 28.465742 8
108.036152 -19.644967 30.428825 5
104.678145 -21.788790 30.240738 5
101.931160 -21.820289 30.363985 5
99.203960 -21.827179 30.487868 5
96.502688 -21.778464 30.617138 5
93.793284 -21.811698 30.731114 5
91.107503 -21.791989 30.850182 5
88.430437 -21.779794 30.965255 5
85.754210 -21.812790 31.070616 5
83.116850 -21.696000 31.196057 5
80.500485 -21.500510 31.330894 5
77.892925 -21.280940 31.466851 5
75.282845 -21.100144 31.594300 5
72.684156 -20.870398 31.726766 5
70.074065 -20.739506 31.841448 5
67.480704 -20.511750 31.968626 5
64.875314 -20.396467 32.075876 5
61.563316 -26.642048 31.189697 9
58.746286 -29.278226 30.860452 9
56.012517 -31.619137 30.573303 9
53.318924 -34.076160 30.264144 9
51.152952 -29.969714 30.981605 9
48.151778 -37.935295 29.800427 9
45.667743 -39.128577 29.679508 9
43.234422 -39.736895 29.648001 9
40.825176 -40.031849 29.663468 9
38.435614 -39.797986 29.760269 9
36.039333 -39.776485 29.821299 9
33.642990 -39.769641 29.877805 9
31.246305 -39.722698 29.938492 9
28.848387 -39.683274 29.995815 9
26.449130 -39.655557 30.049108 9
24.048985 -39.655325 30.095853 9
21.648166 -39.679023 30.136610 9
19.241229 -39.620194 30.188395 9
16.831978 -39.583694 30.234468 9
14.417796 -39.530752 30.281034 9
12.005815 -39.558550 30.312515 9
9.584214 -39.518701 30.352697 9
7.159618 -39.499581 30.387410 9
4.724514 -39.432802 30.427638 9
2.290987 -39.432567 30.455025 9
-0.145256 -39.454883 30.476627 9
-2.594704 -39.424302 30.504587 9
-5.045591 -39.431758 30.524260 9
-7.506728 -39.418646 30.545080 9
-9.978357 -39.389867 30.566254 9
-12.457123 -39.369126 30.583953 9
-14.939166 -39.377839 30.594710 9
-17.428417 -39.394537 30.601977 9
-19.932213 -39.385788 30.611142 9
-22.446775 -39.374360 30.618517 9
-24.971624 -39.364879 30.623343 9
-27.504267 -39.369528 30.623638 9
-30.043469 -39.393570 30.618537 9
-32.609549 -39.359501 30.620541 9
-35.163774 -39.417598 30.605365 9
-37.750101 -39.404804 30.599320 9
-41.767639 -34.576769 31.368071 9
-42.995808 -39.279516 30.596285 9
-45.938623 -38.278975 30.742461 9
-49.172278 -36.499767 31.011616 9
-52.960628 -33.235486 31.517327 9
-56.936018 -29.684891 32.066070 9
-61.337443 -25.211196 32.760111 9
-67.326508 -16.756618 34.090766 8
-70.253244 -16.891687 34.036314 8
-73.225859 -16.956091 33.990435 8
-76.193551 -17.083661 33.931595 8
-79.180585 -17.212506 33.869706 8
-82.198193 -17.317942 33.808683 8
-85.207083 -17.493563 33.733508 8
-88.253166 -17.633399 33.661106 8
-91.313751 -17.791273 33.582828 8
-94.403235 -17.937137 33.503430 8
-97.540605 -18.034412 33.428679 8
-100.672886 -18.195333 33.340659 8
-103.807112 -18.403362 33.241990 8
106.844078 -14.877144 34.467318 5
103.687755 -16.160528 34.383812 5
101.000994 -15.742414 34.572003 5
98.309594 -15.360577 34.751921 5
95.638042 -14.912020 34.940323 5
92.969309 -14.461939 35.126672 5
90.304487 -14.002555 35.312268 5
87.632431 -13.585222 35.488719 5
84.991506 -13.013702 35.688269 5
82.340953 -12.484189 35.878775 5
79.685357 -11.974485 36.063873 5
77.059213 -11.271812 36.278785 5
74.431120 -10.542087 36.496200 5
71.802630 -9.765418 36.719464 5
69.223671 -8.549142 37.014040 5
59.306550 -25.152955 34.495136 9
56.483464 -27.931081 34.106775 9
53.721900 -30.672931 33.720711 9
51.044440 -33.046554 33.392960 9
48.415660 -35.432768 33.059678 9
45.898850 -36.645437 32.921303 9
43.422429 -37.525175 32.836590 9
40.986279 -37.775987 32.855983 9
38.563576 -37.727906 32.923970 9
36.140524 -37.699321 32.986682 9
33.717695 -37.599983 33.059470 9
31.293267 -37.568924 33.118706 9
28.867646 -37.527226 33.177813 9
26.440957 -37.510725 33.230688 9
24.009932 -37.414644 33.295233 9
21.579546 -37.415634 33.341269 9
19.145206 -37.383145 33.391112 9
16.706681 -37.335955 33.441565 9
14.263291 -37.276716 33.492182 9
11.818597 -37.258037 33.533934 9
9.367344 -37.215198 33.577931 9
6.913554 -37.198765 33.615485 9
4.451852 -37.158026 33.655317 9
1.982689 -37.106273 33.695146 9
-0.485146 -37.116049 33.722463 9
-2.963515 -37.094210 33.753318 9
-5.451444 -37.056461 33.785006 9
-7.938210 -37.074928 33.805069 9
-10.442656 -37.032963 33.833647 9
-12.954797 -36.998122 33.859068 9
-15.468730 -37.002623 33.875750 9
-17.996560 -36.983127 33.894638 9
-20.524169 -37.012002 33.903202 9
-23.066029 -37.019823 33.913445 9
-25.629168 -36.981381 33.929727 9
-28.200364 -36.959152 33.941219 9
-30.783451 -36.938152 33.950503 9
-33.358371 -36.996446 33.944039 9
-35.968565 -36.968438 33.950504 9
-38.577223 -36.995055 33.945466 9
-54.668036 8.647834 41.850752 9
-43.992760 -36.533235 34.018433 9
-47.109438 -35.103246 34.259462 9
-50.752240 -32.205598 34.752436 9
-54.971637 -27.833935 35.498205 9
-61.503025 -17.149000 37.334009 9
64.264645 -5.290680 40.969157 9
60.241403 -17.435498 38.878608 9
57.095946 -22.767930 38.000296 9
54.220243 -26.169103 37.463786 9
51.433009 -29.324338 36.967718 9
48.738771 -32.039720 36.547304 9
46.154669 -33.747330 36.305399 9
43.641249 -34.660093 36.204383 9
41.167689 -34.983481 36.207727 9
38.709025 -35.012287 36.262499 9
36.253349 -34.937744 36.334247 9
33.796765 -34.844527 36.407679 9
31.338613 -34.803656 36.469906 9
28.879114 -34.754850 36.531873 9
26.416961 -34.671997 36.598351 9
23.953036 -34.623559 36.656881 9
21.486879 -34.586184 36.711711 9
19.016914 -34.532634 36.767820 9
16.543220 -34.478803 36.822313 9
14.069105 -34.476272 36.865751 9
11.582633 -34.368232 36.926849 9
9.098229 -34.348787 36.970056 9
6.604820 -34.288945 37.019014 9
4.107250 -34.246549 37.063115 9
1.599343 -34.170695 37.111710 9
-0.903969 -34.185442 37.141988 9
-3.420790 -34.147769 37.180243 9
-5.946174 -34.103634 37.218029 9
-8.477950 -34.070630 37.252101 9
-11.019746 -34.028601 37.286170 9
-13.567155 -34.005957 37.314992 9
-16.119526 -34.005673 37.338007 9
-18.691538 -33.954371 37.368759 9
-21.267450 -33.935855 37.391767 9
-25.257328 -27.617725 38.577622 9
-27.927691 -27.565349 38.603892 9
-30.605223 -27.536047 38.624142 9
-33.293987 -27.513227 38.641427 9
-35.997358 -27.485517 38.657840 9
-36.947653 -33.895891 37.480704 9
-39.612943 -33.865024 37.493924 9
-42.346461 -33.653745 37.538780 9
-45.316757 -32.732230 37.713380 9
-48.793965 -30.321652 38.161952 9
-53.295837 -24.990215 39.149620 9
-60.392102 -12.381695 41.482962 9
58.212015 -12.285594 43.039473 9
54.676167 -22.229800 41.214444 9
51.920214 -24.319775 40.885107 9
49.132748 -27.593074 40.326337 9
46.462159 -29.947602 39.940550 9
44.248540 -23.121072 41.315579 9
41.380053 -31.364501 39.793978 9
38.877643 -31.448876 39.838057 9
36.380352 -31.364800 39.913060 9
33.881991 -31.260223 39.990554 9
31.381757 -31.191602 40.059654 9
28.879650 -31.116416 40.128570 9
26.375232 -31.043433 40.195617 9
23.867376 -30.950755 40.265045 9
21.357734 -30.900075 40.324900 9
18.844045 -30.834469 40.386223 9
16.327359 -30.784763 40.443032 9
13.801680 -30.668730 40.511328 9
11.275668 -30.620154 40.565090 9
8.746834 -30.595729 40.612729 9
6.204594 -30.489889 40.674834 9
3.662337 -30.447364 40.723186 9
1.112280 -30.393121 40.772419 9
-1.447305 -30.320371 40.823867 9
-4.014557 -30.249521 40.873546 9
-8.062798 -20.507846 42.815693 9
-9.154926 -30.229923 40.944779 9
-11.735492 -30.229552 40.976424 9
-14.339281 -30.148405 41.022497 9
-16.948179 -30.095965 41.061531 9
-19.560109 -30.080758 41.091839 9
-22.183373 -30.060947 41.121628 9
-24.819938 -30.030757 41.152029 9
-27.478073 -29.958462 41.189282 9
-30.125129 -29.985648 41.205529 9
-32.801658 -29.942792 41.234112 9
-35.481971 -29.937427 41.253865 9
-38.188136 -29.887159 41.281002 9
-40.903273 -29.858144 41.302487 9
-43.661764 -29.734062 41.341236 9
-47.049661 -27.616504 41.771572 9
-50.740100 -24.738742 42.350521 9
77.032948 141.248609 77.163580 3
72.604633 139.175207 76.859489 3
68.401969 139.212356 76.979656 3
64.202627 139.221318 77.091909 3
49.623359 -21.715238 44.511212 9
46.853754 -24.673833 43.975554 9
44.222418 -25.899550 43.789949 9
41.653848 -26.075146 43.816517 9
39.098359 -25.925121 43.908168 9
36.541348 -25.744551 44.004854 9
33.980770 -25.654772 44.081786 9
31.418241 -25.514746 44.167791 9
28.851690 -25.315322 44.264786 9
26.281724 -25.175114 44.348479 9
23.706258 -24.994162 44.439371 9
21.126687 -24.843112 44.522968 9
18.543839 -24.729816 44.597643 9
15.952020 -24.553943 44.684045 9
13.354578 -24.393283 44.766177 9
10.754573 -24.285183 44.836330 9
8.144463 -24.136743 44.913663 9
5.523322 -23.955373 44.996672 9
2.901590 -23.846961 45.063470 9
0.271176 -23.731766 45.130533 9
-2.376097 -23.553392 45.209550 9
-5.016708 -23.493831 45.262818 9
-7.679831 -23.341709 45.334143 9
-10.343253 -23.254062 45.390960 9
-13.028004 -23.100818 45.460267 9
-15.718763 -22.979647 45.521784 9
-18.423295 -22.848046 45.584341 9
-21.146722 -22.685079 45.652297 9
-23.869026 -22.591751 45.704622 9
-26.607287 -22.484622 45.758681 9
-29.361205 -22.369255 45.813313 9
-32.116660 -22.306929 45.855733 9
-34.911804 -22.143641 45.918068 9
-37.695739 -22.085627 45.957272 9
-40.514433 -21.956314 46.010203 9
-43.393007 -21.677979 46.093126 9
-47.041528 -18.875974 46.702707 9
77.049970 139.180474 81.695776 3
72.824926 139.179306 81.806369 3
68.607677 139.187372 81.917151 3
64.395531 139.182853 82.023474 3
60.190889 139.208986 82.134635 3
55.987825 139.188740 82.234122 3
51.790026 139.190373 82.336610 3
47.594787 139.177515 82.434300 3
81.527944 139.178624 86.561259 3
77.286899 139.216076 86.677810 3
73.050397 139.226634 86.786959 3
68.818615 139.212312 86.889164 3
64.595133 139.221298 86.995324 3
60.375000 139.200516 87.093464 3
56.161404 139.205571 87.196184 3
51.950805 139.192725 87.293602 3
47.743299 139.171502 87.387888 3
90.521761 140.693182 91.713346 0
86.040243 139.174847 91.459836 3
81.779795 139.222977 91.575659 3
77.518605 139.190623 91.671515 3
73.269376 139.193834 91.774907 3
69.028561 139.213005 91.881225 3
64.789883 139.182045 91.974785 3
60.560717 139.202339 92.079704 3
56.333883 139.186842 92.175299 3
52.112503 139.197306 92.276292 3
90.250207 136.689971 95.779130 0
85.992649 136.733956 95.889236 0
82.027316 139.218248 96.605699 3
77.752969 139.178656 96.694721 3
73.493033 139.197696 96.797913 3
69.235931 139.170794 96.889260 3
64.992357 139.230763 97.001896 3
60.747863 139.210763 97.094221 3
56.509637 139.210096 97.191029 3
94.813392 136.717184 100.732837 0
90.525112 136.703604 100.822857 0
86.246535 136.681842 100.910746 0
81.983266 136.704881 101.010321 0
77.727074 136.715974 101.106832 0
73.717510 139.197045 101.847987 3
69.450886 139.202944 101.943829 3
65.189696 139.197426 102.036781 3
60.935209 139.206426 102.133638 3
99.260816 135.763991 105.463410 0
95.101989 136.725307 105.811437 0
90.804923 136.741065 105.903097 0
86.511595 136.705865 105.981380 0
82.233949 136.715406 106.072345 0
77.965137 136.726212 106.164180 0
73.697885 136.672295 106.238893 0
69.570053 138.121808 106.724721 0
65.392909 139.225434 107.117199 3
103.885787 135.749341 110.483191 0
99.711802 136.707021 110.833897 0
95.387921 136.703452 110.913024 0
91.079111 136.725264 111.000332 0
86.772471 136.684401 111.070814 0
82.484863 136.714790 111.162544 0
78.201946 136.711226 111.245628 0
73.929229 136.728016 111.335529 0
69.658234 136.684830 111.409371 0
65.397143 136.674256 111.493546 0
108.706838 136.596485 115.806273 0
104.368574 136.730402 115.916235 0
100.018033 136.720932 115.985277 0
95.677804 136.695826 116.051152 0
91.353586 136.698896 116.126836 0
87.045248 136.742468 116.216007 0
82.738208 136.721100 116.287424 0
78.443593 136.726942 116.368407 0
74.154951 136.711220 116.444500 0
69.877062 136.730120 116.532395 0
109.058313 136.701803 121.034518 0
104.690123 136.743863 121.109903 0
100.324127 136.721117 121.167307 0
95.973021 136.710859 121.230528 0
91.636562 136.720344 121.301815 0
87.308316 136.711183 121.369337 0
82.987530 136.679435 121.431872 0
78.687161 136.745410 121.526584 0
74.385749 136.730630 121.598364 0
113.794934 136.694408 126.213756 0
109.400693 136.743272 126.281286 0
105.008761 136.727148 126.330510 0
100.641816 136.780127 126.404363 0
96.272632 136.741374 126.451319 0
91.921478 136.741524 126.513233 0
87.576094 136.702148 126.564962 0
83.247554 136.712778 126.635229 0
78.931402 136.754519 126.717996 0
74.544705 136.010963 126.550939 0
118.406489 135.850123 131.173106 0
114.156666 136.750667 131.512608 0
109.738799 136.747567 131.554779 0
105.337761 136.757292 131.604242 0
100.948064 136.753926 131.652372 0
96.567062 136.723206 131.694411 0
92.210000 136.773606 131.766475 0
87.848313 136.712310 131.804348 0
83.508516 136.738221 131.874288 0
79.059708 135.694995 131.590691 0
123.188192 135.670095 136.402626 0
118.951267 136.723160 136.793057 0
114.513992 136.769971 136.840020 0
110.083377 136.773276 136.875554 0
105.664863 136.762032 136.909631 0
101.264488 136.776269 136.956062 0
96.876696 136.790580 137.006071 0
92.489763 136.728446 137.033210 0
88.126910 136.755463 137.094688 0
83.648158 135.744635 136.800833 0
128.143917 136.063189 141.898437 0
123.799652 136.728396 142.149316 0
119.325366 136.741745 142.171271 0
114.868676 136.761266 142.199582 0
110.426731 136.777642 142.230900 0
105.992242 136.753625 142.251879 0
101.577030 136.759622 142.287695 0
97.173319 136.756779 142.324436 0
92.781864 136.754775 142.365554 0
88.321106 136.142288 142.192062 0
128.688267 136.693563 147.559605 0
124.192758 136.754242 147.584343 0
119.708182 136.787912 147.603814 0
115.235839 136.801748 147.620650 0
110.769207 136.762188 147.622393 0
106.321947 136.743369 147.636486 0
101.904570 136.819151 147.690287 0
97.476039 136.747162 147.693957 0
93.062337 136.683236 147.705224 0
133.638768 136.707167 153.060392 0
129.096715 136.707714 153.046607 0
124.582795 136.750737 153.054452 0
120.089626 136.811862 153.074549 0
115.599738 136.809855 153.075730 0
111.118703 136.769104 153.067317 0
106.673484 136.842101 153.107740 0
102.219451 136.785020 153.103504 0
97.775970 136.703033 153.094900 0
138.525479 136.252701 158.453001 0
134.078577 136.775063 158.628491 0
129.519338 136.768231 158.600121 0
124.994795 136.832319 158.605802 0
120.460492 136.768879 158.566838 0
115.963190 136.799648 158.571079 0
111.488457 136.868468 158.596232 0
106.997789 136.768564 158.560321 0
102.530818 136.713174 158.547825 0
143.439175 135.731865 163.887758 0
139.091615 136.746370 164.252850 0
134.502207 136.759318 164.214062 0
129.948952 136.842647 164.210689 0
125.381577 136.781978 164.154880 0
120.846685 136.783443 164.131016 0
116.339306 136.836991 164.134931 0
111.833720 136.819302 164.116099 0
107.333274 136.741924 164.079215 0
102.737489 135.994077 163.774220 0
148.546466 135.753020 169.623875 0
144.164619 136.735759 169.968667 0
139.547868 136.784626 169.925342 0
134.941827 136.793405 169.872316 0
130.353355 136.790647 169.821619 0
125.792681 136.825797 169.794103 0
121.256204 136.892322 169.786946 0
116.699907 136.778742 169.710721 0
112.182022 136.769317 169.685534 0
107.493258 135.708588 169.223112 0
149.295846 136.726459 175.774046 0
144.634412 136.748491 175.698220 0
140.003832 136.804506 175.645197 0
135.385735 136.827812 175.585782 0
130.788487 136.854395 175.535629 0
126.209120 136.875987 175.491068 0
121.630850 136.816851 175.419021 0
117.064441 136.722915 175.339480 0
112.354035 135.768411 174.892463 0
154.202930 135.729460 181.227985 0
149.823007 136.871738 181.634510 0
145.130253 136.841725 181.521163 0
140.480220 136.886860 181.450290 0
135.857101 136.956883 181.399148 0
131.226990 136.914242 181.305780 0
126.613102 136.851634 181.211856 0
122.009824 136.744323 181.106200 0
117.300086 136.006223 180.725360 0
150.316245 136.875828 187.492719 0
145.609741 136.854855 187.368565 0
140.932001 136.854162 187.263125 0
136.283769 136.883984 187.181041 0
131.629272 136.800253 187.055437 0
127.011916 136.785666 186.970952 0
122.399619 136.704568 186.864644 0
151.039620 137.685776 193.798297 0
146.101003 136.893126 193.289809 0
141.398103 136.858669 193.154057 0
136.731802 136.879635 193.054666 0
132.045981 136.729533 192.883392 0
127.409591 136.695874 192.777445 0
141.626224 135.921394 198.645520 0
136.967358 135.995383 198.559041 0
132.241493 135.702231 198.302568 0
-146.293096 30.057435 -0.510100 7
-140.249677 30.091830 -2.126984 7
-134.520754 29.983692 -3.603477 7
-129.091916 29.731751 -4.942325 7
-123.729689 29.518695 -6.296074 7
-118.595130 29.205648 -7.552454 7
-103.730052 37.469423 -15.669578 8
-99.184409 36.986546 -16.707114 8
-94.765433 36.463786 -17.702740 8
-90.364339 35.996738 -18.732547 8
-86.063691 35.508017 -19.735929 8
-81.915346 34.943513 -20.672114 8
-77.859684 34.354708 -21.582294 8
-73.822547 33.812257 -22.520897 8
-69.982193 33.133648 -23.350272 8
-66.085740 32.573088 -24.262889 8
-65.161614 28.896283 -22.863242 8
-56.519443 33.579771 -27.633456 9
-50.201354 35.953778 -30.655368 9
-45.114239 37.109409 -32.758407 9
-41.253004 36.970637 -33.909525 9
-37.907547 36.294242 -34.669592 9
-34.514002 35.726783 -35.504406 9
-31.309309 34.980313 -36.210756 9
-28.071554 34.321896 -36.977465 9
-24.845729 33.697493 -37.766089 9
-21.755916 32.944022 -38.464776 9
-18.653514 32.251533 -39.204844 9
-15.635758 31.488640 -39.897084 9
-12.696668 30.657533 -40.544315 9
-9.721051 29.917789 -41.253589 9
-6.841699 29.078957 -41.898465 9
-4.009143 28.207221 -42.523874 9
-1.249361 27.259069 -43.102372 9
1.481954 26.297591 -43.675833 9
