ply
format ascii 1.0
element vertex 1380
property float x
property float y
property float z
property int scalar_Label
end_header
-64.524512 33.689166 -21.915631 8
-58.878653 33.296918 -23.234062 9
-56.973688 36.852771 -22.925809 9
-53.834917 39.137359 -23.149738 9
-50.687175 41.430304 -23.375432 9
-47.491498 43.695094 -23.618918 9
-43.572238 45.297044 -24.158291 9
-37.902048 45.326727 -25.405115 9
-30.725330 44.102406 -27.240847 9
-22.730413 42.315699 -29.373125 9
-14.512542 40.525349 -31.557124 9
-5.169758 37.969281 -34.146931 9
5.778512 34.299671 -37.319518 9
16.988249 30.694463 -40.538963 9
-93.397524 139.737645 5.942599 3
-91.859390 142.176001 6.084228 3
-89.730404 144.190863 6.008003 3
-84.688628 144.199745 4.878467 3
-79.444430 144.170896 3.694858 3
-74.119113 144.192290 2.501825 3
-68.602236 144.194226 1.260680 3
-61.849018 143.519458 -0.393718 3
-147.564023 -25.062224 -11.733417 7
-143.491438 -24.682662 -12.491935 7
-139.394835 -24.277631 -13.251330 7
-135.260568 -23.870446 -14.019083 7
-131.108318 -23.424650 -14.783873 7
-126.938053 -22.940288 -15.545730 7
-122.751015 -22.415284 -16.303998 7
-117.617810 -23.350651 -17.549857 7
-147.204713 30.690416 -0.666863 7
-143.291459 30.710601 -1.472237 7
-139.256243 30.624511 -2.324930 7
-135.176278 30.555868 -3.184351 7
-130.984900 30.409803 -4.083206 7
-126.793189 30.351537 -4.965633 7
-122.434728 30.147476 -5.912605 7
-118.041597 29.989193 -6.858671 7
-115.761266 32.736247 -6.789923 8
-113.389975 35.338893 -6.769693 8
-111.026720 37.932905 -6.750454 8
-108.231904 39.969230 -6.932577 8
-104.486332 40.845686 -7.543582 8
-99.696842 40.521641 -8.611003 8
-94.854500 40.238622 -9.682390 8
-89.808360 39.823627 -10.823515 8
-84.727601 39.479522 -11.958957 8
-79.343187 38.907822 -13.203987 8
-73.894540 38.386084 -14.453738 8
-68.175316 37.695940 -15.794558 8
-54.614997 28.952123 -20.368477 9
-58.854574 38.863542 -17.533362 9
-55.573206 40.950639 -17.818904 9
-52.414659 43.182302 -18.051277 9
-49.182784 45.362717 -18.310233 9
-45.741764 47.368290 -18.648658 9
-41.351538 48.526326 -19.354555 9
-35.156965 48.113807 -20.750157 9
-28.205210 47.158523 -22.413217 9
-21.045789 46.176991 -24.126628 9
-13.524424 45.045326 -25.947303 9
-5.317233 43.508148 -27.993768 9
3.294486 41.827486 -30.155393 9
13.037622 39.436126 -32.696997 9
23.853824 36.431617 -35.587349 9
36.578153 32.217703 -39.120010 9
-38.166129 98.799999 -10.305869 3
-42.975283 106.671632 -7.762760 3
-47.610446 114.210698 -5.321780 3
-81.152726 141.608275 7.128712 3
-79.595970 144.124427 7.276194 3
-74.380045 144.204839 6.170617 3
-68.871058 144.196425 4.984225 3
-62.031577 143.450223 3.369896 3
-146.392765 -26.495832 -7.724408 7
-142.212746 -26.295219 -8.518470 7
-138.018679 -26.042730 -9.306111 7
-133.800630 -25.756751 -10.092811 7
-129.547737 -25.455597 -10.884218 7
-125.284074 -25.096992 -11.667523 7
-120.975145 -24.738906 -12.460610 7
-117.674756 -22.679689 -12.730515 7
-146.826295 30.557424 3.180096 7
-142.946940 30.621740 2.415516 7
-139.061560 30.752840 1.661812 7
-135.047590 30.767954 0.859850 7
-130.957801 30.753354 0.036508 7
-126.813835 30.744288 -0.797224 7
-122.608828 30.733705 -1.644067 7
-118.316578 30.688978 -2.515458 7
-116.018018 33.382768 -2.469974 8
-113.544209 35.824322 -2.507879 8
-111.235554 38.463985 -2.475773 8
-108.464277 40.505472 -2.650097 8
-104.793791 41.450639 -3.212635 8
-100.289241 41.444934 -4.122888 8
-95.501684 41.196059 -5.136572 8
-90.702705 41.034981 -6.136652 8
-85.764700 40.815850 -7.176327 8
-80.729723 40.592294 -8.237042 8
-75.568093 40.336102 -9.330115 8
-70.229894 39.999949 -10.474542 8
-64.710959 39.588223 -11.670365 8
-58.544231 38.632056 -13.100085 9
-56.821528 42.271474 -12.768989 9
-53.599907 44.400533 -13.025211 9
-50.397409 46.570575 -13.270518 9
-47.125935 48.697664 -13.538495 9
-43.218759 50.261617 -14.041466 9
-37.823917 50.525016 -15.090313 9
-31.399602 49.975232 -16.500935 9
-24.700632 49.322814 -17.987266 9
-17.871905 48.703218 -19.494589 9
-10.684101 47.928532 -21.104643 9
-3.069507 46.958687 -22.838720 9
4.943600 45.834766 -24.683448 9
13.365936 44.564785 -26.639560 9
22.696634 42.780409 -28.877400 9
32.349321 40.964197 -31.187690 9
-38.790149 99.128275 -5.864331 3
-43.574984 106.964646 -3.435028 3
-48.148724 114.443557 -1.115632 3
-52.501356 121.572704 1.093271 3
-56.640467 128.371850 3.196923 3
-69.794992 140.994676 8.223094 3
-68.248143 143.619436 8.389629 3
-62.173582 143.356458 7.094446 3
-148.624726 -29.571625 -3.335656 7
-145.464802 -27.466739 -3.568246 7
-141.265528 -27.292482 -4.348580 7
-136.982905 -27.190156 -5.158150 7
-132.705036 -26.996919 -5.950691 7
-128.380273 -26.805039 -6.752758 7
-124.017466 -26.596759 -7.559453 7
-119.632512 -26.344203 -8.362705 7
-148.695887 27.819238 6.979254 7
-146.179108 29.999437 6.883018 7
-142.288186 30.046903 6.138021 7
-138.457575 30.261649 5.434519 7
-134.539741 30.417946 4.703457 7
-130.504144 30.477878 3.932117 7
-126.425511 30.555768 3.155467 7
-122.270682 30.607304 2.359135 7
-118.096413 30.713858 1.568703 7
-115.893699 33.520018 1.644042 8
-113.500911 36.050184 1.632888 8
-111.120576 38.579773 1.623858 8
-108.405294 40.675455 1.471950 8
-104.783271 41.664099 0.945676 8
-100.251294 41.609469 0.055824 8
-95.675243 41.594227 -0.835733 8
-91.067360 41.633411 -1.723930 8
-86.242615 41.518133 -2.682084 8
-81.397501 41.478443 -3.630878 8
-76.395427 41.365240 -4.623522 8
-71.187382 41.134364 -5.677445 8
-65.915348 40.944617 -6.736664 8
-58.192045 38.357450 -8.701199 9
-57.634731 43.155229 -7.952712 9
-54.361150 45.201475 -8.224355 9
-51.131123 47.314788 -8.475755 9
-47.924566 49.473973 -8.714606 9
-44.216734 51.192473 -9.129910 9
-39.399223 51.946315 -9.933638 9
-33.391260 51.723338 -11.143696 9
-26.988915 51.279041 -12.470268 9
-20.582957 50.965440 -13.774456 9
-13.805266 50.472176 -15.183334 9
-6.776315 49.914439 -16.652899 9
0.605629 49.220404 -18.215791 9
-6.152792 59.816888 -15.010483 4
-24.368224 78.952982 -8.050199 1
-22.503611 82.263559 -7.824553 1
-39.408740 99.453861 -1.466693 3
-44.103903 107.207739 0.829232 3
-48.688568 114.678931 3.053107 3
-52.988371 121.756309 5.151147 3
-57.108057 128.528498 7.159574 3
-61.041401 135.003628 9.078628 3
-59.421580 137.696417 9.240833 3
-3.036541 105.466543 -7.498720 2
-2.420487 109.539435 -6.895638 2
-148.636333 -28.732200 1.312641 7
-144.984558 -27.592581 0.820618 7
-140.696334 -27.592670 0.016532 7
-136.321031 -27.663416 -0.815632 7
-131.969237 -27.602761 -1.620931 7
-127.590725 -27.502959 -2.424395 7
-123.162874 -27.401763 -3.236654 7
-118.665117 -27.330187 -4.066809 7
-148.604646 28.156612 10.940509 7
-145.208013 28.932004 10.436161 7
-141.421020 29.151247 9.764676 7
-137.596505 29.382954 9.088466 7
-133.683850 29.554209 8.385703 7
-129.792262 29.828826 7.704592 7
-125.771774 29.991098 6.980513 7
-121.636024 30.069394 6.220829 7
-117.365881 30.045647 5.418905 8
-115.523517 33.329189 5.632031 8
-113.215930 35.959963 5.647646 8
-110.811788 38.447143 5.621040 8
-105.951810 37.855196 4.613256 8
-104.305504 41.304547 4.891901 8
-99.903846 41.401675 4.087081 8
-95.418150 41.484882 3.264408 8
-90.844746 41.553886 2.423152 8
-86.178304 41.606712 1.561991 8
-81.402320 41.629357 0.675469 8
-76.449103 41.553586 -0.260628 8
-71.509952 41.592127 -1.174461 8
-66.454324 41.605890 -2.114012 8
-59.017915 39.286313 -3.893925 9
-58.046831 43.636343 -3.334277 9
-54.756658 45.642620 -3.605268 9
-51.527285 47.733590 -3.850312 9
-48.344272 49.892378 -4.074970 9
-44.802817 51.742131 -4.418772 9
-40.337652 52.790093 -5.070856 9
-34.469981 52.660206 -6.184378 9
-28.422830 52.491500 -7.337687 9
-22.231605 52.321427 -8.517805 9
-15.735485 52.020564 -9.776698 9
-12.188903 54.272047 -10.051676 4
-25.022977 69.725916 -5.029268 1
-25.129482 74.656110 -4.167814 1
-24.734557 79.120324 -3.478863 1
-34.196187 90.976570 0.303425 3
-40.042199 99.791739 2.894993 3
-44.737707 107.528189 5.088820 3
-49.212406 114.904291 7.180257 3
-53.483217 121.946727 9.176993 3
-53.416669 125.854452 9.832967 3
-51.740703 128.637661 9.998159 3
-8.602207 104.368918 -2.156644 2
-4.385091 106.104033 -2.641786 2
-4.166366 110.396277 -1.947471 2
3.011572 110.388512 -3.279639 2
-148.687644 -27.823722 5.938086 7
-144.808276 -27.149391 5.339588 7
-140.436789 -27.325828 4.516932 7
-136.031530 -27.469357 3.693999 7
-131.611676 -27.545624 2.879750 7
-127.143299 -27.614377 2.058526 7
-122.606785 -27.706058 1.221934 7
-118.145058 -27.581826 0.433948 7
-147.685733 27.163219 14.513112 7
-143.980372 27.463433 13.891223 7
-140.250388 27.790409 13.269702 7
-136.475024 28.113589 12.639928 7
-132.572173 28.314760 11.968198 7
-128.699911 28.631697 11.321054 7
-124.705610 28.844422 10.635803 7
-120.665776 29.067569 9.944584 7
-117.381315 30.386949 9.565472 8
-114.913850 32.819884 9.512329 8
-112.606958 35.447802 9.519875 8
-110.221996 37.955921 9.494740 8
-107.252255 39.720104 9.245777 8
-103.459082 40.493972 8.690612 8
-99.143434 40.698552 7.950869 8
-94.744289 40.885471 7.193912 8
-90.245711 41.040425 6.414598 8
-85.620252 41.137429 5.603849 8
-81.015328 41.346108 4.815362 8
-76.199685 41.412517 3.966897 8
-71.284424 41.466407 3.099237 8
-66.348258 41.594073 2.240375 8
-59.179403 39.535478 0.630882 9
-58.054140 43.711453 1.106710 9
-54.857936 45.794410 0.875809 9
-51.650886 47.889694 0.645592 9
-48.372853 49.941465 0.396323 9
-44.956718 51.891853 0.106698 9
-36.631158 49.420896 -1.771486 9
-34.943650 53.059376 -1.478972 9
-29.048365 52.999939 -2.532987 9
-22.993021 52.920270 -3.618003 9
-16.889452 52.920143 -4.697952 9
-14.899525 56.415472 -4.479726 4
-25.565873 70.072114 -0.365537 1
-25.596493 74.921517 0.432066 1
-25.108514 79.294433 1.060849 1
-35.372208 91.744071 4.908548 3
-40.610206 100.082361 7.197502 3
-45.286594 107.788331 9.284452 3
-46.948638 113.149230 10.456448 3
-45.193774 116.023484 10.619347 3
-11.499452 97.123694 1.586386 2
-11.183155 101.406716 2.234983 2
-8.924823 104.370900 2.325856 2
-4.783939 106.137612 1.889432 2
-4.513973 110.382587 2.541749 2
2.877817 110.224572 1.218529 2
-148.644951 -27.103403 10.477464 7
-145.102097 -25.829060 10.042445 7
-140.683220 -26.135589 9.218834 7
-136.275743 -26.323013 8.416002 7
-131.779530 -26.571696 7.589483 7
-127.202481 -26.861037 6.743757 7
-122.676403 -26.964707 5.935745 7
-148.689071 23.008482 17.959244 7
-146.101756 25.106319 17.821503 7
-142.447792 25.519957 17.246244 7
-138.738586 25.908839 16.658556 7
-134.950182 26.240834 16.049459 7
-131.140179 26.606462 15.442579 7
-127.340931 27.052557 14.850591 7
-123.366269 27.314231 14.201358 7
-119.387535 27.641672 13.562265 7
-116.496747 29.509520 13.344632 8
-114.124732 32.072710 13.322546 8
-111.905022 34.814811 13.354719 8
-109.367220 37.127564 13.268050 8
-106.279441 38.748271 12.982833 8
-102.259263 39.252183 12.368927 8
-97.987825 39.522565 11.677377 8
-93.698086 39.849204 10.992195 8
-89.247840 40.068148 10.264098 8
-84.677655 40.234425 9.508432 8
-80.156345 40.540823 8.783464 8
-75.466481 40.746755 8.015377 8
-70.571322 40.822274 7.193354 8
-65.668237 40.983975 6.384176 8
-58.695058 39.124549 4.914246 9
-57.799799 43.524206 5.438119 9
-54.615867 45.608814 5.219039 9
-51.446666 47.730036 5.009108 9
-48.267282 49.863832 4.800413 9
-44.814483 51.767544 4.511027 9
-40.384638 52.818125 3.925909 9
-34.876745 52.978038 3.022232 9
-29.125390 53.030578 2.061951 9
-23.227588 53.069441 1.075959 9
-17.223161 53.133527 0.077027 9
-15.464481 56.799260 0.352283 4
-24.388039 69.034667 3.755162 1
-22.495964 72.374969 3.959455 1
-20.593010 75.691942 4.159320 1
-36.209189 92.256522 9.361733 3
-39.998638 99.499423 11.129471 3
-38.231927 102.526606 11.309707 3
-19.821069 93.703627 6.854639 3
-13.782918 93.983214 5.893156 3
-11.081588 96.652713 5.864406 3
-9.667628 100.198426 6.188920 2
-8.729044 104.035419 6.639427 2
-4.876452 105.976799 6.307493 2
-3.381476 109.444050 6.609214 2
2.358533 110.298002 5.794119 2
-148.705756 -26.191007 15.025895 7
-146.045273 -23.301698 14.972171 7
-141.583761 -23.756810 14.148894 7
-137.052406 -24.232413 13.312310 7
-132.442585 -24.739088 12.459513 7
-127.824070 -25.152430 11.619684 7
-123.201016 -25.468472 10.794110 7
-147.714051 21.921008 21.551360 7
-144.187519 22.526569 21.042284 7
-140.546876 23.004802 20.497454 7
-136.905241 23.539074 19.961595 7
-133.168772 23.987417 19.399061 7
-129.342417 24.364675 18.812784 7
-125.505541 24.791604 18.233046 7
-121.677337 25.294532 17.666779 7
-117.659532 25.597903 17.042093 7
-115.341911 28.267844 17.035887 8
-111.220947 28.528535 16.390684 8
-110.917178 33.811334 17.091157 8
-108.236713 35.949444 16.953376 8
-104.840735 37.197166 16.572169 8
-100.753726 37.638469 15.963551 8
-96.455406 37.896834 15.295414 8
-92.239390 38.329984 14.667123 8
-87.829402 38.613017 13.986910 8
-83.359030 38.908104 13.299919 8
-78.844901 39.235946 12.611871 8
-74.189032 39.491610 11.891723 8
-69.486284 39.783206 11.170531 8
-64.642526 40.013938 10.419060 8
-57.775323 38.268995 9.055016 9
-57.282583 43.073594 9.673806 9
-54.118455 45.172422 9.469314 9
-50.990739 47.328008 9.280382 9
-47.844952 49.487212 9.090495 9
-44.305399 51.303808 8.788687 9
-39.831715 52.309346 8.219680 9
-30.390638 48.966786 6.218537 9
-28.714663 52.636175 6.491439 9
-22.916818 52.752858 5.584434 9
-16.977502 52.861982 4.655267 9
-14.853208 56.217814 4.814907 4
-21.594281 66.696356 7.440197 1
-21.160733 71.219223 8.044327 1
-14.936183 71.204374 7.057407 1
-12.126057 73.896732 7.015643 1
-28.805494 91.064957 12.216034 3
-25.754075 93.316634 12.073107 3
-19.899895 93.599921 11.194928 3
-13.907764 93.896742 10.298506 3
-8.641840 94.801635 9.609146 3
-8.527617 99.240118 10.262448 2
-7.381366 102.946886 10.644877 2
-2.493569 104.231878 10.076519 2
4.424289 104.323285 9.011257 2
-147.941401 -19.008046 20.204690 7
-143.299322 -19.903290 19.324852 7
-138.707698 -20.585744 18.482530 7
-131.390055 -25.907448 16.596043 7
-149.746035 12.860793 24.613495 7
-148.159888 16.759615 24.860518 7
-144.941945 17.904486 24.486081 7
-141.791933 19.185580 24.142035 7
-138.185160 19.776399 23.635711 7
-134.539115 20.360549 23.123826 7
-130.884292 20.986212 22.617620 7
-127.124290 21.511705 22.083045 7
-123.316925 22.028370 21.541394 7
-119.453484 22.526786 20.990058 7
-116.232503 23.972022 20.667824 8
-114.054741 26.849254 20.702631 8
-111.941148 29.779561 20.756349 8
-109.625725 32.415631 20.740721 8
-106.711039 34.271039 20.528217 8
-102.909877 35.035713 20.032217 8
-98.775711 35.450500 19.438789 8
-94.572492 35.853879 18.834711 8
-90.311592 36.262557 18.224042 8
-86.005345 36.693172 17.610980 8
-81.573615 37.057049 16.971118 8
-77.051467 37.399705 16.316098 8
-72.434241 37.720372 15.645132 8
-67.771993 38.076600 14.973824 8
-59.622501 34.886925 13.283265 9
-59.453531 40.064961 13.965662 9
-53.914522 39.769946 13.075906 9
-53.338803 44.458998 13.632531 9
-50.237708 46.640038 13.459812 9
-44.430748 46.287674 12.526710 9
-43.419611 50.491558 12.955495 9
-38.763391 51.333052 12.366350 9
-33.379307 51.602872 11.589295 9
-27.782144 51.786858 10.769934 9
-22.119156 52.020190 9.949434 9
-16.204749 52.148926 9.078341 9
-12.993448 54.610847 8.943090 4
-12.624655 59.384259 9.561554 4
-19.385597 69.715893 12.033739 1
-15.037999 71.166354 11.591315 1
-8.865119 71.296006 10.691216 1
-7.219266 74.904518 10.961637 1
-9.495422 81.345084 12.220437 1
-12.951606 88.490315 13.756786 3
-11.058173 91.735566 13.944104 3
-6.549142 93.185609 13.488829 3
-4.270755 96.195860 13.589198 3
2.321993 96.384739 12.648690 3
5.513582 98.879093 12.543871 2
15.541890 97.114710 10.819495 3
143.122640 23.415765 -18.593150 6
-149.644597 -15.095674 25.235197 7
-149.993986 -7.000339 26.251479 7
-149.986374 0.173390 27.103672 7
-150.007982 7.156078 27.939809 7
-148.094417 10.614994 28.051924 7
-144.756124 11.628664 27.649319 7
-141.339488 12.548327 27.225185 7
-137.906358 13.480336 26.801996 7
-134.383186 14.311081 26.354613 7
-130.817069 15.120721 25.900062 7
-127.180010 15.870718 25.429360 7
-123.490212 16.593438 24.949274 7
-119.967937 17.608287 24.532638 7
-116.675107 18.986352 24.197657 8
-114.495156 21.922083 24.225758 8
-112.532144 25.115529 24.320662 8
-110.502366 28.176917 24.391217 8
-105.655849 27.556898 23.582326 8
-104.540569 31.777332 23.938739 8
-100.585797 32.388495 23.421238 8
-96.464571 32.859469 22.863376 8
-92.284689 33.329736 22.298756 8
-88.054952 33.812308 21.730362 8
-83.703513 34.226726 21.137435 8
-79.306301 34.665212 20.542909 8
-74.824952 35.086942 19.935993 8
-70.226745 35.460457 19.307919 8
-65.637092 35.924683 18.694853 8
-59.293704 34.644023 17.604226 9
-58.284838 38.954916 18.011491 9
-55.412515 41.336102 17.901527 9
-52.272295 43.464191 17.722243 9
-49.240602 45.717274 17.577074 9
-46.016741 47.805938 17.385050 9
-42.122413 49.298718 17.021141 9
-37.272725 49.973619 16.415475 9
-31.913058 50.277060 15.690391 9
-26.473353 50.609333 14.959981 9
-20.756995 50.804824 14.174467 9
-14.990771 51.065981 13.392929 9
-9.753623 51.869268 12.760718 4
-9.104170 56.456236 13.283170 4
-15.962089 66.910485 15.650154 1
-14.976210 71.002316 16.063526 1
-8.742664 71.072681 15.202310 1
-2.296139 71.104299 14.308444 1
4.795959 70.790183 13.280088 1
11.083963 71.190903 12.463236 1
2.984827 81.754893 15.032100 1
73.069308 38.546384 -0.582312 5
6.100217 89.052625 15.609280 3
8.083508 92.395124 15.800471 3
99.637467 38.251491 -4.269767 5
124.282381 28.579998 -8.987040 6
135.036713 28.039490 -10.528502 6
146.569348 27.245045 -12.208424 6
-143.487087 -3.571709 29.779571 7
-141.867666 0.605663 29.992386 7
-139.211780 2.958571 29.850324 7
-136.268104 4.821663 29.613341 7
-133.136609 6.386219 29.317599 7
-129.871949 7.757507 28.982956 7
-126.487254 8.969152 28.615124 7
-123.050365 10.133961 28.236787 7
-119.518410 11.193931 27.835127 7
-116.149411 12.526570 27.490618 8
-114.463923 16.248642 27.665234 8
-112.738479 19.849291 27.822730 8
-110.822390 23.132746 27.918880 8
-108.539497 25.885549 27.903760 8
-105.545069 27.693980 27.680189 8
-101.676691 28.409075 27.207683 8
-97.643783 28.977832 26.697187 8
-93.576366 29.569500 26.186904 8
-89.403949 30.101153 25.657212 8
-85.208562 30.674846 25.131688 8
-80.906364 31.194639 24.587307 8
-76.592333 31.773206 24.050725 8
-72.153556 32.285422 23.491402 8
-67.624959 32.775754 22.919535 8
-59.639419 29.677446 21.442603 9
-58.789374 34.218342 21.869445 9
-56.915692 37.640766 22.023463 9
-53.920953 39.910929 21.887164 9
-50.916017 42.185315 21.752603 9
-48.014237 44.574074 21.648644 9
-44.704190 46.589494 21.446260 9
-36.769166 44.353696 20.099147 9
-35.329949 48.204009 20.380344 9
-29.990274 48.545022 19.706004 9
-20.560192 45.415681 18.055538 9
-19.044355 49.289491 18.337553 9
-13.283048 49.568819 17.607426 9
-7.382245 49.840190 16.860590 9
-3.493480 51.842326 16.601013 4
-1.797636 55.620104 16.858271 4
-10.224893 67.208630 19.442034 1
-8.849473 71.023679 19.751581 1
24.311821 51.180676 12.879155 9
31.141768 51.442424 12.026760 9
38.186816 51.678599 11.146201 9
58.971155 42.444663 7.261382 9
73.174193 38.242187 4.885006 5
81.494845 38.312433 3.828089 5
89.952408 38.452097 2.766166 5
98.790451 38.508322 1.648056 5
121.877411 29.774915 -2.448617 6
131.731437 29.735057 -3.701480 6
142.302751 29.453470 -5.073812 6
-113.564700 -17.110777 28.229700 8
-115.567336 -7.192916 29.526893 8
-115.794373 -0.245673 30.271189 8
-114.920077 4.893787 30.677125 8
-113.649500 9.341541 30.958884 8
-109.706550 9.951649 30.471809 8
-110.367362 16.937441 31.292636 8
-108.161991 19.875550 31.295673 8
-105.146995 21.714846 31.074408 8
-101.469814 22.711628 30.676135 8
-97.672846 23.603649 30.253245 8
-93.821899 24.480825 29.824309 8
-89.914354 25.343064 29.389002 8
-85.841793 26.064256 28.919190 8
-81.714690 26.784144 28.444842 8
-77.551629 27.526641 27.971088 8
-73.201754 28.123445 27.459559 8
-65.261214 24.833631 26.049666 8
-59.663479 24.299383 25.255080 9
-58.171092 28.236565 25.497080 9
-57.942539 33.436509 26.047651 9
-55.131694 35.904104 25.960050 9
-52.283783 38.340598 25.867186 9
-49.403657 40.753659 25.770556 9
-46.388443 43.046864 25.646026 9
-42.803671 44.818546 25.392296 9
-38.173114 45.659770 24.901944 9
-33.044390 46.123366 24.308076 9
-27.749013 46.529468 23.689644 9
-22.267375 46.868172 23.043121 9
-16.706222 47.238771 22.393562 9
-11.054339 47.634267 21.738839 9
-5.112754 47.893985 21.035385 9
0.853830 48.243797 20.342825 9
6.917108 48.626575 19.645624 9
13.126467 49.007014 18.933601 9
19.603593 49.297936 18.181499 9
26.255502 49.579120 17.410411 9
32.943065 49.958138 16.650413 9
40.058661 50.154689 15.819966 9
66.406571 37.032957 11.042592 5
74.298233 37.240455 10.127940 5
82.374217 37.473086 9.198307 5
90.683789 37.704295 8.244677 5
99.314234 37.885702 7.250796 5
109.752843 37.092312 5.924573 5
131.087585 29.797199 2.496439 6
141.037160 29.860950 1.345283 6
-110.347218 -14.647705 32.448981 8
-112.007793 -5.434908 33.531153 8
-111.862715 0.855166 34.100410 8
-111.020967 5.980103 34.470232 8
-109.632032 10.217589 34.686639 8
-107.594318 13.480719 34.727830 8
-104.770821 15.643451 34.563659 8
-101.070414 16.651815 34.176980 8
-97.173525 17.453167 33.747976 8
-93.259066 18.288039 33.323242 8
-89.216531 19.019784 32.875231 8
-85.144312 19.776333 32.429177 8
-81.013015 20.523665 31.978023 8
-76.769044 21.202188 31.509105 8
-72.534991 21.958893 31.052636 8
-68.308155 22.788877 30.607844 8
-59.584253 18.728135 29.110717 9
-58.643592 23.330699 29.464440 9
-58.574450 28.779860 30.015856 9
-55.792796 31.300780 29.936163 9
-53.142832 33.959376 29.890254 9
-50.374926 36.499187 29.821079 9
-47.563845 39.001285 29.746174 9
-44.289236 41.064658 29.572719 9
-40.328083 42.505402 29.254551 9
-35.256585 42.969127 28.703464 9
-30.085956 43.432202 28.144092 9
-24.783667 43.869465 27.569977 9
-19.352099 44.288356 26.982305 9
-13.834033 44.730569 26.390724 9
-8.205695 45.178982 25.790696 9
-2.367995 45.556028 25.162303 9
3.529360 45.991059 24.537261 9
9.619167 46.380377 23.888884 9
15.941740 46.700244 23.210033 9
22.319547 47.094658 22.537265 9
28.757283 47.560986 21.869880 9
35.590522 47.855585 21.142405 9
43.457338 47.538462 20.232948 9
68.608863 35.277015 16.019358 5
76.361814 35.593941 15.205071 5
84.270130 35.950821 14.382802 5
92.548690 36.211035 13.513006 5
100.997087 36.517086 12.634697 5
123.025858 28.423254 9.279863 6
132.232615 28.758072 8.332464 6
141.882645 28.997535 7.330707 6
-106.540537 -6.469277 37.057372 8
-106.574302 0.034556 37.613557 8
-104.870284 3.935417 37.731600 8
-101.844274 5.956931 37.525784 8
-98.473633 7.522302 37.241204 8
-94.951042 8.913235 36.926308 8
-91.344620 10.229468 36.598264 8
-87.611788 11.423425 36.247689 8
-83.736018 12.483723 35.871597 8
-79.828302 13.554996 35.496403 8
-75.790317 14.521748 35.099927 8
-71.687543 15.468742 34.697736 8
-67.513083 16.391613 34.288670 8
-59.578943 13.153495 33.057062 9
-57.820500 16.937518 33.204094 9
-58.502387 23.311456 33.881023 9
-55.949923 26.115080 33.851797 9
-53.429775 28.944672 33.832607 9
-50.767688 31.621916 33.786521 9
-48.164991 34.357531 33.756647 9
-45.215667 36.751029 33.658402 9
-41.486459 38.406339 33.404594 9
-36.862529 39.258901 32.976123 9
-31.723375 39.708167 32.454614 9
-26.544772 40.212230 31.938186 9
-21.223571 40.679925 31.406505 9
-15.795590 41.148445 30.867335 9
-10.260263 41.621264 30.321079 9
-4.626347 42.109617 29.769947 9
1.075887 42.641777 29.220210 9
6.986021 43.106984 28.645641 9
13.157471 43.471443 28.037188 9
19.287937 43.980215 27.452585 9
25.658464 44.416257 26.839560 9
32.173295 44.860290 26.216838 9
38.825910 45.321961 25.586280 9
64.497282 32.304680 21.545051 5
71.914617 32.746261 20.843651 5
83.921293 30.174157 19.349519 5
87.438567 33.571660 19.379444 5
95.565975 33.957652 18.615158 5
103.887237 34.368988 17.839502 5
126.265968 26.065784 14.685903 6
135.352195 26.499033 13.847873 6
144.805916 26.878445 12.973104 6
-73.293361 -0.181349 37.987470 8
-70.588642 2.582885 37.904720 8
-67.307320 4.649580 37.704363 8
-58.881468 0.730891 36.439902 9
-58.212748 5.935780 36.799001 9
-55.839158 9.127418 36.805940 9
-57.666005 16.919433 37.665535 9
-55.741078 20.463521 37.759997 9
-53.198948 23.318257 37.732965 9
-50.654769 26.162065 37.709058 9
-48.155313 29.043936 37.697518 9
-45.410686 31.672752 37.642089 9
-42.000367 33.651543 37.463431 9
-37.460145 34.572274 37.076711 9
-27.717732 30.657061 35.719959 9
-27.413437 35.728895 36.154706 9
-22.219363 36.280617 35.680458 9
-16.940744 36.846833 35.203472 9
-11.497968 37.361039 34.709655 9
-5.979062 37.905493 34.215659 9
-0.331662 38.438604 33.712471 9
5.405513 38.997107 33.207550 9
11.310156 39.521199 32.687662 9
17.340942 40.050088 32.160775 9
23.544325 40.552168 31.619455 9
30.069351 40.920593 31.039011 9
36.552675 41.439170 30.482482 9
44.653817 40.892535 29.670997 9
69.123056 28.795444 26.157278 5
76.349844 29.420608 25.557834 5
83.886833 29.961987 24.926531 5
91.788689 30.394333 24.255917 5
99.821595 30.885248 23.585144 5
109.879518 30.216539 22.613762 5
131.696930 22.320940 19.817795 6
140.599496 22.921009 19.098436 6
-64.012064 -5.144034 41.141291 9
-63.844272 0.759045 41.555385 9
-62.644996 5.330123 41.768185 9
-60.128976 8.317755 41.731239 9
-59.419070 13.314357 42.035966 9
-57.324321 16.695072 42.081362 9
-55.048654 19.850146 42.095838 9
-52.165441 22.341139 42.002577 9
-50.155995 25.744335 42.072359 9
-46.794074 27.741442 41.902192 9
-43.014750 29.347111 41.664622 9
-38.162022 29.942512 41.246134 9
-33.084991 30.403800 40.799918 9
-27.943829 30.893041 40.354714 9
-22.701568 31.378045 39.904468 9
-17.336898 31.843408 39.446013 9
-11.901251 32.339831 38.988564 9
-6.350568 32.831021 38.525080 9
-0.682386 33.319212 38.055668 9
4.944686 33.941910 37.606874 9
10.681761 34.571228 37.153954 9
22.128863 30.690688 35.794874 9
22.695925 35.699077 36.204165 9
28.864198 36.296130 35.726111 9
35.223509 36.856360 35.233481 9
42.447513 36.884696 34.622409 9
70.095238 22.125848 30.884263 5
75.636842 23.929999 30.595670 5
82.503205 24.885138 30.120421 5
90.111975 25.447558 29.551382 5
97.685127 26.171112 29.007167 5
105.751556 26.703860 28.409926 5
131.259002 16.120013 25.294120 6
139.634941 16.984157 24.718313 6
148.271299 17.835620 24.127128 6
-54.218250 -16.756078 44.027431 9
-56.987383 -7.157726 44.918452 9
-57.167776 -0.843215 45.348904 9
-56.371950 4.213524 45.607568 9
-55.080278 8.620589 45.780740 9
-53.407497 12.539966 45.890107 9
-51.459066 16.112494 45.955096 9
-49.012847 19.122645 45.940133 9
-45.948344 21.477453 45.827614 9
-41.958495 22.902242 45.570150 9
-37.212187 23.619982 45.199013 9
-32.334272 24.285532 44.817588 9
-27.425844 25.002211 44.442510 9
-22.366769 25.657155 44.054999 9
-17.230136 26.324861 43.667113 9
-11.966035 26.962855 43.271468 9
-6.624524 27.621026 42.876291 9
-1.116909 28.224579 42.468434 9
4.527184 28.805908 42.053065 9
10.250543 29.418423 41.639313 9
16.149305 29.985399 41.213295 9
22.311153 30.443040 40.762882 9
28.580052 30.925848 40.311851 9
35.019196 31.388182 39.851561 9
41.612773 31.848319 39.384988 9
73.160463 13.810632 35.404950 5
79.855261 14.801648 34.989506 5
86.745018 15.766040 34.563519 5
93.863709 16.687062 34.123147 5
101.169576 17.601852 33.675047 5
133.125155 2.030230 29.920197 6
139.291190 4.289992 29.693258 6
146.328782 6.074463 29.366505 6
-49.144913 -9.972317 48.706801 9
-50.187121 -2.658461 49.222079 9
-49.566065 2.615120 49.477597 9
-48.095757 6.855990 49.603699 9
-45.801099 10.148315 49.607476 9
-42.473863 12.325321 49.460981 9
-38.164072 13.502705 49.175599 9
-33.633724 14.514383 48.867166 9
-29.040634 15.529968 48.559568 9
-24.361409 16.529182 48.249697 9
-19.480280 17.404635 47.921316 9
-14.522961 18.284932 47.593087 9
-9.458305 19.144257 47.260948 9
-4.228739 19.934932 46.917299 9
1.070472 20.749158 46.575986 9
6.522563 21.516603 46.225891 9
12.101277 22.266211 45.871201 9
17.810097 23.000039 45.511962 9
23.658488 23.715317 45.147446 9
29.653247 24.411904 44.777320 9
35.819334 25.075571 44.398910 9
42.104297 25.753617 44.019721 9
100.390116 -0.415152 37.993300 5
-11.557586 -1.851832 50.956444 9
-9.027075 1.565605 50.971181 9
-5.382337 3.897093 50.849074 9
-1.162875 5.713422 50.662219 9
3.337235 7.317644 50.449516 9
7.980262 8.849242 50.229108 9
12.966646 10.136710 49.976781 9
18.116425 11.354072 49.715757 9
23.503240 12.445602 49.437714 9
29.001529 13.527546 49.158599 9
34.698836 14.532134 48.868434 9
40.538735 15.513391 48.574614 9
-164.990034 144.657699 -33.186150 0
-169.144508 142.328981 -33.587848 0
-173.292996 140.038140 -33.988467 0
-177.434137 137.775979 -34.389372 0
-181.818633 136.218072 -34.690074 0
-186.665043 135.877081 -34.814733 0
-191.602132 135.697190 -34.920692 0
-196.668409 135.757843 -34.996327 0
-201.857920 136.021957 -35.047340 0
-207.259827 136.680146 -35.045766 0
-212.447360 136.718868 -35.141548 0
-217.651393 136.698478 -35.251790 0
-222.934382 136.756360 -35.356330 0
-228.235295 136.753823 -35.475689 0
-233.350583 136.270105 -35.671587 0
-22.752421 5.859863 -50.652915 9
-25.847841 4.830979 -50.756160 9
-28.929136 3.884458 -50.849443 9
-32.019162 3.391604 -50.873315 9
-35.101412 2.874556 -50.904015 9
-38.183555 2.440411 -50.924378 9
-41.260825 1.995829 -50.949320 9
-44.457547 2.880081 -50.763865 9
-125.017014 137.795261 -28.655224 0
-129.169198 135.736183 -28.990007 0
-133.832729 135.698675 -29.002456 0
-138.572541 135.858564 -28.987230 0
-143.540570 136.725843 -28.862051 0
-148.297434 136.728352 -28.880779 0
-153.078163 136.722834 -28.905120 0
-157.898811 136.757570 -28.927325 0
-162.727832 136.728505 -28.964221 0
-167.597214 136.733330 -29.000099 0
-172.505493 136.761394 -29.036730 0
-177.442507 136.778953 -29.079604 0
-182.398452 136.757141 -29.133413 0
-187.413592 136.801945 -29.181169 0
-192.437557 136.775882 -29.245031 0
-197.515244 136.793080 -29.306725 0
-202.622742 136.789081 -29.376664 0
-207.783850 136.818325 -29.446193 0
-212.976150 136.823699 -29.524533 0
-218.213882 136.835598 -29.606893 0
-223.490382 136.835841 -29.696256 0
-228.792727 136.794702 -29.797433 0
-234.250171 136.979280 -29.867982 0
-241.237145 140.143599 -29.470553 0
45.071078 -3.945178 -50.624913 9
41.700946 -5.235282 -50.719714 9
38.517953 -5.644411 -50.672809 9
35.349932 -6.070492 -50.631840 9
32.200366 -6.489717 -50.592831 9
29.080549 -6.816565 -50.541515 9
25.983428 -7.079089 -50.482431 9
22.885991 -7.445375 -50.443536 9
19.806700 -7.772896 -50.401059 9
16.747414 -8.026609 -50.349058 9
13.697582 -8.290813 -50.301584 9
10.654763 -8.591835 -50.263040 9
7.624654 -8.858725 -50.221482 9
4.606623 -9.076811 -50.174379 9
1.596503 -9.286954 -50.128568 9
-1.408022 -9.524251 -50.089959 9
-4.404233 -9.716117 -50.046249 9
-7.395886 -9.940205 -50.010562 9
-10.380966 -10.085819 -49.964091 9
-13.363249 -10.349155 -49.940143 9
-16.341194 -10.452057 -49.891396 9
-19.316369 -10.644050 -49.860289 9
-22.288794 -10.839440 -49.832230 9
-25.261451 -10.963352 -49.794408 9
-28.232683 -11.113438 -49.763481 9
-31.201760 -11.299006 -49.741048 9
-34.174930 -11.413398 -49.708827 9
-37.148456 -11.543601 -49.681705 9
-40.129171 -11.608045 -49.645669 9
-43.116437 -11.640299 -49.606455 9
-46.203569 -10.744412 -49.409870 9
-49.515359 -8.058154 -48.907056 9
-53.530539 -0.101763 -47.497675 9
-79.974001 142.024708 -22.900874 3
-84.130422 139.386444 -23.310193 3
-88.638676 139.165032 -23.306005 3
-93.202015 139.208501 -23.259587 3
-97.774254 139.214373 -23.223188 3
-102.351353 139.162822 -23.200258 3
-106.961648 139.198201 -23.165839 3
-111.585035 139.208992 -23.139236 3
-116.223918 139.205159 -23.118746 3
-120.883902 139.208645 -23.100586 3
-125.559931 139.193737 -23.089232 0
-129.632291 136.710872 -23.509077 0
-134.339394 136.746910 -23.496238 0
-139.055972 136.729728 -23.496291 0
-143.813396 136.771883 -23.489761 0
-148.587762 136.782433 -23.492436 0
-153.385865 136.783388 -23.500532 0
-158.215604 136.797251 -23.510186 0
-163.080102 136.828915 -23.520587 0
-167.965969 136.833642 -23.539521 0
-172.893909 136.870020 -23.556885 0
-177.844250 136.877124 -23.583268 0
-182.845998 136.932584 -23.605283 0
-187.835411 136.861810 -23.653170 0
-192.907573 136.914503 -23.683804 0
-198.006920 136.939568 -23.723362 0
-203.131429 136.931145 -23.772903 0
-208.300486 136.934149 -23.824728 0
-213.533541 136.988884 -23.871953 0
-218.758938 136.928739 -23.943356 0
-224.092665 137.010687 -23.994739 0
-229.383066 136.900278 -24.083728 0
-234.808993 136.977259 -24.145086 0
-240.196082 136.873936 -24.242068 0
50.440922 -9.608778 -48.222496 9
46.611855 -13.158289 -48.731038 9
43.302535 -14.437485 -48.845047 9
40.203710 -14.761389 -48.793947 9
37.130022 -15.034802 -48.736607 9
34.087914 -15.204869 -48.663575 9
31.048340 -15.437981 -48.604236 9
28.031732 -15.599706 -48.534721 9
25.021509 -15.794719 -48.473572 9
22.018021 -16.023534 -48.420881 9
19.029895 -16.213429 -48.363654 9
16.054388 -16.374379 -48.303614 9
13.089543 -16.512212 -48.241753 9
10.131114 -16.663134 -48.184529 9
7.179135 -16.824460 -48.131446 9
4.236467 -16.947531 -48.073725 9
1.296827 -17.118074 -48.026779 9
-1.634146 -17.227678 -47.971041 9
-4.563422 -17.411736 -47.930934 9
-7.485308 -17.505896 -47.876731 9
-10.404842 -17.636586 -47.831276 9
-13.321226 -17.754162 -47.785564 9
-16.235335 -17.866378 -47.740983 9
-19.147476 -17.999130 -47.702226 9
-22.058327 -18.121188 -47.663604 9
-24.970242 -18.187771 -47.616932 9
-27.878717 -18.351264 -47.589987 9
-30.790139 -18.448822 -47.553054 9
-33.704933 -18.512633 -47.511974 9
-36.619806 -18.608606 -47.478791 9
-39.538664 -18.684563 -47.443952 9
-42.461967 -18.747655 -47.408754 9
-45.440245 -18.313980 -47.284353 9
-48.541197 -16.916811 -46.984788 9
-51.867383 -13.955849 -46.399303 9
-55.521441 -9.011303 -45.450077 9
-59.786971 -0.509300 -43.846672 9
-84.186847 139.209769 -18.069906 3
-88.740029 139.196021 -18.021975 3
-93.308853 139.193000 -17.975087 3
-97.898781 139.224018 -17.924944 3
-102.498289 139.219084 -17.884465 3
-107.111943 139.201613 -17.849344 3
-111.739450 139.167667 -17.820322 3
-116.396962 139.187800 -17.784371 3
-121.068967 139.184222 -17.755878 3
-125.768750 139.210539 -17.724947 3
-129.852626 136.721394 -18.162560 0
-134.558507 136.698527 -18.147069 0
-139.301959 136.728800 -18.124870 0
-144.070505 136.758941 -18.105843 0
-148.859009 136.767997 -18.093890 0
-153.678939 136.792093 -18.082348 0
-158.516197 136.781741 -18.080407 0
-163.391288 136.799495 -18.076511 0
-168.291282 136.801075 -18.078891 0
-173.239262 136.850736 -18.075678 0
-178.198968 136.840094 -18.086978 0
-183.222964 136.912810 -18.086227 0
-188.263955 136.934640 -18.098316 0
-193.329300 136.925321 -18.119630 0
-198.440479 136.937264 -18.140509 0
-203.579749 136.922859 -18.169806 0
-208.787378 136.975173 -18.190357 0
-214.049803 137.054840 -18.209499 0
-219.300170 137.008121 -18.255689 0
-224.618732 137.014916 -18.295733 0
-229.959586 136.971202 -18.348898 0
-235.375337 136.985663 -18.395183 0
-240.582610 136.481943 -18.540888 0
57.335335 -8.100823 -44.576819 9
52.710190 -14.651407 -45.685739 9
48.812795 -18.478494 -46.292393 9
45.432143 -20.204713 -46.510366 9
42.307610 -20.843482 -46.527578 9
39.284495 -21.055675 -46.467125 9
36.293001 -21.166490 -46.389798 9
33.303881 -21.332932 -46.325092 9
30.338345 -21.423456 -46.248166 9
27.370924 -21.596156 -46.188852 9
24.418723 -21.736661 -46.125511 9
21.479204 -21.853173 -46.059644 9
18.546745 -21.984058 -45.998503 9
15.621670 -22.124967 -45.941249 9
12.706622 -22.244935 -45.881958 9
9.797734 -22.376249 -45.826759 9
6.898590 -22.467646 -45.765834 9
4.005191 -22.554795 -45.705963 9
1.113480 -22.700349 -45.659144 9
-1.771053 -22.807638 -45.606833 9
-4.650357 -22.885197 -45.550627 9
-7.528070 -23.023035 -45.507820 9
-10.401280 -23.111232 -45.457247 9
-13.272431 -23.236452 -45.415587 9
-16.141309 -23.318262 -45.367306 9
-19.009159 -23.395270 -45.319834 9
-21.876825 -23.459796 -45.271668 9
-24.743619 -23.558380 -45.231811 9
-27.613000 -23.600577 -45.182721 9
-30.480665 -23.707862 -45.147952 9
-33.350248 -23.800619 -45.112053 9
-36.225482 -23.840738 -45.067591 9
-39.100922 -23.919052 -45.032222 9
-41.982729 -23.962605 -44.991737 9
-44.892918 -23.771965 -44.907204 9
-47.903249 -22.775634 -44.666914 9
-51.062627 -20.774363 -44.231568 9
-54.421405 -17.618727 -43.571521 9
-58.116619 -12.593080 -42.546269 9
-62.097397 -6.405019 -41.293684 9
-88.836991 139.197433 -12.721339 3
-93.419049 139.194407 -12.665866 3
-98.022499 139.226420 -12.606040 3
-102.632015 139.203635 -12.559488 3
-107.262458 139.203037 -12.511112 3
-111.902935 139.165893 -12.472452 3
-116.577834 139.202275 -12.421884 3
-121.265274 139.204624 -12.380551 3
-125.977905 139.225133 -12.338203 3
-130.069310 136.713902 -12.796839 0
-134.797021 136.719970 -12.762661 0
-139.554015 136.746151 -12.727099 0
-144.328136 136.743993 -12.699712 0
-149.141836 136.788752 -12.665685 0
-153.961131 136.761232 -12.648533 0
-158.831804 136.809443 -12.619092 0
-163.716587 136.808972 -12.601914 0
-168.645409 136.849321 -12.579370 0
-173.600941 136.873793 -12.562666 0
-178.577897 136.865833 -12.555095 0
-183.598595 136.884990 -12.544932 0
-188.639432 136.864011 -12.545478 0
-193.751967 136.933763 -12.530933 0
-198.875702 136.934287 -12.532900 0
-204.033649 136.923126 -12.540054 0
-209.227547 136.902025 -12.552084 0
-214.466609 136.889453 -12.565382 0
-219.750228 136.880174 -12.581020 0
-225.080831 136.875922 -12.598697 0
-230.419661 136.791530 -12.635248 0
-235.928293 136.961188 -12.624825 0
59.709223 -12.573294 -41.932919 9
55.323205 -17.891548 -42.879436 9
51.368801 -21.833618 -43.558534 9
47.845868 -24.197003 -43.928439 9
44.629217 -25.353160 -44.061421 9
41.596872 -25.736795 -44.042906 9
38.645435 -25.778796 -43.958160 9
35.679688 -25.963971 -43.903803 9
32.740016 -26.068499 -43.835102 9
29.814726 -26.148837 -43.763285 9
26.892143 -26.277200 -43.702816 9
23.984751 -26.366747 -43.636238 9
21.083300 -26.478317 -43.575755 9
18.192223 -26.573870 -43.513686 9
15.310778 -26.650692 -43.449449 9
12.428969 -26.803342 -43.402140 9
9.561266 -26.880281 -43.341098 9
6.696149 -26.999087 -43.290097 9
3.843245 -27.021544 -43.221076 9
0.987943 -27.153135 -43.175734 9
-1.858933 -27.212722 -43.117253 9
-4.703757 -27.306677 -43.067250 9
-7.544550 -27.376195 -43.013732 9
-10.383015 -27.451432 -42.962828 9
-13.219678 -27.564112 -42.921019 9
-16.054172 -27.661855 -42.877590 9
-18.887751 -27.723205 -42.828121 9
-21.720793 -27.798869 -42.782980 9
-24.554776 -27.847637 -42.733703 9
-27.390304 -27.885734 -42.683597 9
-30.224591 -27.981076 -42.646622 9
-33.062527 -28.037600 -42.603018 9
-35.903985 -28.079875 -42.557816 9
-38.744704 -28.170748 -42.523971 9
-41.594095 -28.198837 -42.478498 9
-44.466610 -28.046584 -42.397059 9
-47.411335 -27.330241 -42.200174 9
-50.475162 -25.808807 -41.837670 9
-53.751937 -22.959956 -41.200946 9
-57.887562 -14.533075 -39.408075 9
-64.700939 10.297440 -34.210339 8
-65.353589 -5.908469 -37.527406 8
-68.458241 -6.073051 -37.517445 8
-71.585358 -6.153004 -37.491306 8
-74.716986 -6.257941 -37.471755 8
-77.850947 -6.397897 -37.460891 8
-81.016933 -6.431568 -37.429291 8
-84.176584 -6.548031 -37.416325 8
-87.342698 -6.684417 -37.408912 8
-90.532364 -6.770896 -37.392489 8
-93.743435 -6.824614 -37.370622 8
-96.959228 -6.914961 -37.357795 8
-100.194028 -6.988437 -37.342844 8
-103.439359 -7.078992 -37.332865 8
-107.148514 -5.659679 -37.008521 8
-154.265836 136.799424 -7.176294 0
-159.140705 136.811553 -7.137576 0
-164.049790 136.837949 -7.097942 0
-168.993204 136.874150 -7.058336 0
-173.942906 136.835895 -7.036426 0
-178.933263 136.821589 -7.011615 0
-183.956544 136.805057 -6.989405 0
-189.012570 136.782715 -6.970563 0
-194.113325 136.782088 -6.949337 0
-199.242770 136.758649 -6.935085 0
-204.417915 136.751672 -6.919589 0
-209.619254 136.711174 -6.913359 0
-214.875950 136.702634 -6.902681 0
-220.189978 136.724691 -6.887863 0
-225.464889 136.564176 -6.913677 0
-230.541192 135.896807 -7.048233 0
106.620396 -1.768256 -37.560221 5
102.421093 -3.617027 -37.812394 5
98.808021 -4.031449 -37.773248 5
95.237154 -4.417035 -37.730551 5
91.693864 -4.811098 -37.691920 5
88.181081 -5.202878 -37.655092 5
84.732823 -5.483048 -37.597372 5
81.305869 -5.776968 -37.544605 5
77.901925 -6.077634 -37.495307 5
74.519368 -6.388611 -37.450186 5
71.176108 -6.643668 -37.395401 5
67.843070 -6.942214 -37.351623 5
64.677133 -6.675043 -37.191390 5
64.195188 4.458775 -34.755369 5
54.480275 -22.651357 -40.340883 9
50.524285 -26.760211 -41.110281 9
47.286803 -27.979605 -41.275469 9
44.034912 -29.447288 -41.495229 9
41.063199 -29.686169 -41.457863 9
38.127269 -29.813095 -41.398372 9
35.219144 -29.850841 -41.321452 9
32.311050 -29.948315 -41.258574 9
29.420399 -30.000712 -41.187517 9
26.533782 -30.087569 -41.125129 9
23.663003 -30.124587 -41.053472 9
20.791013 -30.232343 -40.998187 9
17.933207 -30.290009 -40.933525 9
15.087182 -30.301071 -40.860171 9
12.237737 -30.405865 -40.808095 9
9.398350 -30.471874 -40.748967 9
6.564097 -30.542416 -40.692029 9
3.736395 -30.589627 -40.631287 9
0.911696 -30.655901 -40.575818 9
-1.908309 -30.704778 -40.517777 9
-4.724305 -30.726469 -40.455028 9
-7.540154 -30.820527 -40.409007 9
-10.352851 -30.898821 -40.360724 9
-13.163258 -30.941706 -40.305910 9
-15.972736 -30.998892 -40.255282 9
-18.781766 -31.042068 -40.202707 9
-21.590516 -31.103325 -40.155121 9
-24.401177 -31.116505 -40.098169 9
-27.210733 -31.195931 -40.056641 9
-30.021350 -31.273710 -40.015807 9
-32.834303 -31.338529 -39.973196 9
-35.648977 -31.411213 -39.933325 9
-38.471777 -31.417831 -39.880077 9
-41.298518 -31.430364 -39.829108 9
-44.163473 -31.118340 -39.708262 9
-47.230084 -29.121024 -39.220017 9
-50.461046 -26.158638 -38.520975 9
-53.620237 -24.235762 -38.049380 9
-57.295332 -19.017280 -36.856238 9
-64.658457 9.622751 -30.528201 8
-64.635480 -10.730542 -34.939356 8
-67.244437 -13.533541 -35.505324 8
-70.312064 -13.574962 -35.466495 8
-73.380583 -13.663097 -35.438940 8
-76.453561 -13.776404 -35.417938 8
-79.552335 -13.814285 -35.381350 8
-82.651531 -13.903254 -35.357009 8
-85.763386 -13.987060 -35.332535 8
-88.896481 -14.033939 -35.300919 8
-92.037223 -14.104293 -35.275473 8
-95.202209 -14.135385 -35.242353 8
-98.363192 -14.236489 -35.225686 8
-101.557293 -14.272823 -35.195703 8
-104.779317 -14.271180 -35.158304 8
-108.645800 -12.236636 -34.671935 8
-159.429717 136.746617 -1.644442 0
-164.337858 136.725152 -1.598080 0
-169.269750 136.684843 -1.557377 0
-174.018254 136.034888 -1.653371 0
-178.919582 135.754825 -1.668915 0
-183.940518 135.719790 -1.631616 0
-189.244797 136.330565 -1.452405 0
106.870300 -11.167825 -35.819153 5
102.998673 -12.287360 -35.950061 5
99.517311 -12.500005 -35.886170 5
96.064334 -12.711739 -35.823858 5
92.674568 -12.821510 -35.741030 5
89.273852 -13.033278 -35.682126 5
85.912343 -13.203479 -35.615783 5
82.586704 -13.335699 -35.542711 5
79.251283 -13.570445 -35.493691 5
75.969590 -13.704179 -35.424030 5
72.698098 -13.873599 -35.363702 5
69.444364 -14.052934 -35.307028 5
66.216146 -14.211633 -35.247238 5
64.456576 -8.740344 -33.943579 5
58.795477 -18.656990 -36.046133 9
54.767372 -22.605404 -36.832224 9
50.914535 -26.198675 -37.542992 9
48.731165 -22.465909 -36.627864 9
43.754248 -31.989888 -38.663578 9
40.737854 -32.543608 -38.705887 9
37.805597 -32.759686 -38.674200 9
34.919497 -32.792532 -38.602721 9
32.038143 -32.855584 -38.539044 9
29.164055 -32.934810 -38.480028 9
26.302957 -32.990231 -38.416700 9
23.449392 -33.052799 -38.355974 9
20.606087 -33.098010 -38.292328 9
17.765004 -33.186458 -38.239371 9
14.935641 -33.234911 -38.178362 9
12.109283 -33.316774 -38.125815 9
9.289161 -33.399572 -38.074404 9
6.475958 -33.467540 -38.020551 9
3.669013 -33.516052 -37.963181 9
0.863321 -33.615449 -37.918205 9
-1.934275 -33.637440 -37.856545 9
-4.729281 -33.657451 -37.795260 9
-7.524360 -33.756220 -37.752684 9
-10.315576 -33.801530 -37.698778 9
-13.105480 -33.867728 -37.650425 9
-15.894099 -33.918837 -37.599425 9
-18.682056 -33.979425 -37.551363 9
-21.470092 -34.027717 -37.501259 9
-24.257003 -34.126131 -37.463364 9
-27.047064 -34.153107 -37.409884 9
-29.838656 -34.188714 -37.359101 9
-32.630510 -34.257240 -37.316577 9
-35.426552 -34.298447 -37.268504 9
-38.221764 -34.389025 -37.232465 9
-41.038751 -34.274955 -37.150100 9
-43.927650 -33.532648 -36.923841 9
-46.907122 -32.168158 -36.554710 9
-50.791071 -23.703704 -34.549784 9
-53.285775 -27.038459 -35.263212 9
-56.580404 -24.352779 -34.589093 9
-64.655812 9.208445 -26.783154 8
-64.548658 -11.667399 -31.549110 8
-66.431849 -18.656914 -33.110882 8
-69.458709 -18.685328 -33.064189 8
-72.482646 -18.780878 -33.033693 8
-75.517135 -18.870298 -33.002434 8
-78.577684 -18.884868 -32.954457 8
-81.643650 -18.929727 -32.914131 8
-84.707893 -19.034018 -32.888238 8
-87.801749 -19.064961 -32.845926 8
-90.894637 -19.153766 -32.817686 8
-94.018522 -19.175965 -32.774556 8
-97.145051 -19.244110 -32.742727 8
-100.288619 -19.305429 -32.709912 8
-103.445733 -19.374732 -32.679558 8
-106.822467 -18.786018 -32.496153 8
-111.382386 -14.592840 -31.470940 8
-117.531486 -5.924967 -29.398825 7
-120.898109 -6.024327 -29.375837 7
-124.276973 -6.145107 -29.358480 7
-127.671996 -6.276828 -29.344308 7
-131.098590 -6.379619 -29.323975 7
-134.572680 -6.416949 -29.288899 7
-138.031673 -6.554232 -29.277869 7
-141.536566 -6.636065 -29.254433 7
-145.060034 -6.734230 -29.235433 7
-148.629514 -6.786066 -29.206143 7
146.468915 2.350197 -29.899243 6
142.214496 1.588976 -29.955363 6
138.100017 1.007540 -29.972862 6
134.029100 0.417325 -29.994345 6
130.057087 -0.058543 -29.991748 6
126.122919 -0.545104 -29.993407 6
122.254191 -0.976895 -29.984343 6
115.801466 -7.614537 -31.395777 5
108.994144 -15.553002 -33.110816 5
104.666919 -17.807384 -33.529106 5
101.211970 -18.012391 -33.479550 5
97.836816 -18.081624 -33.400110 5
94.455799 -18.234099 -33.341052 5
91.119898 -18.331644 -33.270567 5
87.812485 -18.414818 -33.197939 5
84.505814 -18.562985 -33.141471 5
81.228284 -18.692140 -33.081751 5
77.980785 -18.794877 -33.017018 5
74.754830 -18.894000 -32.952513 5
71.538137 -19.028828 -32.897344 5
68.355541 -19.111948 -32.831182 5
65.183053 -19.223718 -32.772674 5
64.332843 -10.421297 -30.636377 5
57.664946 -24.387667 -33.812023 9
53.855853 -27.609320 -34.484667 9
50.184985 -30.574385 -35.099851 9
46.613262 -33.421514 -35.689805 9
43.371504 -35.011563 -35.987196 9
40.339546 -35.754810 -36.087329 9
37.443774 -35.903172 -36.048731 9
34.575595 -35.966602 -35.990932 9
31.719707 -36.018206 -35.931072 9
28.871017 -36.084723 -35.875431 9
26.031119 -36.154454 -35.821242 9
23.197892 -36.239637 -35.771385 9
20.382210 -36.253033 -35.705213 9
17.568678 -36.304429 -35.648661 9
14.755664 -36.414981 -35.606758 9
11.954950 -36.474418 -35.553362 9
9.158682 -36.550360 -35.504485 9
6.370137 -36.599112 -35.449736 9
3.584425 -36.674690 -35.401937 9
0.803436 -36.748274 -35.354229 9
-1.969904 -36.743725 -35.288436 9
-4.743160 -36.792091 -35.235778 9
-7.515242 -36.892092 -35.195973 9
-10.283359 -36.935446 -35.143144 9
-13.050368 -37.025481 -35.101977 9
-15.815979 -36.992727 -35.031882 9
