ply
format ascii 1.0
element vertex 1334
property float x
property float y
property float z
property int scalar_Label
end_header
4.401229 39.099251 28.622437 9
9.330195 39.863269 27.421067 9
14.352279 40.628591 26.188802 9
19.476227 41.391261 24.921996 9
24.780121 42.087527 23.581598 9
-87.381841 142.984332 81.923948 3
-84.926063 144.187588 81.525862 3
-80.957926 144.183818 80.377661 3
-76.920562 144.205018 79.212778 3
-72.734295 144.190838 77.992563 3
-68.483059 144.211683 76.759232 3
-64.040130 144.174111 75.452013 3
-59.540621 144.185270 74.137349 3
-54.955557 144.225544 72.801679 3
-50.131987 144.189783 71.373575 3
-45.231395 144.198782 69.930615 3
-40.161494 144.192342 68.430439 3
138.670910 29.712764 -12.839963 6
-53.697661 -34.026608 29.699632 9
-64.352847 -10.769408 38.696143 9
-64.253865 -4.151091 40.450120 9
-63.492327 1.329040 41.723738 9
-61.789860 5.351215 42.359536 9
-59.913945 9.058647 42.862227 9
-57.830470 12.424954 43.215965 9
-55.683648 15.660830 43.514505 9
-53.428028 18.716025 43.732651 9
-51.041017 21.573497 43.859989 9
-48.365677 24.052231 43.807379 9
-45.282242 26.031433 43.511347 9
-41.724913 27.464900 42.942293 9
-37.853961 28.573382 42.200682 9
-33.930586 29.675481 41.439445 9
-29.080864 29.801759 40.171889 9
-24.126246 29.909577 38.867345 9
-19.882609 30.875061 37.972529 9
-15.688799 31.958216 37.117503 9
-11.256064 32.858844 36.146607 9
-6.831848 33.839432 35.194440 9
-2.273438 34.757882 34.185633 9
2.388261 35.650949 33.137934 9
7.075973 36.596535 32.092266 9
11.958584 37.438639 30.962536 9
16.868361 38.339193 29.835837 9
21.976871 39.146022 28.626289 9
-94.794495 146.099300 87.856654 0
-88.850837 144.202295 85.729703 3
-85.013085 144.216464 84.663740 3
-81.057430 144.211476 83.557409 3
-76.997641 144.203019 82.418357 3
-72.831989 144.193583 81.246613 3
-68.571191 144.195240 80.048058 3
-64.191169 144.193123 78.812148 3
-59.701578 144.198647 77.544291 3
-55.077930 144.197936 76.234054 3
-50.328684 144.201769 74.886337 3
-45.429588 144.197740 73.491116 3
-40.413914 144.213628 72.064444 3
134.581052 32.134591 -4.844427 6
144.794327 31.466200 -7.929334 6
-58.265680 -19.384188 39.653295 9
-60.076369 -9.812890 42.580940 9
-59.417465 -4.084988 43.894002 9
-58.152216 0.646173 44.794258 9
-56.582664 4.855439 45.480023 9
-54.741752 8.618758 45.979193 9
-52.772065 12.150557 46.382874 9
-50.596860 15.366363 46.650027 9
-48.073292 18.105931 46.703428 9
-45.153487 20.339904 46.523397 9
-41.707074 21.942699 46.044647 9
-37.968994 23.232101 45.408017 9
-34.121171 24.439934 44.718925 9
-30.272835 25.697413 44.038627 9
-26.332376 26.902063 43.317570 9
-22.319322 28.080781 42.567522 9
-18.205567 29.207670 41.774628 9
-13.511492 29.786875 40.689796 9
-8.179481 29.795251 39.292094 9
-3.485575 30.552108 38.244030 9
0.947251 31.645517 37.344267 9
5.528840 32.663498 36.382828 9
10.168922 33.699051 35.406426 9
-95.768086 137.146700 88.908014 0
-96.893296 141.485752 90.267462 0
-97.971113 145.680561 91.576762 0
-94.327965 145.669594 90.598332 0
-88.893774 144.205249 88.785017 3
-85.028797 144.186177 87.740379 3
-81.111784 144.202686 86.687897 3
-77.074923 144.201738 85.596433 3
-72.942571 144.207094 84.478177 3
-68.683117 144.197808 83.319464 3
-64.324914 144.199998 82.134117 3
-59.848114 144.202377 80.913953 3
-55.230971 144.193457 79.650219 3
-50.519656 144.210909 78.364310 3
-45.632711 144.201392 77.021265 3
125.151063 32.238750 3.912064 6
133.591553 32.515514 1.651555 6
142.697613 32.527553 -0.858767 6
-53.783456 -18.547054 43.573913 9
-54.490041 -10.704110 45.690653 9
-53.940781 -4.851080 47.005124 9
-52.790908 0.030190 47.929328 9
-51.251224 4.280944 48.599226 9
-49.287580 7.894567 49.004869 9
-46.945987 10.969053 49.181728 9
-44.134356 13.421864 49.086841 9
-40.737342 15.149657 48.666357 9
-37.185407 16.717239 48.165108 9
-33.562774 18.235713 47.631116 9
-29.845430 19.682252 47.052804 9
-26.034147 21.064180 46.432111 9
-22.167272 22.430226 45.790416 9
-18.233459 23.771319 45.122633 9
-14.196009 25.052204 44.410973 9
-10.082138 26.307453 43.670577 9
-5.918841 27.568885 42.915868 9
-1.618021 28.750410 42.103824 9
2.902501 29.778797 41.195994 9
8.530469 29.810563 39.764997 9
-98.818619 136.661113 92.589450 0
-99.879558 140.956652 93.877223 0
-100.928992 145.140456 95.133636 0
-99.061722 146.635421 95.003540 0
-94.278322 145.602830 93.524997 0
-90.626938 145.649834 92.590156 0
-85.085515 144.190490 90.811361 3
-81.200717 144.222630 89.808302 3
-77.143693 144.194168 88.744194 3
-73.026366 144.200215 87.670187 3
-68.809499 144.212211 86.569347 3
-64.427017 144.183884 85.413626 3
-59.995653 144.207767 84.254819 3
-55.356973 144.170487 83.025220 3
-50.650465 144.178717 81.785831 3
118.889838 30.391777 11.139820 6
126.609185 31.001878 9.234666 6
134.425403 31.693800 7.318211 6
142.915465 32.096630 5.153550 6
-48.137849 -12.557533 48.450748 9
-47.703706 -6.555393 49.770789 9
-46.288536 -2.018181 50.507886 9
-44.210137 1.559373 50.857293 9
-41.438632 4.197545 50.816707 9
-38.359635 6.438688 50.606211 9
-35.087346 8.448606 50.292191 9
-31.723629 10.365531 49.931573 9
-28.258655 12.185082 49.520950 9
-24.699219 13.922719 49.065557 9
-21.022998 15.559921 48.555649 9
-17.273104 17.152588 48.014675 9
-13.450966 18.707060 47.444429 9
-9.508340 20.176384 46.822233 9
-5.483350 21.607818 46.168298 9
-1.417413 23.048510 45.503612 9
2.810280 24.379218 44.771026 9
7.092310 25.714819 44.023311 9
11.451470 27.035879 43.250349 9
-102.797758 140.433763 97.401230 0
-103.782718 144.573560 98.588782 0
-102.654169 146.700204 98.792228 0
-97.872626 145.564970 97.345497 0
-94.254406 145.558628 96.442427 0
-90.591600 145.586873 95.534300 0
-86.898659 145.662818 94.627625 0
-81.221198 144.186985 92.873247 3
-77.237543 144.207213 91.877571 3
-73.122085 144.203295 90.841514 3
-68.895922 144.196587 89.775084 3
-64.550962 144.184983 88.675699 3
-60.103112 144.184492 87.550857 3
-55.552606 144.198728 86.401341 3
117.395585 25.317479 16.296019 6
121.854838 28.109587 15.776897 6
129.119533 29.052928 14.134476 6
136.770954 29.872064 12.362729 6
144.689113 30.659882 10.512442 6
-31.097780 -15.276058 48.641038 9
-31.497608 -8.243164 50.324169 9
-29.659204 -4.205020 50.809527 9
-27.221287 -0.966826 50.972800 9
-24.477727 1.873787 50.973004 9
-21.411236 4.321010 50.807062 9
-18.198583 6.603877 50.567674 9
-14.816244 8.706916 50.245860 9
-11.305911 10.688694 49.864487 9
-7.652955 12.542263 49.418550 9
-3.915843 14.339489 48.937809 9
-0.064029 16.053868 48.409141 9
3.915376 17.679310 47.828123 9
7.978102 19.267856 47.216738 9
12.142135 20.806492 46.567811 9
-105.672153 139.937255 100.853745 0
-106.598961 144.037605 101.976627 0
-106.036980 146.664313 102.419120 0
-101.436375 145.591270 101.083783 0
-97.849364 145.530407 100.211146 0
-94.210863 145.497501 99.330812 0
-90.615011 145.574257 98.483148 0
-86.922708 145.640902 97.608590 0
-83.118198 145.688263 96.701300 0
-77.300675 144.196121 94.973256 3
-73.217509 144.206721 93.987615 3
-69.007295 144.200807 92.966072 3
-64.668656 144.182124 91.909036 3
-60.273983 144.208819 90.846506 3
-55.721569 144.208685 89.738217 3
119.258488 23.784645 21.385384 6
125.976652 25.024849 20.009036 6
132.900901 26.241683 18.574350 6
140.107302 27.392464 17.053571 6
147.761700 28.380529 15.385516 6
-8.553341 -17.049577 48.050702 9
-10.307568 -8.551293 50.276321 9
-8.601644 -4.283562 50.808770 9
-6.159492 -0.912470 50.980121 9
-3.308685 1.978792 50.953978 9
-0.142676 4.521040 50.779562 9
3.193195 6.890994 50.527678 9
6.733855 9.063845 50.185078 9
10.463389 11.069244 49.761698 9
14.297861 13.003238 49.297120 9
-108.453008 139.416405 104.215389 0
-109.314989 143.470658 105.272129 0
-109.257618 146.561871 105.912986 0
-104.903760 145.620200 104.713521 0
-101.432989 145.583613 103.906993 0
-98.705005 146.277012 103.424153 0
-94.178016 145.445841 102.204584 0
-90.561554 145.496287 101.379198 0
-86.885786 145.568315 100.543402 0
-83.126907 145.644236 99.687942 0
-77.377124 144.196177 98.051285 3
-73.301338 144.201587 97.105049 3
-69.111042 144.199795 96.129397 3
-64.786787 144.180313 95.117573 3
-60.378585 144.185060 94.089874 3
121.180960 16.218455 25.233901 6
127.328332 17.858669 24.133877 6
131.257818 21.133743 23.887283 6
138.010863 22.526710 22.589550 6
144.895536 23.947145 21.264054 6
12.206602 -8.751667 50.238276 9
13.815528 -4.293646 50.799173 9
16.275117 -0.785308 50.977564 9
19.196895 2.226802 50.951434 9
-111.179206 138.905420 107.506935 0
-112.011626 142.947016 108.513786 0
-112.320603 146.389022 109.282349 0
-108.240203 145.614807 108.224524 0
-104.772335 145.503132 107.435623 0
-101.308088 145.465785 106.661701 0
-98.316543 145.918124 106.090673 0
-94.142911 145.392361 105.058976 0
-90.570856 145.472078 104.282087 0
-86.912687 145.549363 103.484642 0
-83.101629 145.572706 102.641391 0
-79.283112 145.665305 101.809442 0
-73.395573 144.205160 100.203719 3
-69.215143 144.199663 99.269428 3
-64.947187 144.211078 98.317969 3
123.800897 8.017689 28.903291 6
129.101648 10.288142 28.168879 6
134.754814 12.380904 27.318178 6
140.764075 14.308818 26.352879 6
147.078480 16.121610 25.294252 6
-113.872438 138.423940 110.740050 0
-114.604887 142.382000 111.668753 0
-115.229364 146.141014 112.535102 0
-111.564162 145.682843 111.669523 0
-108.097626 145.493732 110.897888 0
-104.706533 145.446762 110.169314 0
-101.282576 145.438120 109.440589 0
-97.980906 145.606219 108.771560 0
-94.201573 145.420702 107.931645 0
-90.558582 145.429661 107.157814 0
-86.900885 145.498312 106.391754 0
-83.144772 145.557565 105.602223 0
-79.284130 145.606235 104.787665 0
-75.365889 145.685177 103.965966 0
-69.311971 144.194507 102.384367 3
-65.045932 144.196000 101.471973 3
137.586337 -2.359139 29.891552 6
140.845224 1.583681 29.950924 6
145.211557 4.748674 29.622108 6
-116.461624 137.896559 113.888297 0
-117.205496 141.883342 114.785314 0
-117.924737 145.750451 115.654575 0
-115.547246 146.484527 115.309012 0
-111.413092 145.559728 114.296290 0
-108.146200 145.553040 113.630905 0
-104.700564 145.445733 112.910021 0
-101.297609 145.447253 112.217737 0
-97.782751 145.416557 111.496284 0
-94.155112 145.357613 110.746211 0
-90.559282 145.398515 110.020812 0
-86.860465 145.423566 109.271068 0
-83.151813 145.513154 108.530912 0
-79.324380 145.579045 107.761702 0
-75.390132 145.635311 106.968482 0
-71.351761 145.687992 106.152905 0
-119.057878 137.435817 116.999099 0
-119.723106 141.357955 117.829298 0
-120.397062 145.195646 118.645985 0
-118.813620 146.681082 118.603219 0
-114.571759 145.557287 117.577079 0
-111.384132 145.554095 116.956073 0
-108.016955 145.444411 116.280985 0
-104.715055 145.463606 115.641482 0
-101.256462 145.405460 114.957540 0
-97.823275 145.439133 114.294799 0
-87.126206 139.210537 111.100008 0
-90.610883 145.411027 112.884495 0
-86.891822 145.409114 112.159317 0
-83.150122 145.461878 111.439339 0
-79.319517 145.515968 110.702129 0
-75.388616 145.565575 109.944429 0
-71.441493 145.679193 109.194827 0
-121.536433 136.907572 120.026364 0
-122.210639 140.857729 120.823969 0
-122.837954 144.663622 121.588413 0
-121.804799 146.682840 121.739617 0
-117.697393 145.602393 120.790788 0
-114.535692 145.552818 120.193678 0
-111.291867 145.487390 119.578699 0
-108.019627 145.460231 118.965073 0
-104.729854 145.481736 118.356598 0
-101.299862 145.440377 117.711447 0
-97.879597 145.475838 117.081326 0
-94.274245 145.416600 116.400765 0
-91.285683 145.956047 115.937114 0
-87.496808 145.875117 115.218991 0
-83.141586 145.405264 114.329378 0
-79.402519 145.523856 113.654822 0
-75.501454 145.586298 112.940719 0
-72.814288 146.661162 112.625116 0
-124.647603 140.359282 123.763757 0
-125.240928 144.146218 124.481324 0
-124.655903 146.615280 124.776243 0
-120.704311 145.606682 123.909469 0
-117.613860 145.558282 123.351722 0
-114.493988 145.542649 122.794406 0
-111.246072 145.465316 122.204691 0
-108.001487 145.456333 121.627017 0
-104.692578 145.451661 121.038993 0
-101.328461 145.461894 120.443967 0
-97.852100 145.438097 119.823884 0
-94.301969 145.418548 119.191802 0
-90.739240 145.458120 118.567498 0
-87.037541 145.450430 117.911289 0
-84.448773 146.428690 117.613079 0
-79.467408 145.517536 116.584024 0
-76.529818 146.328976 116.197741 0
-127.035451 139.861748 126.651661 0
-127.581344 143.615052 127.318414 0
-127.395486 146.501292 127.728456 0
-123.658512 145.632918 126.959791 0
-120.633525 145.582472 126.438136 0
-117.554786 145.538483 125.908932 0
-114.389308 145.470505 125.361924 0
-111.229064 145.470844 124.826916 0
-107.977735 145.447072 124.273384 0
-105.599844 146.295449 124.002657 0
-102.347300 146.381635 123.467123 0
-98.667216 146.149698 122.810894 0
-94.334647 145.424936 121.969035 0
-90.748152 145.434720 121.367297 0
-87.101733 145.464190 120.759188 0
-83.335379 145.465905 120.127276 0
-79.755019 145.690741 119.561973 0
-129.405297 139.397764 129.500241 0
-129.910710 143.123763 130.119274 0
-130.007481 146.317623 130.595885 0
-126.559151 145.678126 129.943711 0
-123.575550 145.603081 129.449378 0
-120.571659 145.567155 128.958239 0
-117.509289 145.532095 128.458593 0
-114.340599 145.453175 127.936235 0
-111.227788 145.491401 127.440789 0
-108.968048 146.394612 127.209693 0
-105.438473 146.150499 126.607698 0
-102.376357 146.403642 126.154384 0
-97.867624 145.425521 125.289584 0
-94.406129 145.465273 124.742780 0
-90.779319 145.430494 124.159503 0
-87.091799 145.416068 123.570462 0
-83.597801 145.632589 123.047294 0
-81.080252 146.699530 122.806227 0
-131.698523 138.899577 132.292383 0
-132.182799 142.620275 132.870495 0
-132.513982 146.081665 133.390765 0
-129.330394 145.658054 132.840584 0
-126.428056 145.603927 132.385127 0
-123.502172 145.582988 131.931588 0
-120.490865 145.532316 131.461879 0
-117.406103 145.467801 130.980045 0
-114.337584 145.480552 130.512365 0
-112.122506 146.374003 130.297407 0
-108.250402 145.730448 129.618746 0
-105.388594 146.108682 129.236254 0
-101.333997 145.453787 128.530474 0
-97.877622 145.421318 128.002989 0
-94.403995 145.441540 127.481369 0
-90.786925 145.406281 126.931496 0
-87.308927 145.558404 126.429973 0
-84.627741 146.430105 126.150424 0
-134.007822 138.471387 135.059173 0
-134.439772 142.149971 135.587224 0
-134.861137 145.727041 136.102114 0
-132.923102 146.614981 135.929196 0
-129.217584 145.609352 135.256687 0
-126.347372 145.583006 134.832849 0
-123.416320 145.549696 134.400468 0
-120.390903 145.477739 133.950625 0
-117.348234 145.448711 133.505073 0
-114.477408 145.647927 133.115207 0
-111.150226 145.460033 132.610489 0
-108.908652 146.364406 132.405610 0
-105.676183 146.379045 131.943533 0
-101.242551 145.366499 131.176156 0
-97.908842 145.436052 130.709473 0
-94.429019 145.441586 130.214894 0
-90.929045 145.497217 129.725459 0
-87.656458 145.810310 129.303816 0
-136.235508 137.998476 137.772703 0
-136.650823 141.676532 138.261830 0
-137.036993 145.230622 138.733752 0
-135.661839 146.718057 138.716405 0
-131.925785 145.596316 138.061737 0
-129.133866 145.591877 137.672707 0
-126.276846 145.572624 137.274325 0
-123.338323 145.524378 136.862664 0
-120.352867 145.486168 136.447220 0
-117.349643 145.488767 136.035752 0
-114.918967 146.111092 135.779193 0
-111.679633 145.990794 135.323590 0
-108.925903 146.393513 134.999359 0
-104.619165 145.405490 134.295911 0
-101.306055 145.419788 133.851486 0
-97.943509 145.453910 133.404456 0
-94.466482 145.452580 132.939297 0
-91.114869 145.625700 132.514256 0
-88.794302 146.725147 132.344018 0
-138.478314 137.593704 140.462600 0
-138.846582 141.234142 140.904675 0
-139.207379 144.775791 141.336714 0
-138.205125 146.668839 141.409312 0
-134.606735 145.621580 140.817552 0
-131.883596 145.631255 140.459156 0
-129.035144 145.557935 140.076762 0
-126.171870 145.525495 139.698623 0
-123.272161 145.511176 139.319432 0
-120.333107 145.513051 138.938643 0
-118.218824 146.396423 138.765369 0
-115.157658 146.375003 138.369638 0
-111.091993 145.446916 137.743885 0
-107.921247 145.458621 137.341421 0
-104.626834 145.416876 136.918896 0
-101.340371 145.446618 136.507431 0
-98.002437 145.493408 136.093284 0
-94.621809 145.566483 135.678691 0
-92.194962 146.519272 135.488152 0
-140.698095 137.211641 143.118813 0
-141.006532 140.797581 143.511582 0
-141.322672 144.303765 143.899296 0
-140.673646 146.596704 144.045860 0
-137.205694 145.621814 143.512033 0
-134.502538 145.594333 143.171246 0
-131.783995 145.602638 142.834012 0
-128.965709 145.555427 142.480623 0
-126.124383 145.539109 142.129439 0
-123.199300 145.490830 141.766589 0
-121.137642 146.379982 141.608211 0
-118.209505 146.425217 141.258562 0
-114.203230 145.468802 140.675572 0
-111.063613 145.440949 140.296690 0
-107.887574 145.439669 139.918279 0
-104.665895 145.457286 139.538484 0
-101.378549 145.476971 139.153191 0
-98.039175 145.513222 138.765634 0
-95.212563 146.060390 138.495794 0
-142.847935 136.792251 145.731580 0
-143.147114 140.385509 146.088204 0
-143.422192 143.859278 146.433265 0
-143.055628 146.483748 146.626671 0
-139.793315 145.675302 146.164639 0
-137.123204 145.625581 145.844264 0
-134.426958 145.598979 145.524976 0
-131.702338 145.593564 145.206390 0
-128.863523 145.517328 144.869974 0
-126.040859 145.514338 144.544417 0
-123.738020 146.105714 144.337050 0
-121.103702 146.391814 144.064815 0
-118.110903 146.364634 143.723920 0
-115.180313 146.456417 143.403734 0
-111.024277 145.424376 142.838753 0
-107.909294 145.472917 142.498156 0
-104.661198 145.457201 142.138716 0
-101.413101 145.504050 141.787793 0
-98.218340 145.659808 141.455945 0
-95.895816 146.635224 141.304148 0
-145.253006 139.978023 148.632293 0
-145.515525 143.453837 148.941573 0
-145.377312 146.357022 149.161216 0
-142.275078 145.670007 148.755837 0
-139.675779 145.644782 148.463413 0
-137.022640 145.608399 148.166301 0
-134.323658 145.572267 147.866393 0
-131.568546 145.526895 147.561821 0
-128.798827 145.519527 147.261180 0
-125.954700 145.486614 146.952624 0
-123.945160 146.375634 146.815631 0
-120.980577 146.312647 146.496273 0
-117.137343 145.429654 146.014294 0
-114.132411 145.458735 145.703607 0
-111.044138 145.464655 145.384603 0
-107.898151 145.475129 145.062504 0
-104.700691 145.497978 144.738737 0
-101.547592 145.621815 144.431282 0
-99.304150 146.613215 144.298752 0
-147.334488 139.586681 151.147690 0
-147.559874 143.033818 151.416183 0
-147.577693 146.138014 151.640297 0
-145.274572 146.355909 151.411324 0
-142.179196 145.671108 151.035254 0
-139.543584 145.596955 150.754696 0
-136.897706 145.563134 150.478498 0
-134.214421 145.538706 150.201603 0
-131.475282 145.504670 149.920749 0
-128.709332 145.494782 149.641531 0
-126.142395 145.748587 149.405239 0
-123.872158 146.354374 149.228563 0
-120.984133 146.362416 148.946222 0
-117.128660 145.458952 148.499013 0
-114.125804 145.481800 148.211897 0
-111.019101 145.461701 147.913951 0
-107.932147 145.519867 147.627021 0
-104.753056 145.550646 147.331818 0
-102.257200 146.261390 147.160559 0
-149.385031 139.201982 153.634491 0
-149.594182 142.646554 153.866635 0
-149.735130 145.917961 154.083752 0
-147.871672 146.633316 153.942073 0
-144.597667 145.659077 153.555535 0
-142.047651 145.629598 153.303525 0
-139.473358 145.621161 153.053119 0
-136.811117 145.561526 152.793480 0
-134.095922 145.494602 152.530946 0
-131.388239 145.489124 152.275951 0
-129.473327 146.390360 152.159903 0
-126.708508 146.410544 151.906764 0
-123.446522 145.967019 151.578226 0
-120.064859 145.472493 151.237974 0
-117.118547 145.486712 150.976260 0
-114.125116 145.510580 150.713896 0
-111.061690 145.523693 150.447443 0
-107.944008 145.543692 150.179676 0
-104.897956 145.688889 149.930482 0
-102.385639 146.373716 149.771116 0
-151.427531 138.853064 156.098097 0
-151.590538 142.255583 156.288919 0
-151.745032 145.560533 156.476618 0
-150.232612 146.685106 156.393954 0
-146.959878 145.639465 156.032669 0
-144.481825 145.642178 155.804888 0
-141.913342 145.584653 155.568278 0
-139.327512 145.557091 155.334595 0
-136.691393 145.521891 155.098816 0
-134.057409 145.539970 154.869181 0
-132.167928 146.425854 154.758636 0
-129.145952 146.108488 154.481168 0
-126.621580 146.381225 154.284970 0
-122.858782 145.411640 153.910624 0
-120.056271 145.509901 153.686235 0
-117.097301 145.503254 153.445325 0
-114.097448 145.512849 153.205209 0
-111.029186 145.513449 152.962108 0
-108.025939 145.633546 152.735258 0
-105.961773 146.677034 152.647599 0
-153.438321 138.507996 158.535439 0
-153.572984 141.891002 158.688540 0
-153.692833 145.167707 158.838763 0
-152.511580 146.693628 158.800611 0
-149.300965 145.653695 158.474171 0
-146.836467 145.619232 158.260501 0
-144.362063 145.620368 158.050570 0
-141.797045 145.560953 157.833139 0
-139.238252 145.558764 157.621965 0
-136.606454 145.521836 157.406139 0
-134.383788 145.993648 157.251772 0
-131.593642 145.874402 157.025223 0
-129.333231 146.381277 156.875839 0
-125.637296 145.403218 156.539930 0
-122.898241 145.507015 156.338530 0
-120.020701 145.519742 156.124905 0
-117.052259 145.495957 155.905724 0
-114.083173 145.528174 155.692951 0
-111.074600 145.578036 155.481653 0
-108.862892 146.435149 155.378007 0
-155.443613 138.201603 160.951572 0
-155.541390 141.552436 161.066213 0
-155.671228 144.859252 161.185269 0
-154.712477 146.659288 161.166380 0
-151.622866 145.703926 160.881013 0
-149.176219 145.637631 160.682097 0
-146.746080 145.639548 160.490086 0
-144.234707 145.589250 160.292903 0
-141.684136 145.541144 160.095950 0
-139.124000 145.531228 159.902968 0
-130.978484 139.199468 159.040996 0
-134.692457 146.426865 159.615102 0
-131.991275 146.390308 159.420385 0
-129.287794 146.403070 159.230945 0
-125.664282 145.494476 158.939417 0
-122.849800 145.511102 158.749161 0
-119.984413 145.528767 158.558922 0
-117.055289 145.536573 158.367417 0
-114.091170 145.565249 158.178127 0
-111.436459 145.946602 158.029892 0
-157.451933 137.946442 163.347671 0
-157.490851 141.232902 163.422111 0
-157.578962 144.500841 163.503343 0
-156.840742 146.584784 163.495600 0
-153.849202 145.690307 163.245493 0
-151.452290 145.635047 163.064802 0
-149.081568 145.659226 162.891433 0
-146.625774 145.622861 162.713519 0
-144.094044 145.541980 162.532246 0
-141.569601 145.519309 162.356574 0
-139.000549 145.492918 162.181111 0
-136.654053 145.769218 162.033728 0
-134.546189 146.350727 161.915642 0
-131.934988 146.407551 161.750459 0
-128.315094 145.426542 161.488016 0
-125.580032 145.468081 161.321530 0
-122.836867 145.551908 161.159718 0
-119.944232 145.533758 160.988617 0
-117.056111 145.574909 160.823799 0
-114.180991 145.682373 160.666139 0
-112.183945 146.685492 160.599487 0
-159.391560 137.640508 165.716822 0
-159.431746 140.946484 165.758153 0
-159.497864 144.201157 165.804250 0
-158.945374 146.532290 165.796302 0
-156.030888 145.674775 165.576887 0
-153.695135 145.647821 165.414294 0
-151.326551 145.623517 165.252933 0
-148.911174 145.585692 165.091657 0
-146.477833 145.572104 164.933151 0
-143.968489 145.512906 164.772367 0
-141.444974 145.485460 164.614916 0
-138.835284 145.406010 164.454586 0
-136.774175 146.002252 164.346723 0
-134.481242 146.365476 164.223119 0
-131.833388 146.375000 164.073643 0
-128.319693 145.502414 163.855431 0
-125.615154 145.567670 163.711793 0
-122.793095 145.560670 163.563521 0
-119.956189 145.591693 163.419459 0
-117.066370 145.622591 163.276554 0
-115.078528 146.590069 163.213392 0
-161.172911 137.147812 168.056320 0
-161.192081 140.446174 168.062210 0
-161.182150 143.615581 168.069442 0
-160.892380 146.316037 168.059723 0
-158.202605 145.702174 167.879721 0
-155.886013 145.649837 167.730574 0
-153.556874 145.625935 167.584418 0
-151.179745 145.585023 167.438786 0
-148.756491 145.531900 167.293916 0
-146.332444 145.524494 167.153146 0
-143.819140 145.455119 167.010269 0
-141.289910 145.415588 166.870622 0
-138.755547 145.418386 166.735055 0
-136.856850 146.192296 166.648517 0
-134.411172 146.374417 166.528010 0
-130.954768 145.490754 166.342081 0
-128.296163 145.547904 166.216563 0
-125.568517 145.580833 166.091239 0
-122.775376 145.596355 165.966521 0
-119.899323 145.579602 165.841400 0
-117.671504 146.263496 165.765107 0
-162.409413 139.187262 170.325566 0
-162.410714 142.408888 170.300638 0
-162.394773 145.521006 170.279161 0
-161.039954 146.705209 170.190242 0
-158.033014 145.649403 170.016476 0
-155.749210 145.635632 169.884996 0
-153.385637 145.561153 169.752912 0
-151.014488 145.523022 169.624182 0
-148.624255 145.506260 169.498275 0
-146.188692 145.478931 169.373869 0
-143.665178 145.391822 169.248775 0
-141.198780 145.421332 169.130868 0
-138.723063 145.485491 169.016669 0
-136.914419 146.353494 168.942243 0
-133.518758 145.465234 168.787833 0
-130.907405 145.518010 168.679657 0
-128.234839 145.552678 168.572872 0
-125.529679 145.602172 168.469110 0
-122.739795 145.613486 168.365780 0
-119.966123 145.693129 168.268268 0
-117.891697 146.520242 168.211743 0
-163.240390 137.359145 172.586298 0
-163.221424 140.600093 172.526426 0
-163.205802 143.759107 172.472144 0
-162.872890 146.389154 172.412263 0
-160.176063 145.699450 172.275379 0
-157.891991 145.635377 172.155895 0
-155.599255 145.604038 172.039488 0
-153.252758 145.546366 171.924647 0
-150.841025 145.450677 171.811019 0
-148.489138 145.477058 171.703164 0
-146.030865 145.416168 171.595210 0
-143.621552 145.461415 171.492839 0
-141.142102 145.467736 171.391841 0
-138.564848 145.406794 171.291293 0
-136.002245 145.411835 171.195379 0
-133.455951 145.482705 171.104263 0
-130.847414 145.531386 171.015191 0
-128.181958 145.566494 170.928466 0
-125.465062 145.596284 170.844402 0
-122.712236 145.638881 170.763682 0
-120.883994 146.671014 170.720894 0
-163.711390 138.299289 174.774486 0
-163.698134 141.519263 174.685831 0
-163.677889 144.643291 174.603481 0
-162.931990 146.666915 174.516302 0
-159.945623 145.568158 174.398809 0
-157.761502 145.635661 174.296608 0
-155.450228 145.573793 174.195540 0
-153.140247 145.558098 174.097747 0
-150.758255 145.494018 174.002035 0
-148.318110 145.403069 173.908678 0
-145.883460 145.366307 173.818909 0
-143.495873 145.432229 173.733634 0
-141.006974 145.421503 173.650163 0
-138.476453 145.409057 173.569685 0
-135.969676 145.470867 173.493567 0
-133.423253 145.533730 173.420683 0
-130.811288 145.570859 173.350610 0
-128.148668 145.601329 173.283736 0
-125.438896 145.630921 173.220236 0
-123.510261 146.518387 173.176851 0
-165.608583 138.103012 177.052465 0
-165.456457 141.133201 176.930339 0
-165.284579 144.055019 176.815560 0
-164.772217 146.415185 176.709354 0
-161.908985 145.426797 176.618466 0
-159.730910 145.458920 176.527104 0
-157.483989 145.437809 176.438907 0
-155.203649 145.414698 176.353777 0
-153.006424 145.542245 176.271668 0
-150.572356 145.406122 176.192907 0
-147.782528 144.874183 176.117106 0
-145.836830 145.440011 176.045055 0
-143.387614 145.424069 175.976134 0
-140.911464 145.422095 175.910662 0
-138.420611 145.449018 175.848758 0
-135.882326 145.467638 175.790436 0
-133.389795 145.583868 175.736065 0
-130.800688 145.638227 175.685317 0
-128.103370 145.623251 175.638189 0
-125.873073 146.150603 175.597002 0
-165.791324 138.627854 179.203021 0
-165.841518 141.937823 179.049369 0
-165.799500 145.022894 178.906693 0
-164.639471 146.429997 178.799096 0
-161.795023 145.463013 178.735277 0
-159.599102 145.463955 178.658416 0
-157.364450 145.453316 178.585152 0
-155.107978 145.455431 178.515160 0
-152.832021 145.473959 178.448466 0
-150.459393 145.411221 178.386539 0
-146.973717 144.005565 178.346773 0
-145.436329 145.080624 178.276381 0
-143.263756 145.397266 178.220503 0
-140.836846 145.447369 178.172138 0
-138.375322 145.501187 178.127737 0
-135.876397 145.556869 178.087408 0
-133.337628 145.613149 178.051258 0
-130.742877 145.653944 178.019572 0
-128.098016 145.688042 177.992338 0
-126.293603 146.655514 177.958817 0
-165.432314 138.331135 181.368581 0
-165.491611 141.649644 181.183858 0
-165.568378 144.902974 181.007996 0
-164.516733 146.459285 180.890459 0
-161.677872 145.494902 180.853659 0
-159.473416 145.477582 180.791712 0
-157.251918 145.478406 180.733010 0
-154.987427 145.463420 180.678624 0
-152.709647 145.473324 180.627446 0
-150.404483 145.490185 180.580083 0
-147.426745 144.711026 180.559113 0
-145.563675 145.367375 180.502069 0
-143.260702 145.515560 180.463590 0
-140.792998 145.508934 180.433754 0
-138.309680 145.529845 180.407615 0
-135.811847 145.579571 180.385251 0
-133.284168 145.641021 180.367239 0
-130.659659 145.641934 180.355632 0
-128.958158 146.681149 180.321057 0
-164.771055 137.578741 183.565875 0
-164.949763 141.078201 183.341888 0
-165.024582 144.329436 183.135708 0
-159.293528 139.223180 183.303795 0
-161.505922 145.450436 182.977459 0
-159.336746 145.476383 182.928180 0
-157.120210 145.477904 182.884131 0
-154.873015 145.479700 182.844311 0
-152.563463 145.442098 182.810492 0
-150.241425 145.431961 182.779903 0
-147.830751 145.354357 182.756661 0
-145.500585 145.421138 182.731915 0
-143.145799 145.499704 182.711389 0
-140.744001 145.564471 182.696258 0
-138.263918 145.581531 182.688041 0
-135.786770 145.647084 182.682823 0
-133.242999 145.682617 182.684008 0
-131.384125 146.512139 182.657190 0
-164.038886 139.962739 185.550559 0
-164.131068 143.250482 185.311701 0
-163.934161 146.038992 185.107838 0
-161.400153 145.498734 185.100636 0
-159.193018 145.465826 185.068652 0
-156.948320 145.423747 185.041709 0
-154.725482 145.452589 185.015347 0
-152.421761 145.416963 184.997358 0
-150.169404 145.489464 184.978058 0
-147.791633 145.445543 184.970257 0
-145.423311 145.457679 184.964308 0
-143.078270 145.540793 184.959486 0
-140.641843 145.557568 184.963655 0
-138.204491 145.617512 184.970754 0
-135.697465 145.641872 184.985358 0
-133.633648 146.204462 184.975029 0
-162.707366 138.229426 187.837640 0
-162.819612 141.569428 187.563927 0
-163.056218 144.996758 187.290099 0
-161.932922 146.437009 187.163301 0
-159.056036 145.464860 187.212706 0
-156.844332 145.461072 187.198240 0
-154.608966 145.466635 187.188110 0
-152.325619 145.450953 187.184583 0
-150.038381 145.472394 187.183640 0
-147.692220 145.461867 187.190280 0
-145.267277 145.398314 187.206116 0
-142.967809 145.530621 187.213640 0
-140.624045 145.649973 187.227746 0
-138.145251 145.653818 187.255869 0
-135.701430 145.742404 187.283904 0
-133.961390 146.655931 187.258837 0
-161.095736 139.296836 189.916567 0
-161.302810 142.715569 189.610383 0
-161.432098 145.934958 189.326821 0
-159.503767 146.262472 189.293663 0
-156.703235 145.448981 189.362390 0
-154.493823 145.482794 189.364729 0
-152.208530 145.458185 189.377503 0
-149.886473 145.429226 189.396257 0
-147.577763 145.459755 189.415689 0
-145.204636 145.453107 189.444139 0
-142.834782 145.493698 189.474551 0
-140.554361 145.681529 189.498465 0
-138.255481 145.885583 189.527160 0
-136.466157 146.703732 189.509139 0
-158.685367 139.216610 192.117998 0
-159.172405 142.990030 191.749756 0
-159.228185 146.072408 191.454918 0
-157.237563 146.340828 191.442746 0
-154.300512 145.396703 191.555968 0
-152.075820 145.445639 191.577112 0
-149.789743 145.456213 191.608039 0
-147.466014 145.461309 191.645640 0
-145.090134 145.444942 191.691652 0
-142.695878 145.450066 191.741950 0
-140.873463 146.169411 191.727154 0
-138.653270 146.448448 191.762873 0
-154.705969 136.989835 194.602433 0
-155.796154 141.584781 194.110064 0
-156.476950 145.500858 193.698741 0
-154.931141 146.391495 193.633227 0
-152.575262 146.246872 193.690553 0
-149.672851 145.458057 193.827358 0
-147.341479 145.447353 193.882722 0
-145.004525 145.472255 193.940720 0
-143.160897 146.128017 193.933278 0
-149.855134 145.837722 196.004406 0
-147.706315 146.039777 196.048494 0
-144.893420 145.468877 196.198883 0
62.262593 -13.252847 -39.209328 9
58.778231 -19.913437 -38.332412 9
57.252096 -10.972227 -39.079060 9
52.855421 -27.117179 -37.256183 9
50.104760 -29.666064 -36.844478 9
47.476779 -31.416135 -36.524851 9
44.943657 -32.434234 -36.289094 9
42.477773 -32.819702 -36.126013 9
40.035544 -32.986864 -35.993271 9
37.597431 -33.182900 -35.865947 9
35.166638 -33.344012 -35.750347 9
32.743462 -33.423264 -35.651026 9
30.323077 -33.505282 -35.559538 9
27.904259 -33.643712 -35.470590 9
25.489663 -33.645603 -35.403092 9
23.075444 -33.722131 -35.336298 9
20.662212 -33.773084 -35.280010 9
18.248710 -33.789808 -35.235042 9
15.835632 -33.842941 -35.194507 9
13.421914 -33.888194 -35.162714 9
11.006828 -33.922896 -35.139918 9
8.586435 -33.888659 -35.131781 9
6.165640 -33.896125 -35.127579 9
3.743419 -33.921367 -35.129646 9
1.311515 -33.864057 -35.147727 9
-1.123827 -33.820669 -35.172492 9
-3.556668 -33.849916 -35.198257 9
-6.003396 -33.789348 -35.240835 9
-8.458020 -33.712984 -35.293080 9
-10.917308 -33.652457 -35.351950 9
-13.381066 -33.609014 -35.417354 9
-15.859984 -33.509881 -35.496472 9
-18.344012 -33.431706 -35.581850 9
-20.837754 -33.345889 -35.676352 9
-23.330800 -33.315431 -35.773795 9
-25.852098 -33.177794 -35.890360 9
-28.375105 -33.087395 -36.010806 9
-30.915631 -32.962359 -36.143367 9
-33.476898 -32.794364 -36.289007 9
-36.043136 -32.661830 -36.439923 9
-38.630277 -32.493900 -36.603374 9
-41.242452 -32.279738 -36.780623 9
-45.524304 -25.488740 -37.645632 9
-46.733906 -31.005956 -37.250653 9
-49.915666 -28.894468 -37.654737 9
-53.526043 -25.448196 -38.211579 9
-57.267599 -21.829069 -38.801384 9
74.368376 -6.069567 -37.497844 5
71.242569 -8.385419 -37.052526 5
68.312481 -9.768205 -36.707979 5
65.452622 -10.896188 -36.398428 5
61.245181 -22.109372 -35.161929 9
58.235239 -25.585842 -34.663047 9
55.369789 -28.429821 -34.234978 9
52.560181 -31.290351 -33.817100 9
49.873907 -33.487727 -33.470695 9
47.325530 -34.652120 -33.227729 9
44.821940 -35.574896 -33.015558 9
42.386526 -35.832516 -32.871449 9
39.968303 -35.939308 -32.748811 9
37.551027 -36.113327 -32.628157 9
35.144342 -36.170529 -32.525702 9
32.740007 -36.242081 -32.429797 9
30.338338 -36.316047 -32.341468 9
27.939405 -36.369339 -32.262699 9
25.541871 -36.449427 -32.189334 9
23.146046 -36.524487 -32.124125 9
20.751574 -36.611269 -32.065605 9
18.357604 -36.669063 -32.017275 9
15.962355 -36.676629 -31.980935 9
13.567168 -36.716834 -31.949447 9
11.168735 -36.707834 -31.929843 9
8.770314 -36.739293 -31.914426 9
6.367030 -36.725009 -31.910602 9
3.962978 -36.742577 -31.911724 9
1.552479 -36.717953 -31.924159 9
-0.862095 -36.693691 -31.944277 9
-3.279609 -36.684828 -31.970811 9
-5.705445 -36.642573 -32.007980 9
-8.137491 -36.595631 -32.053355 9
-11.187475 -31.814860 -32.515798 9
-13.022917 -36.483794 -32.169213 9
-15.474025 -36.442186 -32.237762 9
-17.939814 -36.353634 -32.318367 9
-20.409054 -36.296079 -32.404300 9
-22.894130 -36.196615 -32.501991 9
-25.387357 -36.105487 -32.607113 9
-27.887307 -36.031125 -32.718973 9
-30.405182 -35.918562 -32.842512 9
-32.935242 -35.801914 -32.974802 9
-35.486112 -35.645171 -33.119167 9
-38.042361 -35.521632 -33.269118 9
-40.612905 -35.392594 -33.428216 9
-43.197090 -35.263258 -33.596086 9
-45.925875 -34.635271 -33.818817 9
-48.912891 -33.145741 -34.131223 9
-52.226718 -30.643004 -34.549443 9
-55.846847 -27.302838 -35.059344 9
-60.011939 -22.418127 -35.730451 9
-67.900992 -5.918776 -37.532725 8
104.970100 -8.180752 -37.032157 5
101.447455 -10.653178 -36.475964 5
98.281667 -11.992694 -36.040302 5
95.192913 -13.180387 -35.631275 5
92.189821 -14.159220 -35.253341 5
89.241183 -15.035059 -34.896155 5
86.353416 -15.762737 -34.563230 5
83.499678 -16.445846 -34.244870 5
80.683870 -17.055997 -33.943257 5
77.895663 -17.632971 -33.654619 5
75.142216 -18.129736 -33.382740 5
72.411039 -18.601859 -33.122596 5
69.703666 -19.032716 -32.875396 5
67.010328 -19.474358 -32.636608 5
63.762249 -23.811909 -32.086084 9
60.782269 -26.831303 -31.657521 9
57.888799 -29.660709 -31.256489 9
55.111145 -32.002949 -30.906236 9
52.375995 -34.399979 -30.562307 9
49.766938 -36.025787 -30.290104 9
47.214882 -37.400695 -30.047148 9
44.744369 -38.133280 -29.863574 9
42.330611 -38.315132 -29.731214 9
39.932502 -38.349843 -29.617984 9
37.533602 -38.459100 -29.506565 9
35.141785 -38.504519 -29.407627 9
32.751339 -38.585670 -29.313462 9
30.364973 -38.622999 -29.230131 9
27.979873 -38.686296 -29.152277 9
25.596765 -38.727488 -29.083533 9
23.214696 -38.802902 -29.019621 9
20.833598 -38.849859 -28.965259 9
18.452221 -38.864139 -28.920733 9
16.071314 -38.917824 -28.880627 9
13.687865 -38.911671 -28.852369 9
11.303760 -38.929979 -28.829647 9
8.916924 -38.930372 -28.815632 9
6.529891 -38.965619 -28.806394 9
4.136588 -38.945952 -28.808638 9
1.740733 -38.939011 -28.817334 9
-0.658126 -38.940431 -28.832825 9
-3.063859 -38.913764 -28.857853 9
-5.474677 -38.885805 -28.890447 9
-7.893804 -38.833398 -28.932372 9
-10.306075 -38.882205 -28.974225 9
-12.741577 -38.797874 -29.033653 9
-15.185991 -38.705116 -29.101347 9
-17.622741 -38.713495 -29.169047 9
-20.083337 -38.619536 -29.252218 9
-22.540924 -38.594554 -29.337898 9
-25.024081 -38.476379 -29.438538 9
-27.508640 -38.404785 -29.543502 9
-30.003223 -38.333365 -29.656407 9
-32.509100 -38.258309 -29.777617 9
-35.040974 -38.116406 -29.912175 9
-37.569772 -38.042622 -30.049586 9
-40.100463 -38.010395 -30.191942 9
-42.667833 -37.879139 -30.350527 9
-45.319832 -37.478940 -30.539328 9
-48.207569 -36.285285 -30.801649 9
-51.317531 -34.431100 -31.128287 9
-54.742564 -31.667645 -31.541419 9
-58.367761 -28.468268 -32.003797 9
-62.241999 -24.721225 -32.526216 9
-67.061652 -18.316702 -33.289866 8
-70.074545 -17.795083 -33.568409 8
-73.123283 -17.249256 -33.859787 8
-76.232607 -16.613129 -34.170046 8
-79.401629 -15.898888 -34.498557 8
-82.611457 -15.165813 -34.840453 8
-85.922664 -14.259533 -35.210002 8
-89.307231 -13.267199 -35.600005 8
-92.823425 -12.053702 -36.023535 8
-96.497414 -10.575301 -36.485729 8
-100.454006 -8.561274 -37.013553 8
105.206501 -18.380601 -33.140652 5
102.180969 -19.262073 -32.752063 5
99.270919 -19.832655 -32.400601 5
96.396274 -20.361144 -32.063221 5
93.541802 -20.900700 -31.735355 5
90.729072 -21.361043 -31.424025 5
87.944724 -21.787253 -31.125313 5
85.186996 -22.180273 -30.838904 5
82.443892 -22.589308 -30.560806 5
79.765123 -22.769824 -30.309426 5
77.098107 -22.956396 -30.066519 5
74.453430 -23.089923 -29.836371 5
71.820994 -23.216657 -29.615375 5
69.195929 -23.361916 -29.401589 5
66.585984 -23.476476 -29.198502 5
63.348186 -27.924039 -28.695520 9
60.499798 -30.195270 -28.359862 9
57.692063 -32.527093 -28.030727 9
54.957659 -34.654471 -27.726334 9
52.274791 -36.718935 -27.436355 9
49.679323 -38.341199 -27.186327 9
47.171853 -39.374874 -26.985273 9
44.719085 -40.021285 -26.818642 9
42.310129 -40.276925 -26.686024 9
39.912648 -40.473544 -26.564825 9
37.526664 -40.573456 -26.457409 9
35.148724 -40.585297 -26.363058 9
32.769606 -40.686219 -26.270087 9
30.395501 -40.723099 -26.188502 9
28.022984 -40.767386 -26.113599 9
25.652238 -40.776665 -26.048099 9
23.281901 -40.729091 -25.993363 9
20.911183 -40.744772 -25.941656 9
18.540816 -40.790773 -25.895110 9
16.169600 -40.808342 -25.857476 9
13.796748 -40.807775 -25.828083 9
11.423312 -40.830967 -25.804265 9
9.048319 -40.855602 -25.787448 9
6.668152 -40.831255 -25.780835 9
4.289235 -40.868400 -25.777428 9
1.898168 -40.790221 -25.788455 9
-0.487000 -40.830928 -25.799076 9
-2.882821 -40.799187 -25.821452 9
-5.284510 -40.759913 -25.851493 9
-7.692008 -40.718723 -25.888871 9
-10.098883 -40.728890 -25.930210 9
-12.517209 -40.696058 -25.981572 9
-15.522171 -36.749032 -26.292275 9
-17.362696 -40.704651 -26.101484 9
-19.810807 -40.617301 -26.178439 9
-22.251058 -40.625614 -26.256635 9
-24.715405 -40.545398 -26.348107 9
-27.188458 -40.470596 -26.446809 9
-29.677239 -40.368393 -26.554973 9
-32.159402 -40.348819 -26.665359 9
-34.670830 -40.243164 -26.789258 9
-37.184902 -40.178020 -26.918298 9
-39.725796 -40.051189 -27.059463 9
-42.258135 -40.011504 -27.202708 9
-44.912977 -39.552510 -27.383057 9
-47.641493 -38.900420 -27.585549 9
-50.655064 -37.329190 -27.861878 9
-53.915167 -35.066126 -28.197857 9
-57.383311 -32.309477 -28.580932 9
-60.995071 -29.315878 -28.993873 9
-66.211580 -21.579296 -29.768253 8
-68.605515 -22.848695 -29.895975 8
-71.516024 -22.584835 -30.146008 8
-74.415215 -22.417764 -30.398650 8
-77.370799 -22.154766 -30.668596 8
-80.378936 -21.815931 -30.954708 8
-83.360757 -21.614610 -31.240590 8
-86.460728 -21.175706 -31.555908 8
-89.618051 -20.669698 -31.887818 8
-92.821129 -20.131587 -32.233887 8
-96.094995 -19.507149 -32.598947 8
-99.410958 -18.870387 -32.977314 8
-102.803424 -18.147581 -33.375576 8
-106.847550 -16.095528 -33.901915 8
107.462630 -21.255209 -30.002178 5
104.103075 -23.263625 -29.542031 5
101.339357 -23.352454 -29.233679 5
98.558784 -23.559957 -28.926272 5
95.791994 -23.780569 -28.627419 5
93.055834 -23.946907 -28.341664 5
90.287485 -24.308671 -28.051772 5
87.545821 -24.635530 -27.773588 5
84.828959 -24.928899 -27.506789 5
82.123465 -25.244501 -27.247532 5
79.427172 -25.593479 -26.995037 5
76.776716 -25.790127 -26.761067 5
74.133176 -26.018130 -26.533626 5
71.502242 -26.247422 -26.314554 5
68.889661 -26.440788 -26.106038 5
66.281418 -26.677905 -25.903085 5
63.119020 -30.744405 -25.478853 9
60.310308 -32.853276 -25.183643 9
57.542261 -34.999741 -24.896406 9
54.852761 -36.871396 -24.635129 9
52.225319 -38.543111 -24.394816 9
49.643756 -40.114692 -24.169260 9
47.145213 -41.146070 -23.983013 9
44.714023 -41.639633 -23.835016 9
42.307464 -41.968471 -23.703680 9
39.931394 -41.963668 -23.598058 9
37.553511 -42.037987 -23.495068 9
35.180293 -42.088938 -23.400352 9
32.810407 -42.124539 -23.313422 9
30.443064 -42.143822 -23.234289 9
28.076278 -42.210024 -23.159530 9
25.711530 -42.258557 -23.092606 9
23.347936 -42.257196 -23.035199 9
20.984288 -42.264855 -22.984147 9
18.620531 -42.286131 -22.939204 9
16.256829 -42.327325 -22.900041 9
13.891680 -42.343535 -22.869017 9
11.526335 -42.385193 -22.843481 9
9.157833 -42.393246 -22.826529 9
6.785829 -42.382768 -22.817375 9
4.410956 -42.374612 -22.814935 9
2.033994 -42.382142 -22.818524 9
-0.346895 -42.385078 -22.829219 9
-2.734642 -42.359771 -22.848276 9
-5.122311 -42.379457 -22.871880 9
-7.519425 -42.357898 -22.904580 9
-9.917476 -42.372801 -22.942319 9
-12.328744 -42.331401 -22.990020 9
-14.747181 -42.287968 -23.044868 9
-17.162079 -42.313419 -23.103116 9
-19.594272 -42.274048 -23.171928 9
-22.034874 -42.232996 -23.247995 9
-24.490064 -42.159683 -23.333026 9
-26.944446 -42.139779 -23.422433 9
-29.407884 -42.119972 -23.519144 9
-31.890133 -42.056946 -23.625615 9
-34.375613 -42.027746 -23.737665 9
-36.881061 -41.958701 -23.859461 9
-39.386331 -41.939165 -23.986062 9
-41.949336 -41.736943 -24.130760 9
-44.535740 -41.504675 -24.285109 9
-47.240115 -40.901346 -24.469165 9
-50.144801 -39.676883 -24.698456 9
-53.382681 -37.443075 -24.997460 9
-56.653324 -35.293680 -25.302467 9
-60.146325 -32.617835 -25.650865 9
-63.724150 -29.893375 -26.014625 9
-67.850848 -25.735714 -26.480743 8
-70.712921 -25.554652 -26.710676 8
-73.597424 -25.369871 -26.950240 8
-76.500610 -25.193805 -27.198781 8
-79.422726 -25.026897 -27.456398 8
-82.389179 -24.804236 -27.727556 8
-85.390896 -24.555023 -28.010599 8
-88.397573 -24.357758 -28.300381 8
-91.486201 -24.025671 -28.609962 8
-94.578995 -23.752595 -28.926220 8
-97.718446 -23.439189 -29.256315 8
-100.897893 -23.105079 -29.599160 8
-104.254329 -22.456346 -29.976905 8
-109.993485 -16.843283 -30.742441 8
127.696393 -4.998661 -29.571196 6
123.785723 -7.557675 -29.025484 6
120.269153 -9.147693 -28.560436 6
116.893886 -10.455526 -28.127585 6
111.966006 -16.857950 -27.383049 5
106.605830 -25.164188 -26.543532 5
103.480680 -26.466958 -26.162214 5
100.679902 -26.766599 -25.853223 5
97.887670 -27.106650 -25.551230 5
95.142396 -27.343635 -25.264589 5
92.412768 -27.586708 -24.986593 5
89.706560 -27.802444 -24.719018 5
86.971397 -28.208667 -24.449564 5
84.291537 -28.452443 -24.197918 5
81.639422 -28.637582 -23.957951 5
78.985171 -28.898828 -23.722263 5
76.340039 -29.187285 -23.493489 5
73.729702 -29.366550 -23.278610 5
71.909965 -25.140129 -23.295294 5
68.575377 -29.538731 -22.882131 5
66.006231 -29.662679 -22.693641 5
62.984429 -32.899960 -22.361183 9
60.217644 -34.788110 -22.105097 9
57.483447 -36.745023 -21.855307 9
54.815628 -38.501246 -21.624369 9
52.188062 -40.236689 -21.403403 9
49.633706 -41.616412 -21.207557 9
47.154385 -42.507877 -21.042151 9
44.712689 -43.192050 -20.893735 9
42.325631 -43.354519 -20.775931 9
39.947607 -43.470610 -20.667051 9
37.579250 -43.498372 -20.568833 9
35.214656 -43.504163 -20.478269 9
32.851190 -43.532255 -20.393405 9
30.489073 -43.582834 -20.314230 9
28.129528 -43.601968 -20.243034 9
25.770740 -43.650048 -20.177222 9
23.413120 -43.636661 -20.120598 9
21.055713 -43.685009 -20.067958 9
18.698012 -43.695988 -20.023456 9
16.340085 -43.723548 -19.984828 9
13.980603 -43.729764 -19.953645 9
11.618784 -43.718966 -19.929721 9
9.256845 -43.746813 -19.910763 9
6.891222 -43.747619 -19.899485 9
4.522198 -43.740716 -19.895099 9
2.150528 -43.742540 -19.896939 9
-0.225997 -43.730874 -19.905935 9
-2.603275 -43.753702 -19.920128 9
-4.989939 -43.728210 -19.942952 9
-7.376991 -43.743785 -19.970741 9
-9.776257 -43.703551 -20.007533 9
-12.181277 -43.668196 -20.050852 9
-14.593670 -43.628733 -20.101105 9
-17.004878 -43.642764 -20.155907 9
-19.432940 -43.596031 -20.220102 9
-21.865579 -43.570143 -20.290298 9
-24.309276 -43.529511 -20.368054 9
-26.761265 -43.492669 -20.452632 9
-29.225707 -43.441040 -20.544892 9
-31.697030 -43.404638 -20.643587 9
-34.183017 -43.348946 -20.750293 9
-36.684961 -43.272863 -20.865150 9
-39.192467 -43.223353 -20.986126 9
-41.710743 -43.178785 -21.114248 9
-44.261015 -43.060049 -21.253248 9
-46.968154 -42.420844 -21.424250 9
-49.838643 -41.294786 -21.626651 9
-52.934688 -39.521726 -21.869179 9
-56.161622 -37.479841 -22.134848 9
-59.560669 -35.066310 -22.429527 9
-62.985137 -32.771758 -22.729717 9
-67.263979 -28.106966 -23.161949 8
-70.103049 -27.949255 -23.377329 8
-72.965993 -27.782376 -23.602148 8
-75.850443 -27.615418 -23.836081 8
-78.749470 -27.468648 -24.078177 8
-81.703987 -27.236242 -24.334344 8
-86.111500 -23.403528 -24.801359 8
-87.630927 -26.913105 -24.867821 8
-90.649929 -26.707295 -25.151845 8
-93.681996 -26.533200 -25.444138 8
-96.765613 -26.302783 -25.750061 8
-99.853838 -26.126093 -26.063268 8
-103.038753 -25.801773 -26.396300 8
-114.022859 -9.063051 -27.780793 8
-116.889268 -9.915482 -28.080476 7
-120.433787 -9.419181 -28.478322 7
-124.600037 -7.778258 -28.966004 7
-129.297322 -5.246396 -29.531042 7
148.390493 -8.671923 -28.717360 6
144.579004 -10.244693 -28.182443 6
140.949632 -11.511875 -27.682617 6
137.437576 -12.608989 -27.207791 6
134.026306 -13.562074 -26.755351 6
130.710512 -14.370550 -26.324454 6
127.443601 -15.146860 -25.907720 6
124.271344 -15.756977 -25.512399 6
121.126503 -16.378400 -25.127759 6
118.048148 -16.893152 -24.760049 6
115.473897 -15.940808 -24.481165 5
109.559398 -25.601070 -23.656048 5
105.821654 -28.803575 -23.191021 5
102.826482 -29.752643 -22.854215 5
100.076725 -29.955371 -22.564438 5
97.350757 -30.135683 -22.284538 5
