ply
format ascii 1.0
element vertex 1388
property float x
property float y
property float z
property int scalar_Label
end_header
-14.208326 84.069275 4.158772 1
-17.884911 91.310505 8.183582 3
-15.188462 93.272580 7.779072 3
-12.223101 95.048282 7.192402 3
-9.709388 97.201022 6.911664 2
-8.851117 100.606385 7.729706 2
-7.618737 103.702620 8.280325 2
-2.842124 104.247300 6.496811 2
1.168152 105.417925 5.232919 2
2.598391 108.414486 5.643039 2
-150.711918 -25.622853 12.915728 7
-147.897233 -23.475849 13.000052 7
-144.135109 -24.056442 11.673337 7
-140.320047 -24.664603 10.311630 7
-150.000150 10.478051 27.642301 7
-147.358982 12.017905 27.495074 7
-144.500079 12.997121 27.045401 7
-141.609446 13.914631 26.553546 7
-138.715641 14.844373 26.058345 7
-135.801572 15.748200 25.539003 7
-132.857913 16.609390 24.985823 7
-129.988086 17.655889 24.523242 7
-127.086887 18.654207 24.023950 7
-124.042141 19.380902 23.362537 7
-120.958557 20.066906 22.665010 7
-118.862772 22.706060 23.058339 8
-116.690109 25.142437 23.338352 8
-114.559841 27.611088 23.637434 8
-112.403447 29.987005 23.883668 8
-110.059125 31.993680 23.914543 8
-107.302210 33.273624 23.514821 8
-104.267520 34.104435 22.838644 8
-101.047761 34.670353 21.989289 8
-97.777838 35.206690 21.104106 8
-94.470986 35.738247 20.197143 8
-91.198811 36.376540 19.335992 8
-87.809931 36.891407 18.379603 8
-84.389200 37.416713 17.408745 8
-80.908569 37.914221 16.398887 8
-77.339476 38.348411 15.326356 8
-73.759480 38.831389 14.260976 8
-70.103580 39.276027 13.146591 8
-66.292009 39.583519 11.917401 8
-59.894361 36.669307 8.544412 9
-59.020858 40.853470 9.807892 9
-56.332694 42.734846 9.548636 9
-53.571250 44.538301 9.225856 9
-50.860806 46.415318 8.940924 9
-48.049813 48.189229 8.573155 9
-45.084198 49.807309 8.083276 9
-38.830716 47.845085 5.060897 9
-37.502777 51.347057 5.849155 9
-33.030259 51.493776 4.239907 9
-28.394859 51.563737 2.533871 9
-23.751049 51.721140 0.847947 9
-18.797307 51.667006 -1.038998 9
-17.027150 54.792892 -0.593855 4
-17.013972 59.554407 1.091984 4
-16.834507 64.068172 2.618276 4
-16.218835 68.102898 3.800388 1
-14.736160 71.304580 4.348716 1
-12.462721 73.790799 4.333849 1
-11.976368 77.798677 5.531817 1
-13.464961 83.388667 8.036724 1
-19.374284 92.450350 13.453728 3
-15.507526 93.440846 12.270147 3
-10.457242 93.572160 10.320662 3
-8.949827 96.510099 10.712133 3
-6.116106 98.441806 10.231323 2
-5.245569 101.835457 11.012795 2
-2.449191 103.819196 10.548343 2
2.745609 104.155941 8.570097 2
8.523175 104.197646 6.252355 2
-148.974988 -18.863623 19.602135 7
-144.932773 -20.392560 17.842471 7
-150.002852 2.976747 28.650747 7
-147.939740 6.222807 29.354282 7
-145.148179 7.488060 29.049274 7
-142.327772 8.679538 28.699386 7
-139.496942 9.849485 28.330792 7
-136.643586 10.973106 27.930071 7
-133.758242 12.034438 27.488075 7
-130.834099 13.025226 26.999485 7
-127.901509 14.018014 26.502012 7
-124.953855 15.000551 25.988800 7
-121.962539 15.917185 25.429247 7
-119.757818 18.420570 25.725293 8
-116.009504 17.889779 24.352207 8
-113.932821 20.609429 24.757993 8
-113.417309 26.138830 26.736983 8
-111.219092 28.458576 26.935344 8
-108.685065 30.154318 26.779136 8
-105.811254 31.264385 26.281859 8
-102.658275 31.932301 25.518052 8
-99.459490 32.570616 24.721000 8
-96.262758 33.259556 23.936797 8
-92.996272 33.886115 23.098869 8
-89.695529 34.510539 22.241650 8
-86.335298 35.097658 21.343395 8
-82.899568 35.628915 20.391674 8
-79.490266 36.255026 19.477090 8
-75.958436 36.765232 18.470517 8
-72.467153 37.390971 17.513338 8
-68.837640 37.889600 16.454422 8
-65.123956 38.342043 15.342094 8
-59.315566 36.195397 12.542807 9
-58.298454 40.194349 13.651212 9
-55.587439 42.047865 13.377847 9
-52.872775 43.907774 13.097954 9
-50.194998 45.822312 12.843262 9
-47.475463 47.699432 12.552693 9
-44.491728 49.293769 12.058916 9
-40.876668 50.222096 11.093518 9
-33.740519 47.427109 7.529177 9
-32.424449 50.958574 8.301421 9
-27.996326 51.239390 6.789623 9
-23.342320 51.379447 5.138175 9
-18.677189 51.603018 3.503906 9
-16.398249 54.223968 3.573556 4
-15.166419 57.830015 4.363200 4
-3.683723 51.900375 -1.945105 9
-14.855596 66.859932 7.344084 1
-14.205940 70.812517 8.445820 1
-10.609304 72.145028 7.542905 1
-9.490641 75.635671 8.296004 1
-20.302490 89.019346 16.884640 3
-20.397551 93.212141 18.318554 3
-15.557482 93.395697 16.528280 3
-10.527394 93.528450 14.640996 3
-6.394142 94.448258 13.349989 3
-3.708064 96.520111 12.986832 3
0.348010 97.613813 11.767249 2
3.499473 99.421247 11.122505 2
6.720643 101.217858 10.439412 2
-150.113119 -14.135459 26.092213 7
-149.906352 -5.128341 29.535768 7
-147.527214 -2.480751 29.895767 7
-144.979561 -0.363129 29.996069 7
-142.341238 1.470678 29.954043 7
-139.639406 3.113689 29.813407 7
-136.921379 4.696836 29.638238 7
-134.136349 6.108359 29.370884 7
-131.316519 7.436698 29.054669 7
-128.472133 8.712636 28.704380 7
-125.594301 9.922870 28.312303 7
-122.701576 11.112787 27.901234 7
-119.735163 12.166266 27.409424 7
-116.550918 12.810436 26.689974 8
-116.142672 18.846829 28.844332 8
-114.114947 21.615837 29.265522 8
-112.119654 24.383374 29.689405 8
-109.730024 26.386606 29.698065 8
-107.051519 27.864773 29.413832 8
-104.024823 28.754992 28.794705 8
-100.928083 29.562741 28.116152 8
-97.743132 30.266060 27.364217 8
-94.561071 31.018734 26.624682 8
-91.285797 31.670301 25.811241 8
-87.988909 32.338225 24.990022 8
-84.676535 33.032640 24.166632 8
-81.318481 33.710167 23.315309 8
-77.925389 34.389183 22.446130 8
-74.431402 34.980477 21.504967 8
-70.887460 35.561146 20.536430 8
-67.352162 36.212064 19.589020 8
-63.672173 36.731980 18.539134 8
-58.094532 34.903386 16.004620 9
-55.417990 36.849118 15.787330 9
-54.690031 41.174555 17.068892 9
-52.011858 43.082554 16.823320 9
-49.321613 44.986049 16.564854 9
-46.578812 46.840326 16.263838 9
-43.530645 48.366955 15.735462 9
-37.102130 46.219785 12.746015 9
-35.760199 49.710862 13.479913 9
-31.490512 50.078158 12.101131 9
-27.140585 50.444191 10.686205 9
-22.676961 50.778780 9.212771 9
-18.063233 51.051516 7.657322 9
-14.333228 52.268157 6.729935 4
-13.701637 56.467617 7.913091 4
-13.018966 60.550504 9.031188 4
-12.279645 64.517674 10.082653 4
-11.776473 68.634964 11.262442 1
-9.694903 71.315047 11.383360 1
-6.797354 73.295636 10.967647 1
-21.736152 90.154160 21.978342 3
-20.469675 93.200045 22.497641 3
-15.531234 93.290706 20.691055 3
-10.472747 93.388418 18.835065 3
-5.264023 93.474463 16.912127 3
0.128554 93.529456 14.903185 3
3.874370 94.899375 13.923436 3
11.987968 93.201158 10.320012 3
-137.103251 -10.657251 28.032234 7
-135.587999 -5.765471 29.432802 7
-133.298497 -2.924487 29.843621 7
-130.817244 -0.612248 29.996657 7
-128.196880 1.334147 29.967531 7
-125.496840 3.075588 29.833002 7
-122.735385 4.668508 29.619251 7
-119.931429 6.165107 29.351057 7
-118.454144 10.344115 30.452310 8
-116.527617 13.500423 31.039160 8
-114.192433 15.788338 31.180304 8
-111.259866 16.918731 30.713865 8
-109.071720 19.430486 30.967861 8
-106.602333 21.395161 30.931688 8
-104.842601 24.578006 31.546248 8
-102.092832 26.003582 31.216757 8
-98.976380 26.830014 30.552247 8
-95.828993 27.644873 29.867617 8
-92.663133 28.470622 29.174723 8
-89.425969 29.226631 28.428180 8
-86.193679 30.034922 27.695314 8
-82.835818 30.700927 26.865745 8
-79.506694 31.459529 26.071544 8
-76.099450 32.155528 25.223742 8
-72.675745 32.880576 24.374272 8
-69.224629 33.620202 23.514433 8
-65.652714 34.251906 22.571053 8
-59.896453 32.107460 19.942626 9
-58.852214 36.124171 20.987928 9
-56.196506 38.055860 20.775437 9
-53.616243 40.086013 20.615055 9
-51.002506 42.079875 20.424346 9
-48.378471 44.067858 20.221429 9
-45.595009 45.881221 19.898808 9
-42.416451 47.268612 19.291773 9
-38.610185 48.003392 18.244943 9
-34.496354 48.471352 16.996864 9
-30.391388 49.024049 15.773264 9
-26.108251 49.467148 14.444971 9
-21.714601 49.878753 13.061077 9
-17.176552 50.230837 11.600404 9
-12.553319 50.587829 10.104557 9
-11.498081 54.406825 10.981731 4
-10.557876 58.279488 11.909609 4
-9.552152 62.037966 12.770262 4
-9.279342 66.397152 14.077014 4
-10.725599 72.175616 16.443192 1
-11.226571 77.015384 18.165378 1
-23.119453 91.248369 26.945530 3
-23.539069 95.632766 28.480776 3
-23.970256 99.943091 29.990493 3
-24.369027 104.147274 31.448917 3
-5.255486 93.358213 21.143031 3
0.120464 93.412237 19.197806 3
5.706989 93.422141 17.155193 3
-119.761472 -16.672225 25.257787 8
-120.885811 -6.106905 29.359310 7
-119.744590 -0.841723 30.916311 8
-117.985967 2.946959 31.763995 8
-114.718460 3.573270 31.046445 8
-113.171545 7.627366 32.037057 8
-111.388680 11.103311 32.748109 8
-109.500520 14.287470 33.319143 8
-107.221312 16.679677 33.489966 8
-104.528852 18.297529 33.260287 8
-101.488748 19.310870 32.709202 8
-98.407824 20.284205 32.125846 8
-95.273677 21.201525 31.500859 8
-92.623080 22.937608 31.300670 8
-90.502913 25.512474 31.546438 8
-87.305885 26.384840 30.868433 8
-84.072202 27.242073 30.167835 8
-80.827627 28.125226 29.466642 8
-77.490387 28.916379 28.699004 8
-74.134021 29.727564 27.926049 8
-70.733824 30.525434 27.128600 8
-67.300424 31.327387 26.315826 8
-63.710319 31.971805 25.393884 8
-58.172560 30.149815 23.014721 9
-57.565685 34.746753 24.361344 9
-55.004666 36.811298 24.226408 9
-52.453361 38.888983 24.092640 9
-49.842741 40.897882 23.910436 9
-47.213987 42.891346 23.710863 9
-44.362894 44.638496 23.350961 9
-41.026994 45.862629 22.653551 9
-37.142153 46.527611 21.585582 9
-33.078934 47.067347 20.411216 9
-28.953494 47.614360 19.212006 9
-24.695668 48.099203 17.941895 9
-20.434299 48.658579 16.687998 9
-16.044622 49.168264 15.368270 9
-11.423807 49.535445 13.918117 9
-8.482795 51.578885 13.564816 4
-7.209906 55.187536 14.269128 4
-5.865738 58.688879 14.908476 4
-11.784296 68.599491 20.047880 1
-11.117930 72.481968 21.026725 1
-9.603585 75.586548 21.463714 1
-7.744908 78.380606 21.678544 1
-22.279856 94.537126 31.718474 3
-25.226024 100.866408 34.685497 3
-25.685150 105.085965 36.129968 3
-26.077128 109.175907 37.505652 3
-26.422123 113.157261 38.826202 3
-26.782703 117.080592 40.129163 3
-27.157057 120.946185 41.414141 3
-27.518130 124.736676 42.666471 3
-116.803529 -14.087796 29.680176 8
-116.184156 -7.533700 31.772466 8
-113.686838 -5.119420 31.905901 8
-112.602600 0.092126 33.393308 8
-111.205304 4.504594 34.511925 8
-109.510080 8.205075 35.296103 8
-107.406612 11.039363 35.661771 8
-104.882441 13.047419 35.619088 8
-101.944213 14.300722 35.194345 8
-98.940782 15.458744 34.712598 8
-95.897997 16.573512 34.198970 8
-92.812152 17.643556 33.651844 8
-89.706180 18.710724 33.092029 8
-86.532804 19.702304 32.481057 8
-83.334726 20.691108 31.855978 8
-80.099172 21.659913 31.207162 8
-77.957677 24.282003 31.432007 8
-75.204644 25.988342 31.162185 8
-71.872036 26.884363 30.442303 8
-68.535009 27.818530 29.727778 8
-65.123411 28.695636 28.965715 8
-59.499750 26.693954 26.572391 9
-58.618796 31.003434 27.703384 9
-56.159454 33.218067 27.655348 9
-53.622523 35.330803 27.544044 9
-51.095708 37.455459 27.433812 9
-48.612117 39.631666 27.347863 9
-43.732335 39.016826 25.600912 9
-42.812430 43.032915 26.588991 9
-39.318643 44.100892 25.809211 9
-35.413976 44.767720 24.764215 9
-31.506578 45.497658 23.732237 9
-27.323522 46.003420 22.534343 9
-23.164723 46.609816 21.369756 9
-18.926701 47.209753 20.171112 9
-14.528307 47.726874 18.887927 9
-10.031492 48.229390 17.561561 9
-5.536483 48.816459 16.255539 9
-2.381008 50.724826 15.792998 4
-0.212393 53.556505 15.934764 4
2.518661 55.880600 15.727747 4
-6.269352 68.232546 22.414755 1
-4.737197 71.396573 22.851748 1
-3.236866 74.562900 23.294048 1
-1.456907 77.477207 23.560174 1
-14.622378 92.317666 32.448686 3
-18.022629 99.005782 35.586905 3
-21.089615 105.260315 38.477672 3
-24.017730 111.248262 41.237067 3
-26.883356 117.036881 43.911367 3
-28.345700 121.672020 45.760699 3
-28.674960 125.412958 46.953881 3
-29.027817 129.108398 48.137030 3
-29.336163 132.713591 49.273748 3
-29.665482 136.275436 50.400402 3
-29.953868 139.755158 51.484448 3
-113.310445 -20.747475 30.797978 8
-111.169613 -17.266500 31.377252 8
-110.845547 -10.144890 33.660828 8
-110.172172 -4.007533 35.515382 8
-108.825622 0.583498 36.665202 8
-106.963254 4.041170 37.290970 8
-104.590725 6.458183 37.425043 8
-101.763032 8.009648 37.140656 8
-98.882738 9.471585 36.806563 8
-95.946407 10.845726 36.422350 8
-92.966439 12.160586 36.000866 8
-89.958458 13.447564 35.556809 8
-86.877851 14.638165 35.055020 8
-83.767871 15.808723 34.532756 8
-80.647550 16.991617 34.005994 8
-77.458485 18.099755 33.429521 8
-74.215831 19.162156 32.817081 8
-70.939841 20.212857 32.185523 8
-67.598664 21.209616 31.511836 8
-64.631781 22.764201 31.121962 8
-62.615920 25.621371 31.425194 8
-59.360827 26.805393 30.820107 9
-57.018389 29.205873 30.869290 9
-54.533411 31.411891 30.808433 9
-52.078934 33.650863 30.761634 9
-49.566983 35.814872 30.668232 9
-47.125817 38.061880 30.616876 9
-44.250740 39.800474 30.268152 9
-41.037147 41.171822 29.695303 9
-37.281507 41.973048 28.772406 9
-33.460264 42.762034 27.819637 9
-29.498922 43.462445 26.790161 9
-25.451605 44.139220 25.720717 9
-21.376225 44.856198 24.648889 9
-17.160733 45.501234 23.505062 9
-12.860044 46.135923 22.325170 9
-8.439092 46.730316 21.088878 9
-3.989485 47.376842 19.853079 9
0.692171 47.887533 18.496152 9
5.459540 48.407021 17.108133 9
10.289962 48.958759 15.703136 9
15.225720 49.507974 14.257009 9
20.457054 49.896933 12.661274 9
25.715271 50.363902 11.073248 9
31.192510 50.751788 9.383981 9
36.953274 51.018712 7.559906 9
43.482069 50.798281 5.335134 9
-10.536888 97.079780 36.511864 3
-13.869046 103.534084 39.459281 3
-17.027699 109.692507 42.259570 3
-20.098247 115.629190 44.962599 3
-23.061351 121.338973 47.560746 3
-25.893760 126.814893 50.044543 3
-28.685020 132.126821 52.463971 3
-30.813762 136.872153 54.497398 3
-31.065759 140.304070 55.526999 3
-31.357410 143.709476 56.558232 3
-102.947436 -25.530520 30.841916 8
-105.560689 -12.455133 35.740882 8
-104.716213 -6.697245 37.356097 8
-102.665328 -3.438937 37.839482 8
-100.231656 -0.970620 37.961257 8
-97.679558 1.243618 37.964536 8
-95.027679 3.255513 37.870926 8
-92.239182 5.016565 37.654887 8
-89.416190 6.717496 37.405111 8
-86.502115 8.270429 37.078081 8
-83.535351 9.748557 36.707584 8
-80.545259 11.204555 36.318414 8
-77.464128 12.537200 35.859691 8
-74.349549 13.842853 35.377852 8
-71.193272 15.112795 34.867792 8
-67.943782 16.276900 34.292918 8
-64.695449 17.476671 33.724201 8
-59.838816 16.494040 32.010792 9
-59.127109 21.228617 33.257383 9
-57.543088 24.698355 33.855795 9
-55.220384 27.154500 33.922206 9
-52.837365 29.518573 33.937571 9
-50.441562 31.855867 33.935820 9
-47.997988 34.126390 33.894454 9
-45.352482 36.152070 33.713709 9
-42.403810 37.831278 33.332666 9
-38.870118 38.865688 32.577037 9
-35.127790 39.716432 31.698271 9
-31.275611 40.505067 30.762441 9
-27.365906 41.293997 29.803897 9
-23.309337 41.992323 28.768365 9
-19.312740 42.820749 27.784197 9
-15.121020 43.517798 26.696008 9
-10.883126 44.241173 25.595819 9
-6.581825 44.975822 24.473783 9
-2.124015 45.636321 23.276018 9
2.411054 46.303931 22.050630 9
7.111373 46.901986 20.747841 9
11.848758 47.552260 19.442723 9
16.847589 48.060273 18.008819 9
21.742122 48.750277 16.653922 9
27.024667 49.204659 15.103313 9
32.442862 49.648393 13.500639 9
37.881037 50.179319 11.910141 9
44.685703 49.742904 9.605327 9
64.471089 39.506760 0.394532 5
-2.795291 95.117673 37.487103 3
-6.392665 101.767172 40.482664 3
-9.788004 108.097082 43.319999 3
-13.071944 114.185178 46.050165 3
-16.250445 120.045009 48.679098 3
-19.328925 125.689068 51.212251 3
-22.244920 131.084595 53.620603 3
-32.205723 140.874120 59.518449 3
-32.385003 144.185205 60.459682 3
-27.113163 144.102673 58.694612 3
-86.484023 -25.753420 30.841193 8
-90.161546 -11.703575 36.138278 8
-89.103273 -6.589404 37.418970 8
-87.047357 -3.350932 37.851832 8
-84.635049 -0.780034 37.979493 8
-82.038629 1.452534 37.949156 8
-79.343993 3.508434 37.833444 8
-76.501090 5.321810 37.598670 8
-73.629131 7.092999 37.338277 8
-70.643965 8.699630 36.992049 8
-67.576757 10.199591 36.586050 8
-59.875139 5.058155 32.888152 9
-59.940806 11.147186 34.724192 9
-59.196391 15.948702 35.942995 9
-57.714799 19.640428 36.618227 9
-55.481480 22.272120 36.760616 9
-53.237312 24.866340 36.883999 9
-50.960450 27.398341 36.974850 9
-48.569952 29.772420 36.981781 9
-46.035706 31.962542 36.888484 9
-43.375948 34.002531 36.710133 9
-40.019242 35.238756 36.090095 9
-36.393418 36.208812 35.309345 9
-32.650597 37.100703 34.466811 9
-28.848499 37.984666 33.599652 9
-24.924076 38.796330 32.670661 9
-20.986712 39.657360 31.747018 9
-16.981065 40.510747 30.795896 9
-12.792173 41.244220 29.750949 9
-8.578453 42.024027 28.706641 9
-4.372896 42.882310 27.681854 9
0.039238 43.614538 26.554179 9
4.503910 44.374207 25.413132 9
9.099486 45.092038 24.215457 9
13.784664 45.810819 22.985509 9
18.592394 46.505545 21.706161 9
23.647582 47.075144 20.311099 9
28.710125 47.731692 18.932289 9
33.944204 48.340000 17.481936 9
39.320112 48.931220 15.977568 9
47.160935 47.691861 13.205965 9
64.822676 39.103216 5.386179 5
71.350392 39.364138 3.416927 5
78.118574 39.577052 1.353569 5
1.357668 99.954478 41.549499 3
-2.322857 106.486737 44.441163 3
-5.831575 112.730899 47.197867 3
-9.254130 118.756748 49.865372 3
-12.511540 124.520251 52.407373 3
-33.271455 141.399468 63.409504 3
-32.670623 144.197301 63.943183 3
-27.526708 144.177999 62.293468 3
-22.222356 144.166668 60.590530 3
-69.397316 -25.817188 30.820390 8
-73.864561 -11.434402 36.225836 8
-72.895783 -6.333818 37.458675 8
-70.865715 -3.040058 37.874829 8
-68.435403 -0.420616 37.982249 8
-65.810710 1.877775 37.939279 8
-59.914029 -0.638330 35.608339 9
-58.848251 3.974823 36.650205 9
-59.753413 11.245956 38.993079 9
-58.713501 15.621260 39.964414 9
-56.398987 18.183274 40.059770 9
-54.278613 20.979727 40.271460 9
-52.083527 23.649836 40.421910 9
-50.369354 26.903176 40.867927 9
-47.192696 28.301862 40.374157 9
-44.564474 30.394931 40.226406 9
-41.060857 31.453413 39.535706 9
-37.308149 32.269374 38.701910 9
-33.600585 33.194556 37.907083 9
-29.902591 34.185175 37.128780 9
-26.094439 35.109074 36.295888 9
-19.262146 32.858087 33.709394 9
-18.324235 36.967564 34.575234 9
-14.315738 37.859334 33.662090 9
-10.238411 38.745289 32.722787 9
-6.066404 39.603217 31.743634 9
-1.891341 40.526175 30.776669 9
2.518002 41.294824 29.694468 9
6.948432 42.119042 28.616402 9
11.408180 42.991380 27.537927 9
16.101873 43.730610 26.349731 9
20.800848 44.547340 25.175904 9
25.767277 45.217227 23.878508 9
30.697202 46.006836 22.618921 9
35.915704 46.647280 21.228593 9
41.306254 47.245272 19.770486 9
52.652860 43.276474 15.316479 9
69.656586 35.262500 8.093096 5
72.277552 38.518708 8.150236 5
78.730207 38.961758 6.310187 5
85.519517 39.286644 4.331802 5
92.702122 39.467351 2.190930 5
100.065518 39.666271 -0.006103 5
1.637919 111.262185 48.406930 3
-1.998521 117.430353 51.091468 3
-34.374448 141.951689 67.257645 3
-32.899335 144.175387 67.363692 3
-27.862864 144.207826 65.815943 3
-22.570592 144.187632 64.172327 3
-17.128438 144.186373 62.483343 3
-59.437670 -20.446746 34.314539 9
-58.787986 -14.732262 35.747096 9
-64.264138 -0.004495 41.311059 9
-62.740666 3.918487 42.003591 9
-60.174733 6.264530 41.976135 9
-59.145222 10.751460 42.948563 9
-57.127949 13.778407 43.248208 9
-55.063455 16.700598 43.502137 9
-52.934088 19.501569 43.701103 9
-50.676663 22.107797 43.807853 9
-48.140415 24.341682 43.732834 9
-45.274561 26.164218 43.451583 9
-42.029312 27.541599 42.941291 9
-38.451933 28.558646 42.237961 9
-34.841279 29.586107 41.524250 9
-31.015376 30.418836 40.694441 9
-27.094186 31.204629 39.821514 9
-23.148370 32.026020 38.947201 9
-19.230721 32.939972 38.101392 9
-15.408207 34.013700 37.320678 9
-11.388679 34.940616 36.441459 9
-7.370408 35.931457 35.575347 9
-3.270406 36.903510 34.676977 9
0.938306 37.834768 33.732835 9
5.226357 38.758438 32.759900 9
9.686843 39.591943 31.709965 9
14.111956 40.532438 30.693709 9
18.716077 41.386419 29.599340 9
23.419164 42.232259 28.470052 9
28.130947 43.151053 27.352666 9
33.128905 43.910500 26.107209 9
38.197578 44.700429 24.844601 9
44.216563 44.819044 23.130227 9
58.925887 38.245695 17.180085 9
68.199598 36.246756 13.970545 5
74.113835 36.990657 12.431275 5
80.281009 37.656567 10.793322 5
86.775318 38.201499 9.023959 5
93.431133 38.755696 7.204322 5
100.516726 39.139963 5.210478 5
120.267973 31.123090 -2.616794 6
129.407470 30.613154 -5.450414 6
-35.423498 142.471979 71.021196 3
-33.184795 144.190925 70.776389 3
-28.133990 144.199520 69.272334 3
-22.887270 144.191658 67.702551 3
-17.476914 144.193152 66.082796 3
-11.854317 144.181428 64.392882 3
-4.113248 143.093868 61.804513 3
-60.273882 -11.982712 41.361694 9
-60.384238 -5.373023 43.171036 9
-59.296345 -0.714110 44.143983 9
-57.832354 3.293759 44.841458 9
-56.189231 6.966964 45.399221 9
-54.402790 10.375222 45.845268 9
-52.450204 13.504255 46.169913 9
-50.376190 16.430198 46.405132 9
-47.945115 18.862690 46.412191 9
-45.236091 20.932385 46.246489 9
-42.040347 22.404956 45.791119 9
-38.592859 23.602325 45.192996 9
-35.086646 24.771627 44.568215 9
-31.503480 25.895533 43.907340 9
-27.884556 27.025761 43.234834 9
-24.213464 28.145925 42.541981 9
-20.424291 29.187097 41.793115 9
-16.483045 30.120152 40.971474 9
-12.372499 30.936159 40.070032 9
-8.234901 31.790763 39.167367 9
-4.107559 32.722030 38.283320 9
-0.060246 33.796948 37.453989 9
4.114033 34.810184 36.570298 9
8.398408 35.784293 35.642539 9
12.677982 36.831031 34.730571 9
17.099686 37.815936 33.759809 9
21.654432 38.754047 32.736474 9
26.371099 39.626479 31.647732 9
31.067003 40.596543 30.585142 9
35.957606 41.482127 29.443137 9
41.005205 42.323053 28.242053 9
50.325042 39.830533 25.014420 9
65.426966 33.032378 19.096207 5
70.957676 33.996767 17.777218 5
76.667084 34.923166 16.394050 5
82.558243 35.816594 14.946942 5
88.855962 36.522351 13.334395 5
95.279240 37.255939 11.688354 5
101.996935 37.905073 9.933466 5
120.110076 30.990544 3.102150 6
-36.175739 139.648930 73.842971 3
-36.433646 142.969861 74.710709 3
-33.473095 144.209955 74.156381 3
-28.412288 144.197414 72.698087 3
-23.200808 144.195737 71.196088 3
-17.815028 144.195925 69.641303 3
-12.257173 144.205064 68.035893 3
-6.462134 144.192171 66.353604 3
-54.719159 -19.990590 42.320857 9
-55.726410 -11.889754 44.671030 9
-55.300077 -6.142471 46.050848 9
-54.294384 -1.380539 47.027707 9
-52.950229 2.793808 47.764736 9
-51.345804 6.523596 48.318500 9
-49.396575 9.722714 48.645613 9
-47.130020 12.460059 48.770731 9
-44.494884 14.698610 48.671398 9
-41.405141 16.361545 48.306115 9
-38.073693 17.747852 47.805350 9
-34.702543 19.120011 47.287475 9
-31.224505 20.401320 46.715763 9
-27.726752 21.700264 46.140056 9
-24.168370 22.971407 45.538288 9
-20.519584 24.185435 44.895332 9
-16.805480 25.375333 44.225934 9
-13.034454 26.553829 43.535419 9
-9.189012 27.705704 42.815368 9
-5.224207 28.788976 42.043506 9
-1.236824 29.907541 41.270984 9
3.132676 30.708241 40.315643 9
7.516640 31.567494 39.367398 9
11.850266 32.546205 38.458320 9
16.116495 33.656184 37.595761 9
20.537604 34.691119 36.670022 9
25.076823 35.691376 35.700686 9
29.542065 36.829589 34.781034 9
34.251127 37.829882 33.758897 9
39.035920 38.844521 32.716171 9
45.232010 38.783877 31.030441 9
64.541326 28.343282 23.307026 5
68.974827 30.132216 22.533563 5
74.336330 31.268802 21.348691 5
79.999599 32.268376 20.045153 5
85.718618 33.325338 18.735957 5
91.653733 34.325490 17.350223 5
97.834112 35.257013 15.877070 5
104.369066 36.054312 14.271006 5
121.408257 29.876543 8.143358 6
-37.220634 140.194032 77.524121 3
-37.444413 143.470723 78.346187 3
-33.714864 144.201226 77.483858 3
-28.712098 144.210322 76.100091 3
-23.525842 144.208633 74.660385 3
-18.171356 144.211459 73.172360 3
-12.574366 144.181542 71.606709 3
-6.841046 144.187119 70.008417 3
-48.358066 -22.430434 44.678910 9
-50.317096 -12.997333 47.497892 9
-49.955083 -7.188622 48.850164 9
-48.881735 -2.529986 49.741143 9
-47.268574 1.283684 50.288280 9
-45.207235 4.426990 50.557181 9
-42.641022 6.867040 50.525856 9
-39.645348 8.744543 50.247485 9
-36.534565 10.490397 49.905409 9
-33.340751 12.153604 49.519552 9
-30.091846 13.774484 49.106683 9
-26.719638 15.276670 48.631184 9
-23.331024 16.792884 48.151990 9
-19.862239 18.251840 47.635820 9
-16.283892 19.626265 47.068664 9
-12.661086 20.994192 46.485713 9
-8.933056 22.293348 45.856600 9
-5.159820 23.592862 45.213075 9
-1.295311 24.847886 44.532667 9
2.628563 26.095564 43.832321 9
6.665806 27.285768 43.086278 9
10.765098 28.474067 42.320809 9
14.987968 29.605243 41.507013 9
19.523139 30.510963 40.556586 9
24.175661 31.384689 39.565249 9
28.753528 32.402383 38.623825 9
33.263060 33.553384 37.728109 9
37.951583 34.622165 36.763563 9
43.387324 35.142518 35.473890 9
55.937735 29.941437 30.999633 9
68.197878 25.310989 26.730054 5
73.262340 26.649787 25.716862 5
78.525601 27.916012 24.631371 5
83.926528 29.164349 23.502105 5
89.506339 30.369974 22.312457 5
95.239019 31.558986 21.075150 5
101.258823 32.642556 19.734437 5
109.897894 32.021226 17.310657 5
124.021744 27.873418 12.632638 6
-38.219794 140.711334 81.131836 3
-38.462666 143.978944 81.931808 3
-33.995435 144.218565 80.796826 3
-28.963312 144.194866 79.450186 3
-23.846014 144.220415 78.089558 3
-18.485576 144.204085 76.652340 3
-12.931932 144.183332 75.160092 3
-7.223324 144.186173 73.629140 3
-37.325001 -18.291074 47.598847 9
-39.074300 -9.569644 50.081802 9
-37.588313 -5.445634 50.704262 9
-35.421773 -2.291625 50.932595 9
-32.970394 0.459375 50.995148 9
-30.242517 2.842935 50.902317 9
-27.384863 5.062777 50.737210 9
-24.374105 7.101783 50.490202 9
-21.252714 9.022292 50.186125 9
-18.034786 10.849183 49.834188 9
-14.693464 12.559202 49.422448 9
-11.273463 14.210729 48.975331 9
-7.737675 15.768719 48.475645 9
-4.158305 17.317732 47.960570 9
-0.472649 18.794846 47.400200 9
3.314109 20.211829 46.798492 9
7.164893 21.611778 46.174433 9
11.093976 22.984085 45.522038 9
15.120813 24.314161 44.833128 9
19.255702 25.597424 44.104070 9
23.477916 26.858611 43.345593 9
27.804147 28.086798 42.551023 9
32.210574 29.308149 41.732168 9
36.926678 30.326438 40.787387 9
41.960176 31.150687 39.716733 9
54.499062 25.790112 35.373006 9
66.325226 21.354247 31.412749 5
71.341131 22.688679 30.452368 5
77.114831 23.506745 29.182916 5
82.887023 24.428425 27.933867 5
88.819664 25.330289 26.636805 5
94.162697 26.771658 25.605344 5
99.688482 28.166245 24.514080 5
105.801980 29.235423 23.198726 5
121.500495 23.782942 18.009432 6
127.865180 25.036400 16.664161 6
-39.206506 141.222722 84.682801 3
-39.055508 144.214128 85.296864 3
-34.205026 144.192468 84.051494 3
-29.238740 144.195968 82.780034 3
-24.092888 144.189577 81.458450 3
-18.825482 144.213745 80.110282 3
-13.287348 144.185880 78.679288 3
-7.599270 144.183791 77.213174 3
-19.889203 -9.888852 50.020775 9
-18.566009 -5.536952 50.694161 9
-16.408975 -2.268295 50.927281 9
-13.923600 0.578579 50.986725 9
-11.133498 3.056743 50.889936 9
-8.159222 5.325693 50.700868 9
-5.033901 7.435863 50.438568 9
-1.770776 9.412500 50.111774 9
1.602952 11.294111 49.735458 9
5.135696 13.037497 49.288576 9
8.730010 14.752531 48.818527 9
12.454846 16.373762 48.294462 9
16.295862 17.923031 47.724584 9
20.208349 19.450023 47.130455 9
24.204624 20.946887 46.507380 9
28.343453 22.363594 45.830315 9
32.568808 23.758438 45.125395 9
36.921201 25.099583 44.375916 9
41.394846 26.398287 43.585682 9
46.492706 27.231178 42.541576 9
67.264456 15.051007 34.894189 5
71.923225 16.683773 34.124528 5
76.714534 18.276303 33.311550 5
81.685125 19.797833 32.437260 5
86.855630 21.240549 31.494925 5
92.204652 22.629397 30.495044 5
98.332297 23.529180 29.198402 5
104.668793 24.386699 27.839192 5
120.235817 18.830628 22.858513 6
126.847927 19.861772 21.463562 6
132.890759 21.395530 20.311687 6
-40.202866 141.742756 88.187378 3
-39.249087 144.192285 88.471124 3
-34.479233 144.208706 87.303427 3
-29.497559 144.188313 86.074327 3
-24.368935 144.178004 84.809558 3
-19.130900 144.204784 83.523943 3
-13.687379 144.216188 82.182741 3
-7.979357 144.185805 80.765786 3
0.375127 -10.049327 49.985089 9
1.566379 -5.512970 50.689581 9
3.681867 -2.079601 50.946257 9
6.247574 0.831325 50.986990 9
9.118485 3.405788 50.884505 9
12.248028 5.713296 50.664241 9
15.550281 7.858879 50.368163 9
18.973612 9.905474 50.021439 9
22.548594 11.830637 49.612300 9
26.292594 13.626754 49.135136 9
30.153960 15.352378 48.614172 9
34.132772 17.013939 48.050725 9
38.177533 18.664421 47.467792 9
42.426294 20.184401 46.808394 9
47.870839 20.720760 45.664338 9
70.655701 6.559897 37.427755 5
74.681752 8.777928 36.960102 5
78.939249 10.849384 36.406021 5
83.419307 12.792949 35.771446 5
88.121505 14.619716 35.058753 5
92.996167 16.378350 34.289582 5
98.084502 18.045533 33.449456 5
103.376317 19.638264 32.544228 5
120.469762 12.781241 27.133828 6
125.958580 14.575948 26.219721 6
131.739743 16.251408 25.210272 6
137.753838 17.860159 24.130149 6
-41.165133 142.242382 91.630188 3
-39.449017 144.175780 91.622138 3
-34.679743 144.179567 90.500420 3
-29.791534 144.203942 89.353583 3
-24.683309 144.191260 88.146007 3
-19.438056 144.198548 86.908795 3
-14.011455 144.204389 85.627068 3
-8.346245 144.182332 84.281867 3
21.838563 -10.019522 49.992089 9
22.937330 -5.339903 50.708560 9
25.101529 -1.825029 50.951515 9
27.739190 1.187041 50.986211 9
30.778504 3.797075 50.849003 9
34.048715 6.194366 50.616053 9
37.498127 8.441750 50.311535 9
41.187543 10.493553 49.912739 9
45.545010 11.975154 49.249041 9
82.115795 -9.143950 36.873850 5
82.781254 -3.845963 37.795153 5
85.254104 -0.136459 37.992976 5
88.524559 2.906646 37.877540 5
92.270935 5.582760 37.580647 5
96.424509 7.969988 37.133284 5
100.841345 10.199184 36.593773 5
105.879514 12.012758 35.830567 5
125.133180 3.396638 29.803265 6
129.469774 6.080591 29.367186 6
134.256687 8.492408 28.774164 6
139.465875 10.671800 28.038361 6
-41.896876 139.520031 94.335666 3
-42.107202 142.730705 95.018876 3
-39.702062 144.194958 94.767161 3
-34.949361 144.195594 93.696721 3
-30.033526 144.188720 92.587027 3
-24.976572 144.193252 91.446722 3
-19.732606 144.186457 90.260925 3
-14.341562 144.197835 89.044401 3
145.046791 -5.389049 29.508073 6
147.012141 -0.758082 29.975491 6
-42.830399 140.025070 97.704105 3
-43.018212 143.200415 98.351767 3
-39.921249 144.193321 97.875390 3
-35.186185 144.192054 96.856090 3
-30.315885 144.199946 95.808705 3
-25.249697 144.184469 94.713941 3
-20.071421 144.202253 93.600599 3
-14.678164 144.196745 92.435704 3
-43.798487 140.555478 101.039724 3
-43.947333 143.684114 101.647437 3
-40.147259 144.197236 100.962449 3
-35.429361 144.193761 99.993509 3
-30.559734 144.188515 98.992669 3
-25.544734 144.190426 97.962856 3
-20.375117 144.198695 96.902004 3
-15.029262 144.205734 95.804253 3
-44.658325 141.014104 104.296992 3
-44.842205 144.146920 104.889785 3
-40.358035 144.192300 104.022119 3
-35.679332 144.200965 103.109795 3
-30.832569 144.196392 102.162150 3
-25.850386 144.204230 101.190108 3
-20.657314 144.183765 100.171689 3
-15.361185 144.205140 99.140407 3
-45.555888 141.500112 107.525686 3
-45.092614 144.181978 107.898528 3
-40.552613 144.177811 107.055664 3
-35.895965 144.188014 106.193763 3
-31.091027 144.196512 105.304210 3
-26.105974 144.188790 104.378625 3
-20.977397 144.192827 103.428590 3
-15.681578 144.199321 102.448124 3
-46.472874 142.001051 110.719966 3
-45.310382 144.196224 110.876482 3
-40.820554 144.212177 110.090014 3
-36.133945 144.189739 109.263062 3
-31.323452 144.181509 108.417115 3
-26.402691 144.199709 107.556596 3
-21.275016 144.189821 106.655572 3
-15.993843 144.190181 105.729763 3
-47.191389 139.374000 113.348514 3
-47.367961 142.488726 113.868703 3
-45.536218 144.216743 113.836937 3
-40.997362 144.187977 113.078677 3
-36.343193 144.174105 112.304315 3
-31.616313 144.205400 111.525743 3
-26.697028 144.210388 110.711824 3
-21.583692 144.194715 109.863214 3
-16.347232 144.206483 108.999332 3
-48.086736 139.883132 116.484798 3
-48.225413 142.952312 116.969705 3
-45.693020 144.191973 116.760530 3
-41.182245 144.169906 116.051640 3
-36.615244 144.199625 115.342768 3
-31.877850 144.210770 114.605440 3
-26.950373 144.197104 113.835678 3
-21.902206 144.206752 113.051681 3
-16.642935 144.190333 112.231882 3
-51.024862 138.853254 119.663673 0
-51.138852 141.898752 120.118637 0
-51.323555 144.948559 120.585835 0
-48.186371 145.731222 120.237624 0
-41.441865 144.201600 119.025521 3
-36.869898 144.214974 118.357465 3
-32.129940 144.211231 117.663551 3
-27.212206 144.190085 116.942365 3
-22.169003 144.188945 116.207078 3
-16.949527 144.181801 115.446530 3
-51.586799 136.155909 122.232417 0
-51.897133 139.369908 122.714716 0
-52.012409 142.396793 123.145835 0
-52.105116 145.364562 123.567146 0
-48.491253 145.808498 123.131240 0
-44.036836 145.765267 122.513841 0
-39.455864 145.727340 121.881288 0
-32.344870 144.189313 120.695091 3
-27.480433 144.188017 120.031935 3
-22.447542 144.179275 119.346347 3
-52.611059 136.804279 125.309499 0
-52.735110 139.863393 125.722985 0
-52.868633 142.884103 126.134384 0
-52.955801 145.829233 126.531608 0
-48.690780 145.815995 125.983367 0
-44.348303 145.834208 125.431056 0
-39.779740 145.790527 124.843420 0
-35.067302 145.744847 124.238962 0
-27.759248 144.193447 123.105850 3
-22.788133 144.208000 122.480301 3
-53.463289 137.328605 128.311543 0
-53.530825 140.327935 128.689142 0
-53.631692 143.307575 129.070236 0
-53.631636 146.175514 129.427327 0
-48.941453 145.858481 128.830838 0
-44.646549 145.895324 128.327539 0
-40.119326 145.864739 127.790273 0
-35.448779 145.831214 127.237776 0
-30.566522 145.757311 126.657351 0
-25.607577 145.731744 126.076233 0
-54.300803 137.843338 131.277491 0
-54.387466 140.837170 131.635838 0
-54.481774 143.793158 131.992779 0
-54.178452 146.434487 132.271087 0
-49.144810 145.869897 131.653703 0
-44.968497 145.972829 131.211527 0
-40.433778 145.923674 130.714423 0
-35.794912 145.896314 130.210941 0
-30.971194 145.844071 129.686835 0
-25.966693 145.775666 129.143714 0
-20.837175 145.730008 128.592420 0
-55.108101 138.337116 134.205984 0
-55.122307 141.260499 134.528425 0
-55.278164 144.242382 134.874089 0
-54.648817 146.641970 135.078288 0
-49.407502 145.921806 134.473359 0
-45.271931 146.038947 134.075488 0
-40.774494 146.000365 133.626518 0
-36.136294 145.959334 133.165889 0
-31.300275 145.885201 132.684589 0
-26.337302 145.827550 132.195406 0
-21.195230 145.759414 131.690252 0
-55.893447 138.815901 137.100495 0
-56.000576 141.787496 137.416914 0
-56.086682 144.701273 137.728039 0
-54.888842 146.692104 137.827680 0
-49.631213 145.948143 137.272212 0
-47.085369 147.100651 137.166147 0
-41.108927 146.073829 136.521097 0
-36.439306 145.998987 136.098295 0
-31.616085 145.919017 135.664127 0
-26.796691 145.934133 135.243603 0
-22.011448 146.061005 134.841357 0
-56.522886 136.261736 139.663224 0
-56.723008 139.327987 139.972927 0
-56.793310 142.254395 140.261203 0
-56.872684 145.145513 140.549673 0
-53.691061 145.754441 140.348548 0
-49.867472 145.983499 140.060220 0
-45.606967 145.994099 139.717542 0
-42.895442 147.085800 139.611514 0
-36.724885 146.028393 139.013474 0
-31.917245 145.944592 138.626554 0
-27.263811 146.046476 138.274144 0
-22.700317 146.288801 137.946633 0
-57.422412 136.846100 142.540276 0
-57.506610 139.807473 142.809580 0
-57.554430 142.699677 143.073092 0
-57.670039 145.598819 143.345335 0
-53.889881 145.776483 143.086262 0
-50.077915 146.002011 142.832418 0
-45.851486 146.023265 142.532844 0
-41.413896 145.987824 142.216090 0
-38.594170 147.060916 142.122588 0
-34.041871 147.100786 141.811577 0
-29.302414 147.112885 141.488264 0
-23.339455 146.488516 141.021731 0
-58.193085 137.335253 145.370054 0
-58.265597 140.269884 145.615822 0
-58.340945 143.164146 145.861767 0
-58.359643 145.977480 146.100554 0
-54.127936 145.825992 145.818117 0
-50.255547 145.998881 145.589712 0
-46.059662 146.028978 145.331996 0
-41.682276 146.020533 145.063099 0
-37.208691 146.033945 144.793783 0
-32.524933 146.001325 144.511175 0
-27.508736 145.855705 144.202003 0
-23.923997 146.657096 144.068830 0
-58.978751 137.836440 148.175038 0
-59.070313 140.766664 148.401326 0
-59.127154 143.629370 148.624054 0
-58.973542 146.303829 148.823996 0
-54.320610 145.844694 148.533981 0
-50.661446 146.150289 148.362313 0
-46.305918 146.060356 148.125119 0
-41.927801 146.039021 147.896052 0
-37.509552 146.074998 147.673426 0
-32.914198 146.083792 147.443285 0
-27.718367 145.813995 147.162997 0
-24.228630 146.660309 147.068042 0
-59.775140 138.346465 150.954910 0
-59.852589 141.247909 151.158199 0
-59.861410 144.058234 151.355643 0
-59.451741 146.535490 151.513666 0
-54.536740 145.879962 151.242959 0
-50.619873 145.999973 151.077830 0
-46.509726 146.064127 150.903859 0
-42.167282 146.054105 150.718126 0
-37.756728 146.082575 150.536456 0
-33.086878 146.032358 150.341880 0
-27.938473 145.779190 150.115740 0
-60.535414 138.830297 153.705924 0
-60.614949 141.715414 153.888297 0
-60.648418 144.525877 154.068162 0
-59.823902 146.693109 154.178250 0
-54.778349 145.933201 153.944945 0
-50.827624 146.018386 153.811495 0
-46.669331 146.039015 153.670470 0
-43.833258 146.995607 153.643756 0
-37.941979 146.051288 153.385063 0
-33.305610 146.010008 153.236486 0
-28.191971 145.765237 153.062308 0
-61.179873 136.377313 156.270607 0
-61.282404 139.304949 156.431931 0
-61.347468 142.161846 156.592433 0
-61.360389 144.940455 156.751157 0
-58.650276 145.761620 156.722783 0
-54.956470 145.942964 156.633480 0
-51.002060 146.014610 156.534813 0
-46.891935 146.056009 156.434573 0
-44.072899 147.012652 156.428760 0
-38.105598 146.006615 156.225023 0
-33.527026 145.989772 156.123228 0
-28.389188 145.717452 155.996453 0
-62.012601 136.936042 159.000063 0
-62.065048 139.807018 159.137012 0
-62.093505 142.618966 159.275010 0
-62.129363 145.396851 159.415854 0
-58.809291 145.769031 159.371641 0
-55.133592 145.952322 159.315241 0
-51.183296 146.015734 159.251976 0
-47.383145 146.251702 159.205350 0
-44.412340 147.095014 159.210978 0
-38.429107 146.064122 159.067325 0
-33.749781 145.970779 159.002647 0
-28.780461 145.788607 158.933691 0
-62.741070 137.415850 161.699876 0
-62.802816 140.276204 161.816806 0
-62.844752 143.080668 161.935777 0
-62.839420 145.811648 162.055605 0
-59.007313 145.804204 162.016504 0
-55.277424 145.938899 161.989588 0
-51.364260 146.016945 161.963092 0
-48.123969 146.613949 161.971999 0
-44.647769 147.110155 161.979075 0
-38.633174 146.045949 161.895517 0
-33.935967 145.929313 161.873953 0
-29.503974 146.063621 161.872351 0
-63.475527 137.900848 164.378482 0
-63.513887 140.726057 164.474392 0
-63.598013 143.544589 164.575083 0
-63.492822 146.186363 164.673542 0
-59.209040 145.842234 164.655423 0
-55.501593 145.981302 164.661722 0
-51.571811 146.036443 164.669579 0
-48.865424 146.977572 164.718524 0
-44.819036 147.083809 164.738903 0
-38.838470 146.028856 164.718102 0
-34.207605 145.941566 164.742341 0
-30.167537 146.303006 164.790654 0
-64.267967 138.430784 167.037168 0
-64.275964 141.214792 167.112816 0
-64.278201 143.955485 167.192287 0
-63.974012 146.437550 167.270823 0
-59.364800 145.847982 167.288140 0
-55.638253 145.963305 167.326587 0
-51.744922 146.032787 167.370166 0
-49.210575 147.078258 167.440146 0
-45.056356 147.100767 167.495394 0
-39.013857 145.992908 167.535333 0
-34.320193 145.854600 167.602232 0
-30.785704 146.515513 167.691811 0
-64.989882 138.907393 169.673778 0
-65.009929 141.683087 169.730392 0
-64.999770 144.397461 169.791306 0
-64.357697 146.618839 169.855284 0
-59.542374 145.869309 169.917279 0
-55.827075 145.981618 169.988543 0
-51.929490 146.037094 170.066936 0
-49.550090 147.175581 170.153483 0
-43.588336 146.004273 170.246765 0
-39.220296 145.977013 170.349042 0
-34.501390 145.810736 170.460317 0
-31.263376 146.642615 170.578442 0
-65.697318 136.590459 172.258378 0
-65.723282 139.393346 172.291002 0
-65.742763 142.151143 172.328621 0
-65.735370 144.850414 172.371374 0
-64.604122 146.701350 172.432013 0
-59.715940 145.887939 172.542906 0
-56.032243 146.011437 172.646571 0
-52.110049 146.038828 172.760281 0
-48.660431 146.453306 172.875263 0
-45.479987 147.102094 172.993895 0
-39.413264 145.952681 173.159304 0
-34.719074 145.789924 173.315058 0
-31.620896 146.696461 173.456423 0
-66.429738 137.093967 174.875991 0
-66.441728 139.868391 174.889649 0
-66.417449 142.576105 174.909604 0
-66.472675 145.305260 174.932842 0
-63.422723 145.752194 175.040000 0
-59.908869 145.920403 175.165228 0
-56.184303 146.004503 175.302449 0
-52.303849 146.049704 175.450574 0
-48.133258 145.971833 175.613455 0
-44.016592 146.006762 175.782415 0
-39.623203 145.939367 175.966519 0
-34.934240 145.767700 176.166784 0
-67.180360 137.612171 177.474361 0
-67.145315 140.332565 177.470964 0
-67.137068 143.035362 177.472362 0
-67.172164 145.732838 177.477792 0
-63.595269 145.780898 177.629866 0
-60.049530 145.915904 177.786901 0
-56.364809 146.017412 177.955774 0
-52.619983 146.144094 178.133639 0
-50.005851 147.093423 178.273577 0
-44.228845 146.006992 178.546038 0
-39.833122 145.926164 178.771384 0
-35.115443 145.724242 179.017560 0
-67.859814 138.075241 180.058079 0
-67.859135 140.805070 180.034856 0
-67.872047 143.506711 180.017198 0
-67.787702 146.099037 180.010826 0
-63.763243 145.806353 180.218316 0
-60.217910 145.931104 180.406482 0
-56.523663 146.015318 180.608690 0
-53.351726 146.522318 180.789700 0
-49.314662 146.502104 181.023063 0
-44.435886 146.003899 181.308039 0
-40.011181 145.892574 181.576283 0
-35.335897 145.705540 181.865508 0
-68.605066 138.590161 182.621570 0
-68.557530 141.266217 182.583221 0
-68.578827 143.957372 182.546980 0
-68.304872 146.393072 182.536982 0
-63.952109 145.846972 182.804481 0
-60.341609 145.914598 183.028288 0
-56.706870 146.030199 183.259674 0
-54.072164 146.893522 183.430942 0
-48.798769 146.027085 183.783649 0
-44.610215 145.979389 184.071128 0
-40.215514 145.875895 184.379302 0
-35.910585 145.910217 184.688815 0
-69.223312 136.270564 185.245264 0
-69.299059 139.065430 185.172167 0
-69.283370 141.748875 185.113838 0
-69.294144 144.414952 185.060516 0
-68.704648 146.600727 185.062472 0
-64.080064 145.843479 185.394698 0
-60.516863 145.934693 185.647090 0
-56.899988 146.052004 185.909543 0
-54.534620 147.089026 186.078127 0
-48.948114 145.997051 186.509955 0
-44.792302 145.959953 186.834066 0
-40.428173 145.864584 187.181522 0
-36.610739 146.194615 187.492434 0
-70.026109 136.850296 187.789794 0
-70.027887 139.568347 187.704428 0
-70.007965 142.231028 187.628873 0
-69.986627 144.855808 187.561011 0
-68.977824 146.715008 187.593645 0
-64.238799 145.862254 187.983503 0
-60.683978 145.948984 188.267019 0
-57.031633 146.030916 188.565222 0
-54.831460 147.171530 188.733710 0
-49.168526 146.014618 189.231267 0
-44.967570 145.935984 189.598582 0
-40.630745 145.846753 189.985014 0
-37.207211 146.414176 190.293365 0
-70.737501 137.357524 190.326667 0
-70.711232 140.036055 190.226271 0
-70.625881 142.631654 190.140469 0
-70.682048 145.299319 190.047206 0
-67.785448 145.745268 190.281233 0
-64.393876 145.878327 190.573979 0
-60.856363 145.966978 190.887618 0
-57.220107 146.049409 191.217208 0
-54.914889 147.107974 191.410161 0
-50.944675 147.076887 191.787106 0
-45.162484 145.924860 192.362822 0
-40.855045 145.842877 192.787496 0
-37.740178 146.594056 193.092115 0
-71.423726 137.845004 192.852148 0
-71.388403 140.499278 192.735355 0
-71.382523 143.139247 192.623491 0
-71.334599 145.710916 192.525179 0
-67.967429 145.791473 192.840319 0
-64.511829 145.867364 193.170992 0
-61.007815 145.969988 193.512497 0
-57.412477 146.070562 193.870229 0
-54.586613 146.762019 194.140704 0
-49.503764 145.978691 194.688428 0
-45.318727 145.888149 195.133674 0
-41.076885 145.837337 195.591691 0
-38.155736 146.699938 195.898314 0
80.931634 -7.600868 -37.222738 5
77.970438 -9.450575 -36.794129 5
75.135124 -10.790544 -36.431966 5
72.387440 -11.772632 -36.118801 5
69.677973 -12.665194 -35.825503 5
67.019571 -13.351458 -35.563893 5
64.693015 -11.562427 -35.568417 5
58.254159 -23.744964 -33.984020 9
55.433112 -27.578464 -33.444994 9
52.750326 -30.700547 -32.990359 9
50.147272 -33.588161 -32.570588 9
47.636469 -35.969147 -32.212324 9
45.193397 -38.006655 -31.898308 9
42.836358 -39.172365 -31.680425 9
40.527601 -39.772529 -31.527130 9
38.246679 -39.938939 -31.424695 9
35.973506 -39.974979 -31.342770 9
33.701036 -40.065480 -31.263065 9
31.430912 -40.142877 -31.192219 9
29.162353 -40.159725 -31.134835 9
26.894218 -40.200740 -31.082603 9
24.625876 -40.218291 -31.040160 9
22.359517 -40.324546 -30.996590 9
20.087990 -40.274689 -30.975684 9
17.817959 -40.310497 -30.953947 9
15.544617 -40.310504 -30.943177 9
13.270888 -40.340526 -30.936997 9
10.990242 -40.306290 -30.944559 9
8.708073 -40.298283 -30.957106 9
6.422364 -40.290924 -30.977136 9
4.129553 -40.252687 -31.007736 9
1.837394 -40.264720 -31.041044 9
-0.465839 -40.220876 -31.087416 9
-2.773068 -40.190905 -31.140100 9
-5.087264 -40.153400 -31.201222 9
-7.411349 -40.092648 -31.272371 9
-9.739472 -40.052619 -31.349281 9
-12.080741 -39.977466 -31.437500 9
-14.432195 -39.891999 -31.534658 9
-16.785962 -39.842595 -31.636207 9
-19.159806 -39.734797 -31.751609 9
-21.540120 -39.645568 -31.873277 9
-23.959741 -39.420529 -32.016837 9
-26.379314 -39.255703 -32.162690 9
-28.805208 -39.118247 -32.314179 9
-31.242662 -38.985177 -32.473705 9
-33.700827 -38.821487 -32.644964 9
-36.179098 -38.634723 -32.827326 9
-38.665381 -38.473816 -33.015831 9
-41.196130 -38.207997 -33.224292 9
-44.042340 -36.916892 -33.550594 9
-50.884454 -22.451243 -35.294369 9
-51.142261 -30.172026 -34.684081 9
-55.615059 -24.298010 -35.544493 9
104.237122 -12.115437 -36.000616 5
101.217284 -13.346270 -35.565752 5
98.286362 -14.365901 -35.165118 5
95.419316 -15.250390 -34.790044 5
92.590123 -16.093052 -34.430472 5
89.821857 -16.781254 -34.097365 5
87.093577 -17.390454 -33.782615 5
84.394460 -17.960379 -33.481938 5
81.727328 -18.467798 -33.197342 5
79.085028 -18.939307 -32.925959 5
76.463758 -19.388073 -32.666306 5
73.868417 -19.777380 -32.421698 5
71.286453 -20.174387 -32.185549 5
68.724782 -20.529861 -31.962379 5
66.177890 -20.872354 -31.749344 5
64.671736 -13.124761 -32.292009 5
64.631404 8.224194 -34.080904 5
57.873690 -28.669415 -30.545864 9
55.185177 -31.530344 -30.143161 9
52.578359 -34.114573 -29.776264 9
50.030557 -36.601408 -29.428404 9
47.543077 -38.928676 -29.104715 9
45.144768 -40.559905 -28.852311 9
42.811439 -41.581998 -28.662446 9
40.519409 -42.142814 -28.521271 9
38.254623 -42.271721 -28.425627 9
35.996682 -42.280762 -28.347809 9
33.738925 -42.345198 -28.272441 9
31.483013 -42.401662 -28.205044 9
29.228311 -42.399987 -28.149934 9
26.974229 -42.475001 -28.095423 9
24.720686 -42.532459 -28.049663 9
22.465530 -42.526265 -28.016601 9
