ply
format ascii 1.0
element vertex 1391
property float x
property float y
property float z
property int scalar_Label
end_header
9.182150 116.200309 48.241839 3
7.812765 112.960071 46.517456 3
6.427528 109.693673 44.768748 3
5.055302 106.392131 43.033672 3
3.671970 103.061454 41.280445 3
2.236995 99.709874 39.455705 3
0.844237 96.314070 37.682890 3
-0.572944 92.888730 35.874290 3
-2.984723 89.609587 32.754367 3
-13.042213 48.760823 19.824597 9
-7.115497 44.945654 27.609429 9
-2.979464 41.275308 33.037940 9
0.190835 37.696610 37.193881 9
2.749626 34.182582 40.542638 9
3.487624 30.617188 41.495608 9
4.777092 27.119910 43.169076 9
6.319721 23.685568 45.171306 9
7.585521 20.262487 46.806033 9
8.596167 16.839696 48.101690 9
9.450500 13.419231 49.188115 9
10.100560 9.984908 50.002216 9
10.566625 6.529927 50.570555 9
10.848263 3.044629 50.892458 9
10.939868 -0.481833 50.960419 9
10.898595 -4.046198 50.849464 9
10.600347 -7.686438 50.396182 9
10.130653 -11.393335 49.712867 9
9.374807 -15.208293 48.648316 9
8.380057 -19.132278 47.264385 9
7.018330 -23.218158 45.392063 9
5.239147 -27.501818 42.964335 9
4.308335 -31.567013 41.648662 9
2.156799 -36.123363 38.718470 9
-2.407044 -41.685669 32.600795 9
24.221879 141.461265 73.626930 3
21.410531 139.199369 70.093650 3
14.606560 138.557132 61.412034 3
12.763272 135.684615 59.125243 3
11.416519 132.575910 57.475817 3
10.076329 129.438708 55.832082 3
8.701943 126.287369 54.141528 3
7.327549 123.107979 52.448172 3
5.975286 119.892787 50.780476 3
4.575701 116.663752 49.049031 3
3.197280 113.397967 47.341943 3
1.801789 110.106449 45.609992 3
0.380686 106.790013 43.842171 3
-1.045197 103.441747 42.065246 3
-2.484033 100.062693 40.268676 3
-3.928464 96.650062 38.461885 3
-5.380963 93.203459 36.641656 3
-7.657183 89.869107 33.760052 3
-18.716413 48.778969 19.798570 9
-12.493624 44.929184 27.787053 9
-8.338293 41.225023 33.117883 9
-5.073281 37.614812 37.302349 9
-2.485210 34.067770 40.614459 9
-1.814151 30.464197 41.462108 9
-0.385540 26.943435 43.279039 9
1.178742 23.477154 45.266944 9
2.444801 20.020131 46.868728 9
3.514945 16.571272 48.215735 9
4.353330 13.115326 49.261892 9
5.024286 9.651252 50.089761 9
5.462658 6.158668 50.615577 9
5.749805 2.641795 50.943762 9
5.819388 -0.921376 50.988974 9
5.687985 -4.538206 50.772374 9
5.396947 -8.209012 50.346962 9
4.832562 -11.971884 49.566377 9
4.032662 -15.830417 48.479019 9
2.902499 -19.824655 46.962758 9
1.414828 -23.980056 44.982178 9
-0.584949 -28.365397 42.337903 9
-1.036016 -32.303484 41.682119 9
-4.100373 -37.208450 37.657294 9
-9.471420 -43.095951 30.655436 9
25.109509 143.199322 80.909908 3
25.109085 139.744060 80.985302 3
18.485794 139.190513 72.716612 3
10.582183 138.972216 62.837445 3
8.298032 136.253373 60.034079 3
6.919663 133.129345 58.368971 3
5.532348 129.981931 56.690375 3
4.173991 126.796782 55.045953 3
2.774825 123.598251 53.347924 3
1.366254 120.373740 51.635783 3
-0.056700 117.123759 49.903251 3
-1.474776 113.841501 48.174524 3
-2.894549 110.528427 46.441307 3
-4.330503 107.187601 44.685376 3
-5.835903 103.830503 42.839796 3
-7.266204 100.420717 41.086131 3
-8.748471 96.987804 39.264729 3
-10.233074 93.519094 37.437904 3
-24.536093 48.797787 19.714721 9
-18.097387 44.911381 27.794093 9
-13.806722 41.173446 33.175174 9
-10.479685 37.529550 37.344297 9
-7.787411 33.952162 40.714198 9
-7.189474 30.309898 41.453233 9
-5.615834 26.765583 43.413996 9
-4.046557 23.265439 45.366662 9
-2.740905 19.778576 46.985869 9
-1.671961 16.295619 48.305375 9
-0.819897 12.807798 49.350030 9
-0.171806 9.306423 50.135988 9
0.271488 5.781130 50.662151 9
0.527462 2.225011 50.950385 9
0.605938 -1.369400 51.012937 9
0.407564 -5.033576 50.724916 9
0.059583 -8.750727 50.246004 9
-0.560910 -12.560318 49.421660 9
-1.431665 -16.470110 48.279642 9
-2.676285 -20.528637 46.664383 9
-4.276726 -24.749313 44.598246 9
-6.473288 -29.227385 41.778750 9
-6.675058 -33.120494 41.463693 9
-10.552843 -38.334266 36.521393 9
-17.059565 -44.662507 28.266062 9
26.010476 141.458402 88.074009 3
23.492326 139.191067 85.032742 3
15.513549 139.203684 75.273062 3
6.975215 139.205082 64.827049 3
3.743375 136.843455 60.908206 3
2.363365 133.691660 59.265243 3
0.930388 130.532807 57.555441 3
-0.466036 127.332646 55.888835 3
-1.874147 124.108422 54.206110 3
-3.304450 120.862355 52.494348 3
-4.732414 117.585473 50.783678 3
-6.223898 114.296082 48.993188 3
-7.676217 110.963010 47.248992 3
-9.131763 107.598278 45.498994 3
-30.432577 48.816722 19.666180 9
-23.758739 44.893581 27.852796 9
-19.366502 41.121061 33.238388 9
-15.920885 37.445076 37.460631 9
-13.151578 33.836115 40.851162 9
-12.691913 30.150721 41.406288 9
-10.953570 26.583133 43.527944 9
-9.309042 23.055289 45.532488 9
-8.005743 19.533964 47.116384 9
-6.926608 16.018029 48.423234 9
-6.105489 12.491623 49.411470 9
-5.447485 8.957420 50.197502 9
-4.987656 5.401060 50.738267 9
-4.820066 1.794709 50.918254 9
-4.784576 -1.842807 50.933927 9
-4.976228 -5.539484 50.668554 9
-5.369629 -9.300650 50.153200 9
-6.071592 -13.163605 49.256602 9
-7.035233 -17.131078 48.036160 9
-8.373169 -21.248372 46.353387 9
-10.146245 -25.552450 44.133295 9
-12.316026 -30.052895 41.422801 9
-13.047296 -34.160217 40.476686 9
-17.402904 -39.569356 35.073543 9
-25.654621 -46.554705 24.876915 9
26.847157 143.141011 94.898935 3
26.846556 139.795352 94.939349 3
20.641140 139.196695 87.520568 3
12.580506 139.200974 77.873100 3
3.956589 139.193177 67.550138 3
-0.777256 137.405443 61.901951 3
-2.259748 134.265003 60.159219 3
-3.690179 131.076627 58.477813 3
-5.122065 127.860660 56.793427 3
-6.573477 124.622426 55.084354 3
-8.037665 121.358367 53.358689 3
-36.450633 48.836100 19.602078 9
-29.541925 44.875307 27.887607 9
-25.026520 41.067716 33.301278 9
-21.479405 37.358289 37.552158 9
-18.652547 33.715747 40.937749 9
-18.223172 29.993549 41.446478 9
-16.413134 26.395133 43.609610 9
-14.764845 22.831450 45.577305 9
-13.408333 19.279877 47.193609 9
-12.310262 15.730827 48.498492 9
-11.465644 12.172647 49.497912 9
-10.796540 8.605499 50.285333 9
-10.402622 5.003440 50.741152 9
-10.186464 1.371606 50.982200 9
-10.201492 -2.309736 50.944328 9
-10.433898 -6.048900 50.644039 9
-10.929523 -9.867405 50.026246 9
-11.677531 -13.775499 49.103861 9
-12.752951 -17.805638 47.786721 9
-14.201099 -21.986679 46.020292 9
-16.191315 -26.387199 43.601111 9
-17.901230 -30.777022 41.516274 9
-19.348407 -35.149927 39.744750 9
-24.368867 -40.812361 33.679919 9
-37.726042 -49.646577 17.598999 9
27.666300 141.469095 101.554923 3
25.421989 139.194300 98.943427 3
17.797445 139.199681 90.014317 3
9.675303 139.187461 80.501758 3
0.918252 139.190260 70.244626 3
-5.301685 137.954772 62.966461 3
-6.931231 134.841839 61.076454 3
-42.512453 48.855321 19.619974 9
-35.440138 44.856634 27.913118 9
-30.783500 41.013537 33.372634 9
-27.147038 37.269607 37.634954 9
-24.257044 33.592990 41.021056 9
-23.907874 29.830035 41.426782 9
-21.964787 26.204283 43.700732 9
-20.228784 22.612387 45.730983 9
-18.853914 19.027316 47.336883 9
-17.783418 15.439463 48.584978 9
-16.915429 11.848950 49.594719 9
-16.286756 8.240295 50.322922 9
-15.876258 4.605701 50.794356 9
-15.710288 0.929754 50.978089 9
-15.751520 -2.791776 50.917863 9
-16.058740 -6.581720 50.544687 9
-16.569046 -10.438354 49.932297 9
-17.407470 -14.402581 48.933970 9
-18.565979 -18.488137 47.559054 9
-20.201427 -22.754099 45.623436 9
-22.321266 -27.225584 43.118249 9
-23.596396 -31.516704 41.602922 9
-26.111668 -36.263850 38.631090 9
-31.820995 -42.188238 31.909375 9
28.453044 143.100550 107.968633 3
28.470830 139.848555 107.997069 3
22.658269 139.203927 101.336792 3
14.986403 139.189060 92.543775 3
6.701684 139.202952 83.047998 3
-2.157560 139.202724 72.893461 3
-49.136668 48.878181 19.125178 9
-41.439180 44.837686 27.951412 9
-36.636590 40.958592 33.457929 9
-32.902015 37.179929 37.739513 9
-29.956053 33.468435 41.116548 9
-29.606697 29.669651 41.515897 9
-27.564726 26.014281 43.855788 9
-25.830380 22.385650 45.842654 9
-24.445871 18.764934 47.428091 9
-23.343524 15.144507 48.689696 9
-22.459796 11.520125 49.700328 9
-21.847206 7.873366 50.399757 9
-21.500162 4.192491 50.794389 9
-21.336667 0.480091 50.978241 9
-21.437156 -3.288698 50.859064 9
-21.747857 -7.114910 50.498507 9
-22.368087 -11.031428 49.782663 9
-23.281051 -15.048871 48.730770 9
-24.580492 -19.205534 47.235299 9
-26.309904 -23.531720 45.246338 9
-28.655943 -28.101861 42.549780 9
-29.376332 -32.263446 41.717216 9
-33.083181 -37.415864 37.459054 9
-39.685396 -43.666843 29.879524 9
29.227476 141.477744 114.206149 3
27.234496 139.196569 111.964723 3
19.927788 139.198889 103.767881 3
12.133012 139.196752 95.023763 3
3.804372 139.187139 85.681017 3
-5.195844 139.200324 75.585257 3
-47.663351 44.817581 27.867601 9
-42.610607 40.902388 33.533599 9
-38.773109 37.088280 37.837234 9
-35.743705 33.342486 41.235044 9
-35.410125 29.506443 41.610322 9
-33.320763 25.816579 43.954646 9
-31.580603 22.150568 45.907698 9
-30.156862 18.496154 47.506237 9
-29.013758 14.843335 48.790389 9
-28.155392 11.178670 49.755559 9
-27.568113 7.491155 50.417062 9
-27.164423 3.782864 50.873012 9
-27.066747 0.022844 50.986151 9
-27.193211 -3.786998 50.848289 9
-27.610293 -7.671295 50.384907 9
-28.246783 -11.627590 49.675859 9
-29.281649 -15.709456 48.520513 9
-30.714751 -19.935435 46.919054 9
-32.603949 -24.339864 44.806646 9
-35.159230 -29.004061 41.947915 9
-35.637547 -33.135754 41.418042 9
-40.217884 -38.590053 36.290021 9
-49.631359 -45.795372 25.744593 9
29.943152 143.072156 120.224827 3
29.964683 139.913948 120.224848 3
24.584211 139.194608 114.310711 3
17.174278 139.203794 106.173825 3
9.287691 139.200736 97.514212 3
0.860403 139.190328 88.261659 3
-69.833320 40.392565 10.436982 9
-44.791928 36.993634 37.899128 9
-41.645574 33.213957 41.352154 9
-41.314001 29.340834 41.719442 9
-39.164628 25.616890 44.080950 9
-37.404919 21.914450 46.016021 9
-35.931846 18.227202 47.637634 9
-34.834802 14.531325 48.847780 9
-33.939934 10.833632 49.837101 9
-33.365166 7.107028 50.476320 9
-33.009766 3.353622 50.875904 9
-32.945874 -0.449694 50.956791 9
-33.094516 -4.300973 50.805600 9
-33.544599 -8.228711 50.324902 9
-34.306098 -12.249050 49.503817 9
-35.414563 -16.384870 48.303441 9
-36.999836 -20.685004 46.581531 9
-39.056878 -25.170044 44.343722 9
-41.718833 -29.899358 41.444213 9
-42.660825 -34.211864 40.430938 9
-58.795847 -43.296096 22.770255 9
33.017382 143.461985 128.628847 0
33.028595 140.381575 128.601790 0
33.030108 137.324134 128.565733 0
21.908877 139.203342 116.631589 3
14.436592 139.201386 108.599243 3
6.455312 139.198860 100.021029 3
-2.076160 139.190070 90.852735 3
-51.881953 36.863570 36.942536 9
-47.767432 33.077763 41.359830 9
-47.616756 29.154018 41.527566 9
-45.404883 25.391401 43.907265 9
-43.366453 21.671617 46.102366 9
-41.891969 17.945337 47.694110 9
-40.706984 14.220948 48.976827 9
-39.859140 10.479113 49.899459 9
-39.247779 6.719780 50.569971 9
-38.949201 2.919784 50.906596 9
-38.879923 -0.920145 50.998892 9
-39.129930 -4.827753 50.750450 9
-39.631231 -8.803502 50.234232 9
-40.500241 -12.884609 49.325541 9
-41.728179 -17.085714 48.033904 9
-43.489572 -21.466703 46.172424 9
-46.246178 -26.173401 43.246508 9
-48.193356 -30.748445 41.190055 9
-50.505015 -35.501153 38.745232 9
33.737684 144.929488 134.326672 0
33.698496 141.908668 134.230737 0
33.703279 138.884325 134.182609 0
33.399609 136.017041 133.813997 0
19.262037 139.198700 118.986366 3
11.699664 139.198009 111.028424 3
3.622671 139.196429 102.530709 3
-57.910769 32.748803 37.283401 9
-53.593421 28.992292 41.820397 9
-53.414246 25.035842 42.019047 9
-52.039379 21.189012 43.473850 9
-49.157501 17.533880 46.511106 9
-47.404405 13.820391 48.366457 9
-46.335697 10.059483 49.506065 9
-45.568527 6.277911 50.331481 9
-45.253706 2.438074 50.684648 9
-45.220341 -1.449913 50.744836 9
-45.583691 -5.420449 50.391315 9
-46.318332 -9.485937 49.650871 9
-47.612717 -13.703930 48.326150 9
-49.926692 -18.205697 45.935517 9
-53.907781 -23.195100 41.800965 9
-54.255421 -27.365101 41.476290 9
34.402072 143.370276 139.773058 0
34.374431 140.395693 139.676108 0
34.376556 137.424116 139.611880 0
29.399900 136.691225 134.466330 0
22.411093 136.693543 127.264779 0
8.965923 139.192405 113.464977 3
0.787887 139.193938 105.042565 3
-100.488465 35.428074 0.240210 8
-84.004981 31.659087 17.159525 8
-70.040188 28.185688 31.496980 9
-59.853231 24.807978 41.960855 9
-61.170332 20.677156 40.626400 9
-60.308491 16.730783 41.529751 9
-59.635636 12.780944 42.241945 9
-57.922181 8.980338 44.023954 9
-56.548241 5.171551 45.460297 9
-55.992143 1.263837 46.060615 9
-56.260529 -2.778734 45.818353 9
-57.352562 -6.991206 44.734673 9
-59.606200 -11.476761 42.463552 9
-59.613870 -15.553104 42.497558 9
-61.123382 -19.984267 40.995630 9
-61.659987 -24.233193 40.493817 9
35.061014 144.805920 145.153901 0
35.046547 141.858123 145.054943 0
35.039877 138.923825 144.966580 0
34.806681 136.109487 144.655105 0
26.854589 136.706582 136.645595 0
19.786718 136.708036 129.515301 0
6.189903 139.203077 115.864408 3
-90.824867 31.513216 17.399729 8
-84.087346 27.545319 24.174183 8
-79.765361 23.576935 28.528095 8
-75.846907 19.686817 32.480177 8
-67.635608 16.337775 40.741412 9
-67.009068 12.329320 41.396929 9
-68.782641 8.021275 39.648604 9
-68.908953 3.894077 39.556004 9
-68.767895 -0.201853 39.734986 9
-69.033635 -4.371324 39.509576 9
-66.138985 -7.973464 42.455722 9
-67.270892 -12.303822 41.368877 9
-66.519634 -16.275855 42.172989 9
-79.944870 -23.443995 28.777140 8
-87.771635 -29.653653 20.998040 8
35.452669 146.331368 150.165221 0
35.689342 143.287754 150.294844 0
35.680542 140.386550 150.189074 0
35.672406 137.501766 150.087194 0
31.017162 136.724372 145.460881 0
24.381892 136.688471 138.903544 0
17.249746 136.683922 131.859120 0
3.450998 139.196898 118.308145 3
-97.769853 31.365101 17.661443 8
-90.945604 27.355355 24.375305 8
-86.552101 23.346325 28.707422 8
-82.574709 19.415456 32.634798 8
-80.465523 15.398731 34.732772 8
-78.944870 11.366411 36.257106 8
-77.933269 7.304193 37.285897 8
-77.384404 3.197324 37.864725 8
-77.304273 -0.974612 37.987885 8
-77.710879 -5.234449 37.637945 8
-78.656222 -9.612285 36.764203 8
-80.244518 -14.151392 35.264857 8
-82.689160 -18.923766 32.931259 8
-88.203874 -24.460337 27.595369 8
-97.778431 -31.123768 18.289997 8
36.340709 144.667398 155.438789 0
36.313847 141.806569 155.300428 0
36.314437 138.948956 155.191833 0
36.124397 136.195280 154.905528 0
28.619797 136.703753 147.660205 0
21.854721 136.692496 141.115133 0
14.612707 136.700264 134.112650 0
0.699556 139.194130 120.747342 3
-104.831059 31.215285 17.958314 8
-97.956118 27.161029 24.576453 8
-93.385457 23.118068 28.987125 8
-89.407483 19.141800 32.833106 8
-87.346593 15.075788 34.843625 8
-85.794159 11.002114 36.370615 8
-84.799294 6.893575 37.367092 8
-84.282027 2.738349 37.909952 8
-84.266043 -1.487055 37.976692 8
-84.777526 -5.807888 37.542471 8
-85.828742 -10.248383 36.595864 8
-87.605405 -14.867148 34.959275 8
-90.278952 -19.729996 32.469009 8
-96.460066 -25.450994 26.625052 8
36.880147 146.059525 160.379143 0
36.931691 143.189163 160.298280 0
36.927713 140.364122 160.170078 0
36.903996 137.564630 160.027607 0
32.603016 136.720435 155.914089 0
26.183259 136.698852 149.829248 0
19.316981 136.698940 143.325731 0
12.048131 136.684477 136.444065 0
4.234134 136.695840 129.051162 0
-124.278492 30.499540 6.776279 7
-105.508554 26.939511 24.418529 8
-100.376511 22.884133 29.262945 8
-96.452572 18.856846 32.978058 8
-94.309395 14.752851 35.026668 8
-92.822494 10.626896 36.464354 8
-91.828136 6.472855 37.444920 8
-91.360703 2.265801 37.936305 8
-91.433590 -2.017892 37.926206 8
-91.996671 -6.392161 37.461939 8
-93.206952 -10.905271 36.396682 8
-95.166121 -15.603363 34.635644 8
-98.128963 -20.569517 31.940775 8
-106.513896 -26.809677 24.174671 8
37.521290 144.542174 165.176471 0
37.502820 141.753662 165.019728 0
37.493443 138.976724 164.875680 0
37.368687 136.268738 164.631370 0
30.155490 136.749584 157.956208 0
23.712324 136.706769 151.975749 0
16.768637 136.707464 145.536807 0
9.407696 136.697643 138.714606 0
1.529254 136.700010 131.417579 0
-149.609056 29.532879 -9.149899 7
-122.890930 26.148670 15.405424 7
-117.958444 21.898936 19.964750 7
-103.626036 18.568170 33.156971 8
-101.502220 14.415566 35.147887 8
-99.996671 10.244930 36.576919 8
-99.046777 6.039185 37.501712 8
-98.618960 1.780504 37.953304 8
-98.725754 -2.554155 37.920482 8
-99.439203 -6.998263 37.337546 8
-100.819380 -11.587056 36.149894 8
-102.931859 -16.360091 34.298017 8
-121.615894 -24.555858 17.272962 7
38.138169 145.838683 169.990007 0
38.085677 143.096546 169.788001 0
38.100558 140.336656 169.650389 0
38.040445 137.628400 169.451218 0
34.079298 136.716460 165.800178 0
27.897119 136.691790 160.178683 0
21.247868 136.709255 154.138942 0
14.260731 136.696544 147.795140 0
6.795983 136.696524 141.022858 0
1.126325 135.809726 135.842892 0
-139.482360 30.182565 7.637255 7
-130.503746 25.940994 15.726840 7
-125.543164 21.643184 20.214853 7
-121.071483 17.428373 24.269890 7
-118.126524 13.177027 26.960483 7
-108.813824 9.692851 35.370784 8
-106.971448 5.530024 37.082854 8
-106.454621 1.229257 37.611951 8
-106.724437 -3.181709 37.442086 8
-108.337251 -7.823833 36.075046 8
-119.153403 -14.119313 26.467239 7
-124.367077 -19.657093 21.891693 7
-130.933378 -25.612171 16.114744 7
38.670671 144.396292 174.473409 0
38.663932 141.675202 174.301472 0
38.638965 138.978551 174.118976 0
38.543536 136.329348 173.880645 0
31.690105 136.744446 167.798976 0
25.454139 136.713446 162.246711 0
18.804587 136.700001 156.331883 0
11.689227 136.709272 150.008716 0
4.149621 136.706482 143.312781 0
-147.306821 30.020164 8.109087 7
-138.403957 25.722113 15.956778 7
-133.410220 21.374120 20.378795 7
-128.615319 17.132995 24.632719 7
-125.885951 12.812572 27.080142 7
-124.057898 8.459178 28.743331 7
-123.027146 4.050279 29.713887 7
-122.795354 -0.445546 29.990763 7
-123.373564 -5.061265 29.564792 7
-124.847786 -9.842462 28.361207 7
-127.611203 -14.892167 26.036270 7
-133.446979 -20.591129 21.029220 7
-140.992814 -26.789576 14.536105 7
39.263752 145.650584 179.084457 0
39.206872 142.982593 178.855024 0
39.188639 140.310036 178.663619 0
39.182379 137.646648 178.487775 0
35.447946 136.713493 175.169663 0
29.399037 136.725026 169.894641 0
23.094819 136.695457 164.399270 0
16.306730 136.710895 158.489852 0
9.161468 136.701037 152.273107 0
2.869191 136.177796 146.775182 0
-146.414455 25.502489 16.261128 7
-141.426413 21.101487 20.584414 7
-136.526876 16.815026 24.838762 7
-133.727652 12.449480 27.297537 7
-131.940297 8.041247 28.895364 7
-131.017876 3.568985 29.758718 7
-130.859852 -0.987438 29.974296 7
-131.550849 -5.669976 29.470078 7
-133.273436 -10.540414 28.090303 7
-136.357075 -15.694962 25.553693 7
-142.705425 -21.534941 20.231370 7
39.776450 144.236088 183.354398 0
39.758990 141.590381 183.148816 0
39.718107 138.970838 182.929788 0
39.647254 136.379050 182.691776 0
33.105001 136.743251 177.124317 0
27.092736 136.709586 171.988342 0
20.659949 136.707018 166.500459 0
13.849667 136.701469 160.695655 0
6.542062 136.726570 154.474319 0
-144.631726 16.489421 25.052649 7
-141.855506 12.068823 27.443222 7
-140.033517 7.611505 29.041153 7
-139.211069 3.075784 29.808877 7
-139.159484 -1.546545 29.938715 7
-140.011177 -6.304074 29.320259 7
-141.913530 -11.254471 27.830822 7
-145.389364 -16.526175 25.033590 7
40.323791 145.461075 187.762079 0
40.297722 142.846192 187.534655 0
40.276716 140.243453 187.317440 0
40.241159 137.661914 187.094619 0
38.858567 135.717637 185.794835 0
30.773877 136.763586 179.103893 0
24.749360 136.707253 174.064029 0
18.228723 136.713368 168.619242 0
11.341691 136.709713 162.873479 0
4.282082 136.605670 156.983015 0
-148.427683 7.161065 29.115591 7
-147.599773 2.572054 29.878265 7
-147.700207 -2.122882 29.889105 7
-148.682130 -6.952249 29.187233 7
40.831468 144.065276 191.846949 0
40.774066 141.506584 191.586651 0
40.763043 138.938685 191.368981 0
40.700165 136.409271 191.117018 0
34.435114 136.731926 186.004002 0
28.596882 136.711282 181.220027 0
22.390036 136.708207 176.141068 0
15.807213 136.711876 170.760769 0
8.745915 136.749703 164.997789 0
3.988149 135.713330 161.047651 0
41.339557 145.259123 196.073190 0
41.317584 142.707967 195.825844 0
41.297292 140.170208 195.586514 0
41.207898 137.679358 195.301055 0
40.041039 135.702037 194.197886 0
32.127781 136.761460 187.931379 0
26.303591 136.707390 183.257121 0
20.024438 136.707942 178.228353 0
13.369235 136.713365 172.904921 0
6.328297 136.713602 167.278838 0
41.819942 143.892002 199.970235 0
41.807821 141.374885 199.722436 0
41.770865 138.883864 199.463140 0
41.687618 136.427664 199.176175 0
35.643913 136.728702 194.447251 0
29.827631 136.782994 189.881537 0
23.995481 136.705916 185.298210 0
17.621407 136.719371 180.303410 0
10.854379 136.742163 175.007820 0
5.667332 135.978546 170.893699 0
42.319030 145.040434 204.052219 0
42.317166 142.542401 203.797056 0
42.287788 140.072230 203.529276 0
42.249519 137.619416 203.262189 0
41.109774 135.695086 202.201382 0
33.347414 136.771168 196.322489 0
27.722013 136.713589 191.991147 0
21.654577 136.714237 187.331481 0
15.069581 136.788279 182.287319 0
8.430054 136.729410 177.196797 0
42.673913 146.228321 207.975456 0
42.804420 143.684094 207.798198 0
42.743354 141.253767 207.493845 0
42.719102 138.817667 207.222855 0
42.646882 136.417174 206.925266 0
36.721109 136.739856 202.484187 0
31.104289 136.784060 198.255173 0
25.444047 136.716592 193.989194 0
19.325356 136.712849 189.390867 0
12.735289 136.761401 184.449958 0
7.082330 136.281885 180.172400 0
43.279215 144.795909 211.736061 0
43.250219 142.372950 211.440001 0
43.189479 139.978802 211.129847 0
43.172176 137.575451 210.857147 0
42.034169 135.712370 209.818517 0
34.502862 136.762275 204.363511 0
28.854090 136.795008 200.200968 0
23.174342 136.711156 196.010671 0
16.762568 136.804904 191.305707 0
10.407350 136.727744 186.633216 0
43.736218 145.881385 215.610007 0
43.751350 143.458603 215.328974 0
43.667833 141.099674 214.990131 0
43.648983 138.720195 214.702355 0
43.534387 136.398970 214.358114 0
37.739372 136.732908 210.199250 0
32.243490 136.797789 206.234141 0
26.759721 136.732011 202.270680 0
20.869973 136.715664 198.026527 0
14.501409 136.764519 193.451357 0
8.239189 136.625353 188.941490 0
44.230214 144.519947 219.152475 0
44.165181 142.174930 218.812516 0
44.115704 139.833815 218.490747 0
44.093709 137.491006 218.194921 0
42.942917 135.694186 217.168399 0
35.549908 136.756079 212.052823 0
29.979819 136.829177 208.122727 0
24.535391 136.721767 204.268558 0
18.364998 136.799798 199.929462 0
12.203311 136.734969 195.588943 0
7.984541 135.756189 192.528711 0
44.631571 145.587156 222.878958 0
44.594573 143.249622 222.543043 0
44.551198 140.927642 222.211501 0
44.536992 138.603070 221.906745 0
44.433628 136.333448 221.553535 0
38.665426 136.724092 217.596359 0
33.344318 136.780576 213.916191 0
27.978085 136.738252 210.200318 0
21.979651 136.849143 206.072326 0
16.121860 136.766939 202.027329 0
9.913994 136.697024 197.750271 0
45.077570 144.261747 226.261864 0
45.037599 141.960653 225.918705 0
44.990902 139.674750 225.579940 0
44.939128 137.402608 225.246444 0
43.702974 135.703927 224.187472 0
36.461461 136.766193 219.403360 0
31.090455 136.820551 215.770457 0
25.817425 136.713257 212.191671 0
19.804720 136.805652 208.144143 0
13.846158 136.742584 204.122959 0
9.369179 135.952008 201.025522 0
45.166655 145.448341 229.701675 0
45.204416 143.124421 229.390368 0
45.204039 140.833550 229.065323 0
45.179190 138.567185 228.734415 0
45.126298 136.325777 228.395255 0
39.451076 136.736788 224.672999 0
34.311569 136.776639 221.265464 0
28.863143 136.841854 217.663645 0
23.295191 136.839705 213.981864 0
17.585462 136.775852 210.206667 0
11.555685 136.718884 206.229235 0
44.729389 144.594937 232.459051 0
44.782571 142.286755 232.149004 0
44.873051 139.973613 231.869969 0
44.910573 137.700618 231.569314 0
44.315585 135.741830 230.907296 0
37.248761 136.788433 226.452036 0
32.073134 136.820741 223.096366 0
26.955139 136.715678 219.767567 0
21.111046 136.812163 216.002675 0
15.355640 136.744928 212.282480 0
10.589890 136.152163 209.143817 0
43.482350 146.453983 235.087716 0
43.899007 143.957312 234.963439 0
44.024285 141.631128 234.685706 0
44.098891 139.345172 234.389025 0
44.245773 137.037785 234.142814 0
41.677688 136.025903 232.359488 0
35.258655 136.734920 228.376270 0
29.950762 136.805445 225.017791 0
24.432828 136.853777 221.531013 0
18.923470 136.780246 218.041534 0
13.092382 136.722072 214.359267 0
40.574437 144.608381 236.086011 0
40.688327 142.276834 235.788054 0
40.816645 139.952854 235.508043 0
41.007408 137.613611 235.272433 0
40.018766 135.840414 234.393349 0
32.982642 136.805910 230.159167 0
26.086138 137.556018 225.988723 0
22.292361 136.817455 223.539983 0
16.715319 136.751002 220.089362 0
11.622133 136.369077 216.903491 0
38.696013 144.502351 238.037298 0
38.997550 142.084030 237.828500 0
39.216245 139.724640 237.586307 0
39.386158 137.404762 237.328378 0
35.867689 136.802412 235.093765 0
30.861250 136.798862 232.052332 0
25.683675 136.765474 228.910807 0
20.110028 136.792879 225.546665 0
14.508280 136.715034 222.159296 0
10.925854 135.703813 219.868787 0
36.494858 144.553030 239.837692 0
36.868826 142.102855 239.652224 0
37.196058 139.695219 239.453912 0
37.421423 137.353917 239.213548 0
33.739512 136.812913 236.938326 0
28.797921 136.758936 233.998203 0
23.192149 136.890856 230.700972 0
17.930551 136.760478 227.576950 0
12.585860 136.555670 224.401953 0
33.698942 144.890378 241.365914 0
34.139746 142.405132 241.197825 0
34.550148 139.955661 241.026372 0
34.909074 137.550287 240.840505 0
31.612349 136.815293 238.806982 0
26.577538 136.781624 235.884692 0
21.005889 136.875150 232.680074 0
15.744406 136.724172 229.626148 0
12.252866 135.745589 227.477363 0
-149.988573 -8.014516 -28.022083 7
-147.933000 -4.276663 -26.658132 7
-145.103112 -2.785003 -26.845944 7
-142.323144 -1.178902 -26.964173 7
-139.613675 0.584456 -26.981317 7
-148.365592 30.349294 -7.163215 7
-145.040415 29.761814 -8.741448 7
-141.686660 29.214293 -10.319754 7
-138.094885 28.237889 -12.237383 7
-134.167230 26.659281 -14.627834 7
-122.845714 9.617075 -28.400093 7
-123.777440 18.766769 -23.031743 7
-111.790653 15.819394 -29.451050 8
-110.390259 19.889343 -27.828945 8
-108.606350 23.143559 -26.816091 8
-105.753328 24.438685 -27.309613 8
-101.002342 22.500857 -30.336603 8
-148.691060 -10.225053 -24.974124 7
-145.680964 -9.090059 -25.411777 7
-142.692159 -7.891386 -25.819433 7
-139.740762 -6.591352 -26.170803 7
-136.828268 -5.193732 -26.467410 7
-148.343872 31.334509 -2.458529 7
-145.189046 31.109135 -3.746512 7
-141.990375 30.866867 -5.070772 7
-138.713244 30.534727 -6.483762 7
-135.366293 30.141742 -7.966850 7
-131.835907 29.456510 -9.687463 7
-128.141227 28.544968 -11.603313 7
-124.086118 27.037370 -13.987579 7
-119.767345 25.172112 -16.676308 7
-114.314195 21.334461 -20.867551 8
-112.379060 24.253284 -20.109140 8
-110.463233 27.138587 -19.372353 8
-108.140672 29.246787 -19.218712 8
-105.031183 29.985994 -20.112032 8
-100.732509 28.786754 -22.513870 8
-94.996633 25.388095 -26.662584 8
-89.462706 22.553701 -30.448183 8
-149.774538 -15.467697 -22.718469 7
-147.056648 -13.390339 -22.538465 7
-143.828940 -12.772403 -23.324518 7
-140.624396 -12.051992 -24.059962 7
-137.521808 -11.033102 -24.613137 7
-134.452517 -9.912663 -25.112757 7
-147.931087 31.349932 1.507112 7
-144.901809 31.407197 0.438326 7
-141.805259 31.377476 -0.711120 7
-138.644356 31.277105 -1.931749 7
-135.454521 31.190974 -3.166216 7
-132.180967 31.005516 -4.494413 7
-128.817118 30.717956 -5.920462 7
-125.292609 30.199279 -7.538229 7
-118.817753 24.070262 -13.198216 7
-117.900018 28.811922 -11.119429 7
-113.306613 26.634237 -14.038536 8
-111.163826 29.032848 -13.663026 8
-108.998774 31.351350 -13.348359 8
-106.220089 32.588363 -13.839761 8
-102.603377 32.450075 -15.376459 8
-98.423549 31.483281 -17.571161 8
-93.996062 30.249781 -20.012742 8
-89.026160 28.316277 -23.040118 8
-82.817821 24.684381 -27.440907 8
-69.418592 10.691954 -40.010072 9
-69.083029 16.266035 -37.405097 9
-69.221715 22.347088 -34.361421 9
-70.057886 29.205620 -30.650291 9
-68.084258 32.064158 -30.114835 9
-65.232050 33.728557 -30.553077 9
-62.372589 35.399980 -31.003219 9
-59.552321 37.137947 -31.416230 9
-56.661365 38.804369 -31.907001 9
-53.303246 39.928136 -32.876994 9
-42.232162 32.013680 -41.608487 9
-148.517908 -17.592506 -19.556615 7
-145.345509 -16.758698 -20.189314 7
-142.189227 -15.854609 -20.791651 7
-139.059081 -14.858164 -21.348819 7
-135.934628 -13.828348 -21.898403 7
-149.684217 29.229923 5.087713 7
-147.327510 30.891827 5.110435 7
-144.342024 31.051904 4.129698 7
-141.339679 31.234088 3.144251 7
-138.286033 31.362640 2.102874 7
-135.146838 31.370694 0.958924 7
-131.987261 31.406828 -0.188418 7
-128.741185 31.336677 -1.431798 7
-125.463118 31.279197 -2.691021 7
-122.087855 31.110148 -4.053320 7
-118.607752 30.826378 -5.523380 7
-113.775659 28.153545 -8.715526 8
-111.565590 30.375323 -8.468425 8
-109.297715 32.463453 -8.320801 8
-106.681898 33.935077 -8.625200 8
-103.371245 34.260115 -9.779963 8
-99.530003 33.788132 -11.548137 8
-95.531341 33.168188 -13.462691 8
-91.360523 32.391225 -15.534303 8
-86.917002 31.320047 -17.870858 8
-82.175415 29.941346 -20.489572 8
-76.867471 27.894069 -23.675583 8
-70.518697 24.560664 -27.922967 9
-70.599433 30.307037 -25.152588 9
-69.962901 34.921515 -23.234483 9
-67.881455 37.520216 -22.895656 9
-64.991290 39.053000 -23.416308 9
-62.069020 40.567018 -23.971033 9
-59.162948 42.124536 -24.509918 9
-56.231369 43.674232 -25.075065 9
-52.813258 44.675859 -26.118615 9
-48.242377 44.399897 -28.270455 9
-41.425180 41.700110 -32.541285 9
-149.633122 -22.989414 -17.267337 7
-146.895925 -20.778363 -17.040972 7
-143.686294 -19.964515 -17.689040 7
-140.459742 -19.168707 -18.363067 7
-137.232712 -18.343537 -19.033690 7
-134.012733 -17.470215 -19.688966 7
-149.444492 29.671630 9.240160 7
-146.506482 29.902292 8.338544 7
-143.599080 30.260067 7.501501 7
-140.636531 30.541780 6.597619 7
-137.648101 30.820511 5.673454 7
-134.563401 30.947856 4.630231 7
-131.488899 31.160392 3.623029 7
-128.349871 31.302012 2.547676 7
-125.132775 31.353882 1.389818 7
-121.893085 31.432152 0.226644 7
-118.526336 31.341380 -1.076285 7
-113.844019 28.924236 -4.014598 8
-111.653436 31.143747 -3.772564 8
-109.386833 33.198059 -3.649494 8
-106.773213 34.640147 -3.964682 8
-103.548690 35.078118 -5.008301 8
-99.907526 34.898971 -6.519663 8
-96.138677 34.604622 -8.146362 8
-92.244952 34.210428 -9.880250 8
-88.224344 33.723425 -11.719070 8
-84.047051 33.109456 -13.691160 8
-79.616659 32.242056 -15.895116 8
-75.028981 31.276655 -18.219691 8
-70.600120 30.657940 -20.328893 9
-69.311721 34.370202 -19.147721 9
-69.316108 39.703448 -16.693150 9
-66.472644 41.233370 -17.185848 9
-63.570146 42.709755 -17.738703 9
-60.636300 44.171709 -18.322276 9
-57.723645 45.684987 -18.884494 9
-54.635959 47.017314 -19.614222 9
-51.067469 47.830440 -20.795111 9
-46.394465 47.457984 -22.995270 9
-40.328760 45.661711 -26.446538 9
-33.313675 43.015206 -30.701480 9
-23.070761 37.176743 -37.795562 9
-148.793937 -23.892125 -13.312706 7
-145.478968 -23.354671 -14.112830 7
-142.189866 -22.699349 -14.857307 7
-138.856475 -22.125372 -15.667059 7
-135.565892 -21.393813 -16.396259 7
-132.256540 -20.673569 -17.148119 7
-148.453498 28.242724 12.165548 7
-145.585221 28.668881 11.398645 7
-142.688467 29.073096 10.602176 7
-139.749468 29.428209 9.758147 7
-136.789815 29.787876 8.899890 7
-133.749985 30.026712 7.946016 7
-130.756275 30.419175 7.072931 7
-127.670199 30.675090 6.092133 7
-124.537712 30.897878 5.069418 7
-121.352496 31.080260 3.998895 7
-118.147388 31.289068 2.924138 7
-113.712567 29.318818 0.356144 8
-111.470645 31.419745 0.511882 8
-109.263925 33.554390 0.686918 8
-106.609340 34.903434 0.315617 8
-103.431194 35.398979 -0.662400 8
-99.879134 35.344490 -2.048872 8
-96.306823 35.337910 -3.430735 8
-92.539793 35.110338 -4.999984 8
-88.741878 34.926067 -6.571326 8
-84.783922 34.595556 -8.282616 8
-80.682813 34.156087 -10.110413 8
-76.431716 33.608738 -12.057230 8
-71.950104 32.853806 -14.200797 8
-70.544504 36.342424 -13.200251 9
-70.145735 41.084104 -11.238630 9
-67.322067 42.594708 -11.722706 9
-64.455271 44.071841 -12.249720 9
-61.578963 45.560510 -12.785891 9
-58.659191 47.020851 -13.363009 9
-55.732092 48.498809 -13.945850 9
-52.411450 49.551109 -14.890867 9
-48.391666 49.863246 -16.464417 9
-43.419653 49.206584 -18.873488 9
-37.863801 48.043316 -21.761576 9
-31.725841 46.412359 -25.111723 9
-24.618274 43.949382 -29.247615 9
-15.500082 39.662936 -35.043664 9
-8.930409 71.439995 -24.886842 1
-8.721926 75.664052 -23.288456 1
-9.101453 80.294968 -21.269048 1
-9.119748 84.549724 -19.576072 1
-147.597498 -25.870049 -10.011882 7
-144.211648 -25.490423 -10.898882 7
-140.839175 -25.017549 -11.747335 7
-137.479879 -24.458305 -12.560686 7
-134.098684 -23.909993 -13.396783 7
-149.677513 24.748694 14.843190 7
-147.356215 26.552503 14.931950 7
-144.475163 26.983420 14.175683 7
-141.595341 27.461355 13.433215 7
-138.689739 27.923568 12.665772 7
-135.775534 28.411010 11.898365 7
-132.810809 28.834417 11.074666 7
-129.807926 29.226607 10.214201 7
-126.770047 29.598539 9.323081 7
-123.670923 29.902375 8.369726 7
-120.522765 30.168906 7.372614 7
-117.412541 30.565446 6.439991 7
-113.389731 29.355852 4.429913 8
-111.161744 31.463611 4.584573 8
-108.878544 33.448121 4.653401 8
-106.237592 34.808090 4.296459 8
-103.053699 35.283763 3.327031 8
-99.577949 35.343285 2.050822 8
-96.065906 35.419788 0.759253 8
-92.465169 35.434310 -0.603217 8
-88.743177 35.344980 -2.067958 8
-85.037118 35.362813 -3.488348 8
-81.104382 35.135899 -5.114805 8
-77.092918 34.890852 -6.789671 8
-72.914459 34.511234 -8.599113 8
-70.529355 36.634428 -8.612577 9
-69.928140 41.086273 -6.910083 9
-67.774247 43.440692 -6.750362 9
-64.962249 44.954036 -7.229351 9
-62.025223 46.335125 -7.825758 9
-59.211346 47.891762 -8.306541 9
-56.282677 49.335126 -8.892575 9
-53.149237 50.570764 -9.661147 9
-49.427437 51.182687 -10.947243 9
-45.016553 51.102121 -12.821921 9
-39.892160 50.349931 -15.286914 9
-34.591895 49.539227 -17.860570 9
-28.863026 48.417983 -20.754830 9
-22.586983 46.891394 -24.059723 9
-15.765445 44.992589 -27.761444 9
-6.742498 41.150866 -33.213819 9
-14.158748 71.460700 -17.827166 1
-9.034547 71.476178 -20.093508 1
-7.949388 74.956130 -19.215602 1
-10.891516 81.670999 -15.288347 1
-15.118027 89.227877 -10.468956 3
-15.003613 93.189610 -8.999558 3
-9.608280 93.069904 -11.490957 3
-4.277347 93.114132 -13.900802 3
1.321183 93.075612 -16.474142 3
-7.985151 103.755604 -8.209603 2
-2.537630 103.818899 -10.695751 2
-149.670658 -28.573223 -6.035444 7
-146.599722 -27.254775 -6.363417 7
-143.143561 -27.049685 -7.340009 7
-139.738497 -26.635430 -8.213199 7
-136.265968 -26.347920 -9.176515 7
-132.841868 -25.870930 -10.046613 7
-148.893231 23.819902 18.081015 7
-146.086837 24.443224 17.458609 7
-143.247507 25.020645 16.795874 7
-140.400631 25.616661 16.130717 7
-137.519555 26.171847 15.427012 7
-134.613149 26.710888 14.698932 7
-131.665257 27.202784 13.926830 7
-128.672306 27.645939 13.108685 7
-125.676194 28.130502 12.299593 7
-122.631246 28.565873 11.442770 7
-119.579825 29.038752 10.591893 7
-115.246680 27.175878 8.234401 8
-112.879484 29.045552 8.232831 8
-110.674982 31.185733 8.400954 8
-108.367849 33.119515 8.431678 8
-104.277225 32.030196 6.470105 8
-102.461540 34.810030 7.035424 8
-99.070998 35.005942 5.878140 8
-95.599565 35.142323 4.656017 8
-92.101874 35.309551 3.428654 8
-88.451881 35.319378 2.066835 8
-84.826694 35.444365 0.755190 8
-81.072733 35.459866 -0.661666 8
-77.189738 35.375643 -2.179830 8
-73.250289 35.300542 -3.725039 8
-70.592521 37.026670 -4.016293 9
-68.959355 40.102391 -3.345546 9
-65.431168 40.704990 -4.471157 9
-65.021288 45.270676 -2.710700 9
-62.207747 46.782460 -3.191098 9
-59.397757 48.320270 -3.668567 9
-56.547555 49.832697 -4.182048 9
-53.464414 51.101795 -4.899313 9
-49.955842 51.928604 -5.980247 9
-45.788184 52.086519 -7.612879 9
-41.027872 51.692212 -9.722647 9
-36.165959 51.301389 -11.882415 9
-30.900267 50.606694 -14.341522 9
-25.492616 49.896002 -16.875914 9
-19.573187 48.810128 -19.783958 9
-13.264465 47.496470 -22.956086 9
-6.085806 45.520658 -26.767231 9
2.862952 42.097714 -31.908088 9
-18.698821 71.015713 -11.433318 1
-14.234876 71.490066 -13.170877 1
-9.121426 71.498417 -15.377820 1
-3.850645 71.483982 -17.671647 1
-12.664605 83.035402 -9.447195 1
-15.776639 89.663445 -5.585849 3
-15.166776 93.216261 -4.523097 3
-13.861284 96.193123 -3.991431 3
-12.509690 99.114526 -3.510138 2
-12.350820 102.885936 -2.194838 2
-8.352578 103.868788 -3.623056 2
-8.341187 107.694667 -2.240624 2
-4.818360 109.075292 -3.329936 2
-149.241541 -28.244860 -1.443976 7
-145.776638 -28.125984 -2.436694 7
-142.290661 -27.995140 -3.439854 7
-138.787997 -27.838531 -4.445978 7
-135.284405 -27.613617 -5.431095 7
-149.600175 18.874850 19.971798 7
-147.479639 21.305460 20.394432 7
-144.691776 22.033286 19.833727 7
-141.878866 22.728536 19.242307 7
-139.039702 23.393068 18.620564 7
-136.140185 23.955083 17.925399 7
-133.270687 24.621438 17.278198 7
-130.341729 25.196336 16.562644 7
-127.418149 25.822487 15.863265 7
-124.433899 26.365397 15.098610 7
-121.453863 26.960186 14.349854 7
-117.034444 24.857060 11.921551 7
-114.492627 26.416527 11.727496 8
-112.286843 28.580816 11.904263 8
-110.117451 30.777707 12.099384 8
-107.711683 32.535599 12.013411 8
-104.915618 33.627801 11.494375 8
-101.652969 33.977345 10.482096 8
-98.325988 34.282890 9.419493 8
-94.956450 34.583922 8.331115 8
-91.479877 34.784522 7.152663 8
-87.984882 35.026481 5.976378 8
-84.363954 35.152491 4.696224 8
-80.714812 35.312534 3.411201 8
-76.905150 35.322317 1.994734 8
-73.099988 35.419961 0.607724 8
-70.584920 37.319796 0.446348 9
-69.521360 41.117485 1.611221 9
-67.749980 43.930551 2.091692 9
-64.952653 45.424139 1.628569 9
-62.105321 46.877640 1.120907 9
-59.332022 48.443690 0.678835 9
-56.525747 49.991322 0.207523 9
-53.473170 51.278633 -0.474262 9
-50.111081 52.252870 -1.412688 9
-46.108689 52.572520 -2.875403 9
-41.534232 52.354899 -4.788754 9
-36.925268 52.203120 -6.699071 9
-32.079358 51.908482 -8.770321 9
-26.950673 51.437887 -11.034328 9
-21.693855 50.959538 -13.362989 9
-16.032867 50.211936 -15.970873 9
-9.823485 49.080661 -18.961733 9
-3.381888 47.888313 -22.081786 9
-20.851430 68.526556 -6.969165 1
-18.716693 71.009830 -6.920247 1
-14.068344 71.309243 -8.756396 1
-8.619402 71.020979 -11.158912 1
-11.397865 77.693375 -7.501300 1
-14.163469 84.178814 -3.927834 1
-15.300481 89.197338 -1.597737 3
-15.125359 93.084976 -0.252089 3
-14.018036 96.201553 0.403565 3
-12.023273 98.629452 0.418496 2
-11.845572 102.384333 1.688131 2
-8.592033 103.893051 0.809872 2
-8.469962 107.627784 2.078761 2
-5.052021 109.065413 1.085750 2
0.896708 108.869830 -1.600360 2
-148.764099 -28.084098 3.001720 7
-145.221914 -28.215773 1.892332 7
-141.664172 -28.303480 0.788654 7
-138.128674 -28.244499 -0.252930 7
-134.528185 -28.282095 -1.365664 7
-148.895860 18.146898 23.338884 7
-146.007335 18.653616 22.665754 7
-143.122253 19.207848 22.006595 7
-140.338920 20.039425 21.492030 7
-137.465040 20.685916 20.860789 7
-134.634410 21.462700 20.291809 7
-131.766324 22.186071 19.679898 7
-128.887026 22.917487 19.059930 7
-125.984411 23.633308 18.417759 7
-123.014564 24.248802 17.702652 7
-120.040564 24.896443 16.991925 7
-115.976886 23.514976 15.046925 8
-113.781956 25.734413 15.248362 8
-111.596842 27.935990 15.437493 8
-109.391456 30.068613 15.582605 8
-106.908110 31.694966 15.411661 8
-104.042898 32.677557 14.831245 8
-100.770166 33.021001 13.834350 8
-97.451614 33.350465 12.807527 8
-94.107417 33.700773 11.772188 8
-90.667995 33.966611 10.660022 8
-87.188688 34.238721 9.527988 8
-83.703258 34.568447 8.409115 8
-80.107661 34.806086 7.204487 8
-76.444243 35.019364 5.956910 8
-72.648911 35.125164 4.609071 8
-70.557286 37.582010 4.829123 9
-70.101217 42.150268 6.495332 9
-67.352699 43.678457 6.081787 9
-64.591578 45.209236 5.656136 9
-61.864829 46.801330 5.259347 9
-59.146470 48.421223 4.868275 9
-56.332657 49.947025 4.395336 9
-53.263490 51.202968 3.710359 9
-49.923400 52.190339 2.807781 9
-46.015544 52.602239 1.453433 9
-41.657930 52.604250 -0.242922 9
-37.186585 52.578907 -2.002951 9
-32.562987 52.491989 -3.855154 9
-27.734869 52.298555 -5.837564 9
-22.689260 51.996599 -7.956381 9
-17.434862 51.605726 -10.201053 9
-12.332879 51.477836 -12.295170 9
-10.419983 54.412887 -11.971786 4
-19.324129 67.135061 -3.650477 1
-17.544411 69.948356 -3.336567 1
-14.198554 71.386485 -4.175480 1
-12.735156 74.468394 -3.651673 1
-11.105125 77.387029 -3.264640 1
-14.470556 84.354138 0.639549 1
-14.820212 88.728652 2.352906 3
-14.643686 92.611826 3.663063 3
-14.171916 96.209265 4.739802 3
-11.526455 98.137582 4.306703 2
-11.395723 101.924138 5.576419 2
-9.218740 104.195433 5.444089 2
-6.811502 106.317039 5.153725 2
-4.892991 108.790238 5.184138 2
1.430511 108.333528 2.320678 2
6.083877 109.102230 0.581559 2
-148.665045 -26.796038 7.989302 7
-145.053612 -27.190113 6.767666 7
-141.394419 -27.614785 5.510451 7
-137.778935 -27.813510 4.353924 7
-149.997821 14.070521 25.811735 7
-147.450495 15.508992 25.654449 7
-144.664640 16.335704 25.158318 7
-141.853609 17.122251 24.630065 7
-138.935702 17.681852 23.965757 7
-135.979246 18.191614 23.261035 7
-133.029264 18.757652 22.574434 7
-130.094993 19.397341 21.916066 7
-127.226019 20.210977 21.343466 7
-124.328125 20.993882 20.741245 7
-121.400152 21.747924 20.109755 7
-118.436924 22.467085 19.444768 7
-115.063283 22.445524 18.332285 8
-112.894362 24.722419 18.554512 8
-110.757571 27.019112 18.787809 8
-108.554750 29.162222 18.928575 8
-105.960212 30.604782 18.644439 8
-102.876396 31.233976 17.856604 8
-99.720785 31.790921 17.007405 8
-96.434097 32.188019 16.041067 8
-93.134618 32.622977 15.077833 8
-89.741185 32.971770 14.039681 8
-86.307734 33.322920 12.980693 8
-82.822535 33.661607 11.890713 8
-79.276585 33.978306 10.762641 8
-75.624400 34.213657 9.556702 8
-72.038243 34.610242 8.429857 8
-70.548893 37.865899 9.170488 9
-69.564145 41.721759 10.320040 9
-66.820995 43.252644 9.917222 9
-64.093746 44.821473 9.526933 9
-61.407733 46.458206 9.170008 9
-58.679816 48.060584 8.776362 9
-55.949234 49.678091 8.379477 9
-52.872810 50.918292 7.701548 9
-49.539241 51.905978 6.823173 9
-45.614578 52.292664 5.486586 9
-41.390976 52.432392 3.935589 9
-37.068072 52.553774 2.331642 9
-32.528351 52.540509 0.586176 9
-27.961734 52.596136 -1.152496 9
-23.161718 52.516496 -3.039810 9
-18.213585 52.396459 -5.008072 9
-16.302697 55.255441 -4.711447 4
-16.790260 60.318596 -2.682190 4
-16.936960 64.964189 -0.946795 4
-17.018269 69.460215 0.700379 1
-14.256144 71.401126 0.295526 1
-12.985376 74.632170 0.936185 1
-10.615602 76.917556 0.793537 1
-9.798986 80.476953 1.715488 1
-14.328957 88.251873 6.263271 3
-14.165014 92.141757 7.548009 3
-12.712010 94.987631 7.938823 3
-8.885943 96.047337 6.737754 3
-9.994840 100.771014 8.804915 2
-8.329813 103.418689 9.016814 2
-3.544829 103.883851 7.194750 2
2.142148 103.826475 4.815276 2
4.691773 105.980056 4.470181 2
-147.501514 -28.742137 11.248803 7
-145.451766 -24.541007 12.404295 7
-141.671089 -25.408656 10.953379 7
-150.010503 6.888078 26.725304 7
-148.396519 10.969420 27.934754 7
-145.638821 11.944520 27.520690 7
-142.875253 12.916552 27.096470 7
-140.076839 13.817609 26.625558 7
-137.269356 14.715843 26.143586 7
-134.439505 15.582946 25.634929 7
-131.574755 16.395486 25.086179 7
-128.703466 17.220713 24.533356 7
-125.687719 17.770361 23.816792 7
-122.650928 18.319765 23.086299 7
-119.606265 18.897139 22.357326 7
-115.977700 18.386491 20.998532 8
-114.030268 21.149377 21.481387 8
-111.930384 23.568367 21.770434 8
-108.479315 23.515260 20.629618 8
-107.511486 27.892029 22.050750 8
-104.778573 29.113833 21.635912 8
-101.693060 29.762990 20.871265 8
-98.509743 30.296895 20.021454 8
-95.262590 30.779707 19.122919 8
-91.907893 31.149016 18.136449 8
-88.591313 31.636469 17.201516 8
-85.224649 32.105227 16.234816 8
-81.802885 32.551542 15.233064 8
-78.288657 32.926117 14.164251 8
-74.711393 33.277028 13.056919 8
-71.103797 33.652842 11.940921 8
-69.748555 37.092081 12.775214 9
-68.835794 41.042277 13.951954 9
-66.180816 42.686827 13.630963 9
-63.510348 44.325276 13.294564 9
-60.835139 45.972458 12.952143 9
-58.118368 47.585206 12.574267 9
-55.319009 49.119128 12.129514 9
-52.299319 50.423054 11.511664 9
-48.896494 51.330716 10.599730 9
-44.997854 51.745395 9.316653 9
-40.850922 51.966223 7.863171 9
-36.638669 52.200763 6.382615 9
-32.318313 52.407526 4.843777 9
-27.741649 52.442408 3.138903 9
-23.167466 52.575112 1.462050 9
-18.480194 52.691837 -0.271410 9
-16.989406 55.927288 0.310418 4
-16.871502 60.401135 1.846128 4
-16.662472 64.708212 3.280029 4
-15.956074 68.496562 4.332699 1
-14.359256 71.455737 4.744231 1
-12.272832 73.978007 4.806289 1
-10.105698 76.431583 4.805217 1
-12.462043 82.571781 7.830246 1
-11.400106 85.832746 8.522718 1
-13.718256 91.697289 11.423219 3
-10.647739 93.304688 10.747353 3
-9.036112 96.039147 11.021335 3
-6.442331 98.046647 10.653618 2
-5.281880 101.100585 11.198622 2
-3.282694 103.546505 11.198759 2
1.915317 103.813449 9.188472 2
7.740133 103.766032 6.814617 2
-149.641196 -20.787538 19.432322 7
-148.921550 -13.036340 22.346179 7
-150.010243 -0.645572 27.627145 7
-148.888481 5.036572 29.582399 7
-146.212407 6.351649 29.337635 7
-143.513731 7.599787 29.052742 7
-140.771743 8.737178 28.704239 7
-138.010705 9.833248 28.326847 7
-135.238423 10.911323 27.932114 7
-132.456817 11.978854 27.523548 7
-129.635658 12.971631 27.066713 7
-126.778609 13.905170 26.568804 7
-123.914768 14.846638 26.065031 7
-121.012509 15.732774 25.520880 7
-118.100206 16.625790 24.969380 7
-115.019136 17.220260 24.242149 8
-112.939662 19.744902 24.571324 8
-110.855823 22.210649 24.869324 8
-108.735266 24.564170 25.105370 8
-106.263762 26.264319 24.970824 8
-103.395326 27.279712 24.438927 8
-100.313571 27.965899 23.705143 8
-97.080598 28.448685 22.837626 8
-93.860963 29.005912 21.995830 8
-90.595529 29.542738 21.124230 8
-87.346157 30.156690 20.280068 8
-83.973214 30.637390 19.337501 8
-80.523127 31.063327 18.341444 8
-77.084670 31.566526 17.371069 8
-73.579272 32.035198 16.357973 8
-70.631611 33.322639 15.831705 9
-68.574520 35.820427 16.051015 9
-67.985213 40.202572 17.463052 9
-65.315162 41.832659 17.136993 9
-62.694177 43.537731 16.848251 9
-60.081570 45.264750 16.563240 9
-57.392721 46.912646 16.215509 9
-54.624349 48.483873 15.804758 9
-51.547173 49.722516 15.157433 9
-48.050690 50.527329 14.197770 9
-44.261061 51.065760 13.030671 9
-40.178744 51.357507 11.663169 9
-36.011966 51.639688 10.254339 9
