ply
format ascii 1.0
element vertex 1384
property float x
property float y
property float z
property int scalar_Label
end_header
3.302317 -46.806174 10.527051 9
0.956867 -46.811420 10.525803 9
-1.395377 -46.804672 10.520926 9
-3.750095 -46.822170 10.510263 9
-6.110448 -46.841025 10.495149 9
-8.489833 -46.779843 10.480362 9
-10.861511 -46.812697 10.455618 9
-13.247247 -46.805319 10.428803 9
-15.633261 -46.839204 10.395103 9
-18.029584 -46.860073 10.357679 9
-20.447190 -46.819358 10.319326 9
-22.867256 -46.813659 10.274366 9
-25.288339 -46.846817 10.222561 9
-27.723247 -46.862253 10.167162 9
-30.165182 -46.891420 10.106312 9
-32.625675 -46.890008 10.042513 9
-35.084596 -46.938271 9.971131 9
-37.571662 -46.926017 9.898399 9
-40.073979 -46.906054 9.821240 9
-42.668760 -46.622900 9.753880 9
-45.387310 -46.003487 9.700036 9
-48.361581 -44.669931 9.680101 9
-51.557370 -42.795494 9.683623 9
-54.852097 -40.792260 9.687372 9
-58.199001 -38.807656 9.683044 9
-62.660852 -33.907232 9.827286 8
-65.290748 -34.251335 9.683504 8
-68.040274 -34.313520 9.549144 8
-70.824847 -34.333070 9.411273 8
-73.617411 -34.381867 9.266047 8
-76.444960 -34.394447 9.116750 8
-79.257228 -34.492918 8.957099 8
-82.128747 -34.502467 8.795821 8
-85.016999 -34.525941 8.627616 8
-87.864705 -34.688204 8.446384 8
-90.787802 -34.735584 8.264365 8
-93.725860 -34.802720 8.074902 8
-96.746235 -34.754094 7.884164 8
-99.757045 -34.780425 7.683125 8
-102.785237 -34.826481 7.474289 8
-107.457757 -31.832080 7.391105 8
-109.277626 -34.273348 7.063013 8
-114.040871 -31.369309 6.955683 8
-119.564808 -27.309752 6.882795 8
-123.365296 -26.450205 6.666341 7
-126.695334 -26.479504 6.405406 7
-130.037948 -26.547152 6.134770 7
-133.428845 -26.594986 5.856519 7
-136.838291 -26.673184 5.568600 7
-140.293313 -26.739948 5.272373 7
-143.784383 -26.812398 4.967018 7
-147.356127 -26.825788 4.654447 7
149.542577 -30.612817 6.605543 6
146.633026 -30.526725 6.900609 6
143.762538 -30.400509 7.190488 6
140.891158 -30.323873 7.471517 6
138.040425 -30.246614 7.745907 6
135.215612 -30.153681 8.014466 6
132.387577 -30.116822 8.274005 6
129.602988 -30.015676 8.530209 6
128.078904 -26.532217 8.944708 6
124.068458 -29.857829 9.022004 6
121.346745 -29.718609 9.261874 6
118.621280 -29.633220 9.493169 6
116.897532 -26.515307 9.876756 6
113.457071 -28.691771 9.979206 5
109.437239 -32.968448 9.959420 5
105.903623 -35.942762 9.998293 5
104.034139 -33.325067 10.336318 5
100.487882 -36.680538 10.338130 5
97.914788 -36.654842 10.521617 5
95.360904 -36.599506 10.701599 5
92.822404 -36.524417 10.877628 5
90.286703 -36.478672 11.046920 5
87.763456 -36.420824 11.211938 5
85.234748 -36.430580 11.367979 5
82.722136 -36.409747 11.520926 5
80.223296 -36.363117 11.670595 5
77.732682 -36.314061 11.815637 5
75.248900 -36.267441 11.955799 5
72.769285 -36.237027 12.090259 5
70.301372 -36.174386 12.222099 5
67.837516 -36.122456 12.348669 5
66.690431 -26.426835 13.090177 5
66.336515 -9.023494 14.334353 5
60.407863 -36.553890 12.662924 9
57.795872 -38.112632 12.665678 9
55.217346 -39.681253 12.662093 9
52.664163 -41.349399 12.646324 9
50.159006 -42.858128 12.635634 9
47.692837 -44.265327 12.626420 9
45.277911 -45.308355 12.636561 9
42.908793 -45.879134 12.673798 9
40.565173 -46.136327 12.727838 9
38.236424 -46.121446 12.796154 9
35.907580 -46.151563 12.857281 9
33.581037 -46.100377 12.919875 9
31.253682 -46.125177 12.973165 9
28.926119 -46.059679 13.028604 9
26.598161 -46.073230 13.074517 9
24.269223 -46.072031 13.117382 9
21.938994 -46.070461 13.156212 9
19.606636 -46.059125 13.191664 9
17.269858 -46.008440 13.225812 9
14.935140 -46.043708 13.249894 9
12.593479 -46.014481 13.274429 9
10.248968 -45.997238 13.294062 9
7.901183 -45.988153 13.309052 9
5.549113 -45.979101 13.319961 9
3.194316 -45.987760 13.325536 9
0.831863 -45.972754 13.328674 9
-1.530835 -45.999149 13.324786 9
-3.904134 -45.987802 13.319424 9
-6.278662 -46.011229 13.307472 9
-8.667571 -45.983635 13.294938 9
-11.063243 -45.961272 13.277849 9
-13.461338 -45.969959 13.254373 9
-15.860288 -46.015558 13.224085 9
-18.278054 -46.004698 13.193488 9
-20.700131 -46.016973 13.156989 9
-23.130067 -46.035185 13.115762 9
-25.571475 -46.044861 13.070781 9
-28.018443 -46.073835 13.020084 9
-30.485327 -46.064067 12.967644 9
-32.944956 -46.126916 12.905752 9
-35.434970 -46.116208 12.844417 9
-37.919300 -46.170952 12.774069 9
-41.471528 -42.578143 12.946565 9
-43.041435 -45.888258 12.646116 9
-45.832781 -45.085408 12.619432 9
-48.840146 -43.706275 12.625955 9
-52.120622 -41.635242 12.672634 9
-55.488083 -39.483689 12.718117 9
-58.889866 -37.411294 12.751629 9
-63.098252 -33.285613 12.912229 8
-65.874830 -33.278319 12.796986 8
-68.631583 -33.372743 12.669789 8
-71.417650 -33.437904 12.539070 8
-74.222456 -33.503880 12.402804 8
-77.048817 -33.565543 12.261233 8
-79.896862 -33.624613 12.114156 8
-82.756598 -33.705704 11.959964 8
-85.704554 -33.639152 11.808964 8
-88.607705 -33.725251 11.642633 8
-91.530721 -33.818187 11.469876 8
-94.501094 -33.862529 11.293882 8
-97.494774 -33.911762 11.111316 8
-100.496649 -33.996957 10.920280 8
-103.524262 -34.083700 10.722695 8
-106.672120 -33.996289 10.528314 8
-110.319729 -33.051966 10.374402 8
-115.941074 -28.665039 10.399744 8
-120.972425 -25.561808 10.341490 7
-124.253772 -25.655942 10.101448 7
-127.594427 -25.706606 9.856147 7
-130.969883 -25.758734 9.603013 7
-134.374837 -25.822692 9.341361 7
-137.839880 -25.851437 9.073351 7
-141.311998 -25.931004 8.794564 7
-144.765619 -26.099015 8.503202 7
-148.326030 -26.166298 8.208018 7
147.530514 -29.472593 10.113333 6
144.650959 -29.315802 10.395494 6
141.771833 -29.204325 10.668822 6
138.905318 -29.110498 10.934865 6
136.078434 -28.966658 11.197584 6
133.287375 -28.776526 11.457011 6
130.491890 -28.640322 11.707411 6
127.704280 -28.527640 11.950569 6
124.934944 -28.409723 12.188281 6
122.185232 -28.280345 12.421038 6
119.448070 -28.157529 12.647823 6
116.932853 -27.398987 12.909677 6
114.205541 -27.312477 13.123728 5
110.405132 -30.779805 13.100144 5
108.378879 -28.537075 13.443343 5
103.644605 -35.675249 13.157639 5
101.011362 -35.755544 13.333196 5
98.433387 -35.682059 13.514079 5
95.855111 -35.652378 13.687058 5
93.297648 -35.583497 13.857881 5
90.750208 -35.514153 14.023964 5
88.210017 -35.454349 14.184657 5
85.682580 -35.377472 14.341896 5
83.155822 -35.337549 14.491875 5
80.644699 -35.261028 14.639913 5
78.134315 -35.219891 14.780860 5
75.638180 -35.140366 14.920131 5
73.143915 -35.087531 15.053008 5
70.654026 -35.047348 15.180537 5
68.171734 -34.997189 15.304438 5
66.643356 -28.004968 15.947886 5
66.205621 -11.406427 17.322176 5
65.232438 3.305665 18.561937 5
58.075735 -36.813098 15.602357 9
55.462455 -38.529187 15.567970 9
52.900224 -40.087455 15.540364 9
50.366661 -41.707516 15.502725 9
47.875166 -43.214836 15.468734 9
45.440367 -44.303249 15.462626 9
43.049805 -44.973225 15.484838 9
40.689129 -45.272651 15.532016 9
38.345273 -45.267479 15.599278 9
36.002479 -45.262903 15.662596 9
33.660655 -45.234719 15.723915 9
31.318719 -45.184041 15.783173 9
28.976257 -45.205303 15.832814 9
26.633035 -45.182615 15.882126 9
24.288038 -45.141040 15.929120 9
21.941401 -45.111243 15.971331 9
19.591545 -45.059563 16.011480 9
17.242370 -45.076883 16.042208 9
14.888902 -45.060826 16.071800 9
12.530778 -45.025060 16.099155 9
10.173906 -45.052637 16.117514 9
7.808549 -45.023166 16.136665 9
5.440587 -45.014410 16.150272 9
3.071573 -45.038679 16.157319 9
0.690333 -44.999592 16.165655 9
-1.690410 -45.011491 16.165944 9
-4.078109 -45.013987 16.163097 9
-6.469118 -45.036035 16.154737 9
-8.874050 -45.010580 16.146313 9
-11.278795 -45.031428 16.130161 9
-13.692459 -45.042884 16.110801 9
-16.116104 -45.043207 16.088348 9
-18.541929 -45.075474 16.059279 9
-20.981470 -45.082292 16.028231 9
-23.429055 -45.095134 15.992618 9
-25.860377 -45.221337 15.943750 9
-28.335483 -45.197767 15.902849 9
-30.808852 -45.227042 15.853517 9
-33.300522 -45.227722 15.802279 9
-35.797489 -45.253156 15.744811 9
-38.306345 -45.278955 15.683036 9
-40.871901 -45.152451 15.629035 9
-43.529265 -44.774291 15.590501 9
-46.366532 -43.888113 15.587368 9
-49.529571 -42.091374 15.650700 9
-52.821774 -40.065375 15.726208 9
-56.245591 -37.826930 15.812184 9
-59.698772 -35.687802 15.884064 9
-63.810433 -31.912327 16.075576 8
-66.575036 -32.000765 15.962749 8
-69.391555 -31.999728 15.851717 8
-72.203880 -32.059935 15.730866 8
-75.038651 -32.112754 15.605376 8
-77.885744 -32.184681 15.473175 8
-80.777200 -32.201334 15.339742 8
-83.653697 -32.303248 15.194533 8
-86.594514 -32.310375 15.050788 8
-89.541198 -32.357522 14.898457 8
-92.502591 -32.424903 14.738940 8
-95.488419 -32.492815 14.573582 8
-98.504294 -32.551683 14.402959 8
-101.518257 -32.666486 14.222387 8
-104.576273 -32.747124 14.038128 8
-107.768348 -32.629215 13.861299 8
-116.824073 -21.846022 14.403237 8
-118.446778 -24.893773 13.991944 8
-122.170048 -24.192622 13.827608 7
-125.506070 -24.244833 13.605592 7
-128.827990 -24.379301 13.371079 7
-132.188786 -24.505831 13.129896 7
-137.576722 -21.433333 13.082982 7
-139.095326 -24.637030 12.632890 7
-142.586999 -24.733817 12.370870 7
-146.087955 -24.876991 12.098142 7
148.686901 -27.849976 13.396236 6
145.769628 -27.713511 13.668384 6
142.873695 -27.574846 13.934637 6
140.041576 -27.329395 14.202293 6
137.183905 -27.188330 14.457059 6
134.347455 -27.039331 14.706663 6
131.525600 -26.897269 14.950162 6
128.732427 -26.722876 15.190469 6
125.959089 -26.536003 15.426304 6
123.189634 -26.379366 15.654627 6
120.441750 -26.201674 15.879276 6
117.720285 -25.984211 16.101792 6
116.881789 -19.872177 16.768630 6
111.602448 -27.862346 16.353874 5
109.682159 -25.139820 16.754532 5
104.280241 -34.429776 16.212412 5
101.600156 -34.603048 16.373378 5
99.006011 -34.515574 16.550106 5
96.419081 -34.441832 16.721118 5
93.837568 -34.388687 16.885888 5
91.283067 -34.264927 17.051879 5
88.717029 -34.229683 17.206191 5
86.163030 -34.183615 17.356943 5
83.624554 -34.105776 17.505948 5
81.088059 -34.057958 17.648126 5
78.561527 -33.999425 17.786910 5
76.033537 -33.990443 17.917245 5
73.529748 -33.882754 18.051755 5
71.034210 -33.756683 18.183726 5
68.529531 -33.723779 18.303594 5
66.746912 -28.473266 18.871771 5
66.073914 -13.775457 20.263438 5
65.120809 0.906795 21.661523 5
58.395789 -35.157961 18.604573 9
55.767863 -36.780540 18.557417 9
53.166297 -38.505061 18.496094 9
50.602626 -40.216843 18.430808 9
48.078856 -41.874732 18.365349 9
45.619214 -43.043239 18.338912 9
43.207520 -43.755390 18.349058 9
40.826944 -44.091552 18.388995 9
38.465526 -44.075918 18.456886 9
36.104297 -44.092242 18.518202 9
33.744980 -44.043371 18.581772 9
31.385093 -43.997739 18.641410 9
29.024573 -43.994822 18.693514 9
26.662852 -43.948573 18.745949 9
24.300289 -43.937564 18.791532 9
21.936633 -43.937721 18.832462 9
19.569236 -43.891773 18.874015 9
17.198917 -43.846864 18.911862 9
14.828810 -43.858194 18.940901 9
12.454920 -43.854972 18.967660 9
10.079118 -43.869869 18.989114 9
7.696414 -43.847871 19.010354 9
5.306074 -43.796373 19.030696 9
2.917241 -43.808580 19.041488 9
0.524689 -43.829853 19.047784 9
-1.882781 -43.776129 19.057375 9
-4.285005 -43.809101 19.055243 9
-6.696175 -43.820726 19.051402 9
-9.111674 -43.846446 19.042546 9
-11.547221 -43.794120 19.037206 9
-13.972261 -43.848778 19.018202 9
-16.419170 -43.825715 19.002638 9
-18.860405 -43.876666 18.976436 9
-21.324228 -43.858630 18.952808 9
-23.780836 -43.918818 18.918118 9
-26.259253 -43.922786 18.884759 9
-28.746485 -43.933847 18.846853 9
-31.252823 -43.911966 18.808050 9
-33.755139 -43.951920 18.759607 9
-36.264785 -44.006634 18.705831 9
-38.809751 -43.976557 18.655781 9
-41.380821 -43.904225 18.605488 9
-44.097898 -43.397594 18.590470 9
-47.011392 -42.340222 18.620877 9
-50.249442 -40.389915 18.727055 9
-53.689937 -38.001160 18.867223 9
-57.158564 -35.725512 18.991371 9
-62.677250 -27.840301 19.610486 8
-64.709097 -30.034887 19.322874 8
-67.522587 -30.071293 19.223281 8
-70.339990 -30.146381 19.115501 8
-73.181954 -30.206715 19.004203 8
-76.057533 -30.233042 18.890982 8
-78.942674 -30.287168 18.770350 8
-81.818431 -30.412673 18.638500 8
-84.725194 -30.514406 18.503636 8
-87.623612 -30.682673 18.357926 8
-90.580161 -30.771199 18.213817 8
-93.566316 -30.847365 18.065410 8
-96.578895 -30.920302 17.911826 8
-99.619647 -30.988478 17.753091 8
-102.681056 -31.068663 17.587711 8
-105.741904 -31.202309 17.412202 8
-109.297521 -30.463146 17.301923 8
-114.843825 -26.182143 17.470334 8
-120.409042 -22.114368 17.609469 7
-123.708530 -22.237923 17.404070 7
-127.044179 -22.355395 17.192649 7
-130.423308 -22.456824 16.975831 7
-133.758315 -22.688433 16.742189 7
-137.177027 -22.839263 16.507950 7
-140.657692 -22.950321 16.269677 7
-144.129906 -23.134163 16.018738 7
-147.666915 -23.278120 15.763440 7
147.278513 -25.234308 17.057181 6
144.398409 -24.968681 17.325538 6
143.355159 -20.323870 17.941788 6
138.593427 -24.673674 17.826847 6
135.764686 -24.409565 18.078922 6
132.919172 -24.228724 18.318925 6
130.102814 -24.013075 18.556661 6
127.307228 -23.780875 18.790750 6
124.532283 -23.529127 19.021565 6
121.744586 -23.352444 19.241048 6
118.989955 -23.116954 19.460774 6
116.942899 -20.697862 19.867708 6
114.140644 -20.618007 20.065795 5
111.389701 -20.412977 20.270208 5
105.066656 -32.671454 19.348800 5
102.282727 -33.123246 19.476416 5
99.673619 -33.004482 19.650980 5
97.070415 -32.902682 19.819663 5
94.465743 -32.847660 19.979734 5
91.881231 -32.751763 20.139318 5
89.309793 -32.638529 20.296333 5
86.739564 -32.557978 20.446147 5
84.179160 -32.470708 20.592483 5
81.626831 -32.382076 20.734886 5
79.077209 -32.317956 20.870925 5
76.535811 -32.248537 21.003472 5
74.000886 -32.180480 21.131929 5
72.076925 -28.270340 21.629595 5
68.949498 -32.043160 21.377230 5
66.768916 -29.531164 21.733483 5
65.939958 -16.142232 23.158095 5
65.015499 -1.418176 24.721279 5
58.775771 -32.971638 21.702527 9
56.097579 -34.808089 21.614211 9
53.453255 -36.709905 21.514334 9
50.853594 -38.559016 21.414766 9
48.652234 -35.296993 21.824232 9
45.820222 -41.438971 21.283752 9
43.379328 -42.284333 21.271744 9
40.979323 -42.584982 21.310993 9
38.596893 -42.567161 21.378980 9
36.214877 -42.569910 21.441411 9
33.834576 -42.505380 21.507260 9
31.453268 -42.487995 21.564868 9
29.071731 -42.492647 21.616789 9
26.688941 -42.440982 21.671073 9
24.305312 -42.429373 21.717833 9
21.919562 -42.400154 21.763002 9
19.534122 -42.428704 21.798803 9
17.142168 -42.365991 21.840632 9
14.750314 -42.363644 21.872820 9
12.356416 -42.374476 21.900236 9
9.957197 -42.359514 21.926921 9
7.552340 -42.328007 21.951917 9
5.142675 -42.296962 21.973454 9
2.731503 -42.299649 21.988064 9
0.318421 -42.328275 21.996544 9
-2.101542 -42.342595 22.003072 9
-4.533769 -42.310528 22.010979 9
-6.970756 -42.293807 22.013826 9
-9.409660 -42.310157 22.009752 9
-11.847297 -42.375243 21.997113 9
-14.307610 -42.350832 21.990280 9
-16.775098 -42.334818 21.979043 9
-19.240695 -42.373642 21.958554 9
-21.723333 -42.371686 21.938734 9
-24.214534 -42.375226 21.914747 9
-26.707309 -42.416079 21.883271 9
-29.217234 -42.426778 21.851276 9
-31.737038 -42.442057 21.815132 9
-34.263764 -42.474722 21.773486 9
-36.817282 -42.451347 21.733884 9
-39.358350 -42.519637 21.681063 9
-41.994172 -42.303735 21.653633 9
-44.780976 -41.648442 21.667278 9
-47.834917 -40.227681 21.754978 9
-51.200228 -37.981299 21.922228 9
-54.719226 -35.463647 22.111873 9
-58.349608 -32.825976 22.308183 9
-64.483124 -23.336526 23.191823 8
-65.797229 -27.648715 22.673457 8
-68.602579 -27.800014 22.571634 8
-71.459113 -27.862138 22.474341 8
-74.328673 -27.940046 22.370948 8
-77.214985 -28.025115 22.262267 8
-80.103023 -28.154275 22.144582 8
-83.058294 -28.174033 22.033017 8
-86.000259 -28.276348 21.908513 8
-88.970666 -28.364885 21.780518 8
-91.971868 -28.437346 21.649158 8
-94.958135 -28.592427 21.504777 8
-97.995415 -28.691145 21.360794 8
-101.117058 -28.672654 21.222858 8
-104.198762 -28.789199 21.066676 8
-107.367855 -28.790828 20.916022 8
-111.545469 -26.972647 20.930851 8
-119.039521 -19.259178 21.488280 7
-122.340526 -19.406818 21.300930 7
-125.671512 -19.557152 21.107384 7
-129.031374 -19.713766 20.907200 7
-132.420605 -19.877332 20.700205 7
-135.734704 -20.219787 20.470817 7
-139.209901 -20.354545 20.253793 7
-142.674385 -20.565058 20.023455 7
-146.194735 -20.746667 19.789008 7
149.218180 -21.795819 20.602276 6
146.288576 -21.530879 20.864592 6
143.425890 -21.147814 21.132720 6
140.533876 -20.872209 21.385940 6
137.676406 -20.549595 21.638647 6
134.821778 -20.256698 21.883733 6
131.968434 -19.998490 22.120726 6
129.161777 -19.650927 22.361622 6
126.354246 -19.339236 22.594486 6
123.522837 -19.132427 22.812530 6
120.719026 -18.882874 23.030199 6
117.925715 -18.637854 23.242939 6
116.893257 -12.737429 24.018345 6
110.194505 -25.434929 22.919735 5
106.041046 -30.277501 22.597998 5
103.069751 -31.281801 22.658040 5
100.452868 -31.090897 22.835441 5
97.821728 -30.990096 22.999543 5
95.196556 -30.906679 23.157797 5
92.584046 -30.812438 23.313173 5
89.990626 -30.675363 23.469101 5
87.408078 -30.524934 23.622582 5
84.818018 -30.445378 23.764742 5
82.232407 -30.384336 23.901097 5
79.661974 -30.284900 24.037755 5
77.097003 -30.192541 24.169920 5
74.529580 -30.152737 24.292705 5
71.983900 -30.019206 24.421940 5
69.446200 -29.862943 24.550050 5
66.908703 -29.731899 24.671852 5
65.812406 -18.439872 26.014169 5
64.913685 -3.694311 27.741596 5
59.250206 -29.946967 24.948934 9
56.488817 -32.242527 24.787671 9
53.802093 -34.250633 24.653248 9
51.158817 -36.249157 24.515097 9
48.563484 -38.163216 24.381700 9
46.040851 -39.539563 24.304028 9
43.571717 -40.440414 24.275652 9
41.138252 -40.953155 24.287195 9
38.728657 -41.083409 24.338379 9
36.330422 -40.878272 24.424199 9
33.927611 -40.783977 24.494314 9
31.523200 -40.741704 24.555336 9
29.118071 -40.719493 24.610878 9
26.711824 -40.681866 24.664978 9
24.305790 -40.715990 24.707699 9
21.896778 -40.682979 24.754892 9
19.484540 -40.630343 24.801155 9
17.070616 -40.604942 24.841124 9
14.652222 -40.557418 24.880454 9
12.230376 -40.516260 24.915880 9
9.807755 -40.516728 24.943339 9
7.381629 -40.521002 24.967171 9
4.944268 -40.456699 24.995711 9
2.510203 -40.475314 25.011501 9
0.064212 -40.435578 25.030816 9
-2.379371 -40.462902 25.039181 9
-4.835033 -40.443982 25.049658 9
-7.292089 -40.461584 25.052686 9
-9.755987 -40.477994 25.052603 9
-12.234751 -40.449130 25.054487 9
-14.716534 -40.450634 25.049588 9
-17.206955 -40.450769 25.041553 9
-19.702999 -40.467188 25.028326 9
-22.208809 -40.480212 25.012159 9
-24.724058 -40.494018 24.992549 9
-27.251117 -40.500404 24.970418 9
-29.785596 -40.520656 24.943289 9
-32.331529 -40.539073 24.912944 9
-34.885817 -40.569759 24.877736 9
-37.455849 -40.586048 24.840698 9
-40.014589 -40.687471 24.790394 9
-42.729364 -40.293652 24.793200 9
-45.615914 -39.405545 24.848704 9
-51.061002 -30.444732 25.820286 9
-52.459337 -34.630833 25.288789 9
-56.099915 -31.886315 25.542184 9
-59.931300 -28.807100 25.828327 9
-64.345970 -24.322418 26.267821 8
-67.178343 -24.474746 26.177954 8
-70.061521 -24.535658 26.094299 8
-72.928709 -24.686809 25.996347 8
-75.843279 -24.763704 25.902526 8
-78.808450 -24.766275 25.812713 8
-81.745371 -24.889378 25.705108 8
-84.715726 -24.982824 25.596416 8
-87.684661 -25.129146 25.477425 8
-92.901350 -20.388072 25.891604 8
-93.739726 -25.311669 25.237980 8
-96.789141 -25.433373 25.107954 8
-99.868245 -25.545002 24.974293 8
-102.945533 -25.711753 24.829845 8
-106.073093 -25.830292 24.685739 8
-109.849818 -24.768144 24.663229 8
-117.945388 -15.795350 25.478278 7
-121.177480 -16.109767 25.292466 7
-124.442337 -16.413916 25.102478 7
-127.760638 -16.674368 24.911707 7
-131.071215 -16.999643 24.708648 7
-134.433247 -17.289086 24.503753 7
-137.799822 -17.623117 24.288557 7
-141.298844 -17.797111 24.083978 7
-145.066509 -17.610520 23.909949 7
-148.872975 -17.438670 23.727662 7
148.581810 -17.183388 24.591273 6
145.668478 -16.780177 24.857554 6
142.771628 -16.371797 25.119810 6
139.870118 -16.009387 25.372691 6
137.008407 -15.579739 25.628290 6
134.167051 -15.127084 25.882059 6
131.311789 -14.741784 26.124298 6
128.495168 -14.279306 26.370725 6
125.680564 -13.837578 26.610788 6
122.874718 -13.396431 26.846734 6
120.098730 -12.888318 27.086137 6
117.329334 -12.379463 27.321760 6
113.342010 -15.948862 27.094355 5
107.453037 -26.393685 26.079843 5
104.121724 -28.508580 25.996634 5
101.370286 -28.681146 26.129096 5
98.711833 -28.558744 26.291311 5
96.079621 -28.371182 26.457283 5
93.431174 -28.285988 26.607727 5
90.809265 -28.127170 26.763037 5
88.191729 -27.983644 26.912962 5
85.572318 -27.885145 27.054023 5
82.971416 -27.733139 27.197823 5
80.367705 -27.629622 27.332392 5
78.635570 -22.681639 28.039639 5
75.161444 -27.533590 27.577824 5
72.583594 -27.393108 27.706387 5
70.008697 -27.263657 27.830259 5
67.435663 -27.151989 27.948640 5
65.689039 -20.686747 28.832377 5
64.811517 -5.954780 30.720743 5
59.808945 -26.189417 28.360276 9
56.976550 -28.744746 28.140159 9
54.209804 -31.171910 27.930705 9
51.500653 -33.517349 27.726459 9
48.858985 -35.601101 27.549747 9
46.282529 -37.328365 27.412600 9
43.784381 -38.238522 27.372352 9
41.318428 -38.852415 27.365228 9
38.888166 -38.787313 27.439021 9
36.458189 -38.710274 27.511301 9
34.026972 -38.677383 27.575097 9
31.595613 -38.622062 27.638701 9
29.163119 -38.558353 27.700381 9
26.729536 -38.532835 27.754314 9
24.293478 -38.463248 27.810803 9
21.856025 -38.429886 27.859791 9
19.417250 -38.420526 27.902800 9
16.974726 -38.385304 27.946101 9
14.529688 -38.362247 27.984914 9
12.081752 -38.347273 28.019748 9
9.629572 -38.326602 28.052341 9
7.172773 -38.302730 28.082377 9
4.221293 -33.491331 28.715230 9
2.247046 -38.280034 28.130379 9
-0.222070 -38.283031 28.148099 9
-2.700644 -38.257137 28.166495 9
-5.183811 -38.246016 28.180026 9
-7.674219 -38.232332 28.190878 9
-10.166460 -38.253052 28.194352 9
-12.670342 -38.247586 28.198120 9
-15.180772 -38.251046 28.197715 9
-17.700797 -38.248598 28.195002 9
-20.223174 -38.279639 28.184970 9
-22.765514 -38.258198 28.178502 9
-25.315016 -38.251680 28.167030 9
-27.861991 -38.302311 28.145186 9
-30.439919 -38.266148 28.131183 9
-33.010172 -38.309570 28.103926 9
-35.599889 -38.321509 28.077452 9
-38.215104 -38.285334 28.053827 9
-40.824447 -38.319484 28.018056 9
-43.606875 -37.806626 28.047954 9
-46.689010 -36.387295 28.188503 9
-50.148306 -33.907744 28.458533 9
-54.016814 -30.375479 28.856446 9
-58.093247 -26.495559 29.293104 9
-64.701383 -15.575875 30.605756 8
-65.132288 -22.712631 29.653780 8
-68.059147 -22.680192 29.595373 8
-70.979329 -22.719994 29.524124 8
-73.938386 -22.710670 29.455113 8
-76.917569 -22.705015 29.381702 8
-79.902493 -22.739590 29.299317 8
-82.937275 -22.708582 29.220986 8
-85.978216 -22.719730 29.133330 8
-89.066253 -22.679688 29.047778 8
-92.184706 -22.630707 28.959040 8
-95.299836 -22.647395 28.857933 8
-98.470685 -22.603819 28.759768 8
-101.641011 -22.620554 28.649784 8
-104.858521 -22.600511 28.539699 8
-108.993121 -20.861332 28.631807 8
-141.812607 -5.823988 29.423537 7
-144.611909 -7.343719 29.079379 7
-147.636014 -8.510626 28.771918 7
110.268805 -17.714453 30.260368 5
105.548748 -24.421895 29.573602 5
102.534669 -25.378449 29.600204 5
99.840342 -25.231583 29.761685 5
97.156942 -25.080165 29.920247 5
94.486535 -24.912702 30.077406 5
91.809129 -24.811895 30.222637 5
89.166916 -24.592069 30.379752 5
86.529755 -24.377631 30.532907 5
83.888256 -24.213976 30.676253 5
81.266185 -23.980854 30.825376 5
78.635778 -23.818780 30.962084 5
76.001023 -23.713757 31.088146 5
73.379776 -23.561336 31.217223 5
70.749148 -23.501813 31.330942 5
68.143996 -23.301989 31.459996 5
65.864430 -20.618253 31.914699 5
64.712443 -8.171413 33.663614 5
57.621118 -23.731047 31.782143 9
54.727852 -26.919202 31.442817 9
51.940544 -29.616086 31.164270 9
49.212379 -32.267419 30.887211 9
46.574393 -34.342072 30.683284 9
44.029076 -35.462553 30.603994 9
41.531612 -36.019704 30.597375 9
39.060406 -36.159609 30.644132 9
36.599218 -36.041430 30.723017 9
34.135584 -35.997758 30.789033 9
31.671552 -35.947919 30.853120 9
29.206464 -35.884256 30.916334 9
26.740823 -35.894777 30.966676 9
24.272254 -35.815163 31.026574 9
21.800373 -35.722580 31.085522 9
19.326610 -35.667869 31.136560 9
16.852488 -35.667153 31.177458 9
14.369610 -35.570497 31.228793 9
11.892133 -35.615454 31.257937 9
9.399984 -35.515599 31.304260 9
6.909874 -35.501749 31.336015 9
4.413184 -35.469625 31.367548 9
1.914717 -35.470892 31.391731 9
-0.595976 -35.415569 31.420973 9
-3.106329 -35.415204 31.439874 9
-5.623880 -35.408416 31.456897 9
-8.152521 -35.373853 31.474987 9
-10.684351 -35.368580 31.486246 9
-13.222687 -35.370948 31.493655 9
-15.772957 -35.352419 31.501149 9
-18.327418 -35.359370 31.502299 9
-20.895716 -35.342515 31.503909 9
-23.464943 -35.368790 31.496702 9
-26.045671 -35.386830 31.487769 9
-28.644409 -35.371819 31.480521 9
-31.249239 -35.379465 31.467234 9
-33.862395 -35.400277 31.449202 9
-36.492243 -35.402861 31.430739 9
-39.117704 -35.468730 31.400569 9
-41.811893 -35.334272 31.395034 9
-44.766499 -34.368811 31.500950 9
-48.058264 -32.407660 31.740663 9
-52.116576 -28.186610 32.287605 9
-56.532361 -23.189772 32.936787 9
-64.700108 -7.374878 35.065963 8
-64.691352 -16.214743 33.806750 8
-67.076322 -17.868483 33.530935 8
-70.011997 -17.981065 33.462932 8
-72.957760 -18.114417 33.388597 8
-75.906224 -18.287578 33.305307 8
-78.877519 -18.448860 33.220078 8
-81.884147 -18.570690 33.136599 8
-84.899328 -18.721276 33.045548 8
-87.923160 -18.899954 32.946986 8
-90.969154 -19.076083 32.845020 8
-94.019266 -19.291061 32.734018 8
-97.103615 -19.479618 32.622731 8
-100.213278 -19.663998 32.508093 8
-103.345911 -19.851048 32.389123 8
-107.255364 -18.549541 32.464598 8
105.056894 -17.096182 33.843603 5
102.267762 -16.953476 34.003265 5
99.555926 -16.543691 34.196650 5
96.841714 -16.161886 34.383130 5
94.137914 -15.753937 34.570256 5
91.438915 -15.339337 34.755363 5
88.745906 -14.909018 34.939764 5
86.055480 -14.475093 35.121797 5
83.369912 -14.022374 35.303640 5
80.681976 -13.585098 35.480484 5
78.007270 -13.071369 35.665400 5
75.325092 -12.593179 35.842528 5
72.645684 -12.086172 36.021044 5
69.973118 -11.511854 36.206516 5
67.301556 -10.896075 36.395314 5
64.700972 -9.645734 36.672932 5
60.798673 6.232783 39.157695 9
55.264262 -22.517097 35.081981 9
52.500983 -24.291400 34.906214 9
49.656316 -27.724244 34.485078 9
46.936317 -30.278480 34.187450 9
44.318086 -31.892963 34.023113 9
41.771470 -32.621733 33.984993 9
39.261438 -32.729560 34.034984 9
36.757551 -32.721911 34.099298 9
34.255383 -32.643588 34.171437 9
31.752439 -32.494883 34.251417 9
29.247198 -32.456787 34.312572 9
26.739942 -32.363912 34.379291 9
24.231038 -32.313662 34.437192 9
21.719364 -32.250374 34.494508 9
19.203327 -32.156676 34.553828 9
16.684546 -32.087533 34.607005 9
14.165324 -32.075096 34.649247 9
11.639260 -32.015533 34.695986 9
9.110165 -31.976908 34.737102 9
6.577180 -31.948284 34.774217 9
4.039126 -31.919825 34.808793 9
1.493428 -31.872683 34.843643 9
-1.055988 -31.847393 34.872711 9
-3.613555 -31.809033 34.901207 9
-6.174254 -31.799135 34.922916 9
-8.747508 -31.753146 34.947485 9
-11.326528 -31.722772 34.967171 9
-13.898406 -31.783506 34.970655 9
-16.489071 -31.780109 34.981173 9
-19.090277 -31.768322 34.990368 9
-21.699493 -31.764509 34.995776 9
-24.326221 -31.725047 35.003921 9
-26.953837 -31.732211 35.002456 9
-29.585256 -31.769604 34.993824 9
-32.239212 -31.758212 34.989848 9
-34.894785 -31.789086 34.976865 9
-37.571752 -31.784051 34.966569 9
-40.279753 -31.713930 34.963301 9
-43.152167 -31.117058 35.036111 9
-46.338091 -29.544109 35.252062 9
-50.611938 -24.553070 35.975909 9
-54.223412 -22.051302 36.324083 9
-60.287760 -12.226975 37.761942 9
62.488360 -6.178308 40.520468 9
58.993103 -13.060303 39.536383 9
55.464516 -21.819956 38.251689 9
52.678838 -23.682531 38.039977 9
50.011659 -24.463875 37.994420 9
47.240581 -27.193116 37.639598 9
44.538008 -29.683887 37.318418 9
41.989035 -29.802259 37.367893 9
39.448445 -29.793717 37.434991 9
36.908518 -29.807145 37.496253 9
34.369755 -29.820378 37.555190 9
31.831849 -29.800245 37.617081 9
29.293385 -29.748135 37.681738 9
26.754925 -29.795620 37.728247 9
24.216583 -29.847542 37.771721 9
21.675235 -29.822081 37.825223 9
19.131875 -29.803517 37.875340 9
16.586455 -29.795758 37.921448 9
14.040512 -29.825280 37.959308 9
11.490334 -29.832708 37.998419 9
8.933009 -29.796297 38.042282 9
6.374728 -29.801731 38.077164 9
3.813664 -29.823781 38.107100 9
1.244685 -29.816548 38.139464 9
-1.328653 -29.820124 38.167814 9
-3.902321 -29.866256 38.187035 9
-6.495082 -29.817147 38.219304 9
-9.080323 -29.870057 38.232855 9
-11.686263 -29.834687 38.258337 9
-14.298045 -29.815855 38.278858 9
-16.913922 -29.823258 38.292841 9
-19.541705 -29.814685 38.307086 9
-22.177058 -29.816596 38.317312 9
-24.815341 -29.851867 38.319814 9
-27.481333 -29.806703 38.332954 9
-30.143761 -29.828694 38.332887 9
-32.826376 -29.813650 38.336422 9
-35.515758 -29.821393 38.333884 9
-38.224544 -29.803360 38.333097 9
-40.943108 -29.799806 38.327543 9
-43.694617 -29.729589 38.330300 9
-47.177034 -27.230371 38.722599 9
-50.183204 -26.516020 38.824178 9
-54.269336 -22.476857 39.459345 9
55.771689 -19.980531 41.639871 9
52.811795 -23.628598 41.105104 9
49.967818 -26.717709 40.660154 9
47.349893 -27.237863 40.644603 9
44.641763 -29.685874 40.300938 9
42.086924 -29.773161 40.353272 9
39.538736 -29.768695 40.418995 9
36.991203 -29.790167 40.478220 9
34.445410 -29.783568 40.540119 9
31.899876 -29.791332 40.597504 9
29.354295 -29.758512 40.659735 9
26.808579 -29.791291 40.708738 9
24.260897 -29.754565 40.767553 9
21.713565 -29.789325 40.812125 9
19.163377 -29.785156 40.861317 9
16.611236 -29.788752 40.907157 9
14.053144 -29.740659 40.959843 9
11.495713 -29.758420 40.999228 9
8.936056 -29.789513 41.034308 9
6.366695 -29.754061 41.078814 9
3.797608 -29.773114 41.111945 9
1.221784 -29.774194 41.146163 9
-1.360665 -29.766468 41.179893 9
-3.952208 -29.736864 41.215393 9
-6.541715 -29.771799 41.237755 9
-9.143214 -29.769506 41.264528 9
-11.751678 -29.770980 41.288637 9
-14.369716 -29.763295 41.312310 9
-16.988584 -29.798843 41.326485 9
-19.625208 -29.785328 41.347112 9
-22.275604 -29.752388 41.369063 9
-24.929464 -29.753890 41.383010 9
-27.594710 -29.751900 41.395505 9
-30.268353 -29.762086 41.403824 9
-32.952762 -29.775420 41.409518 9
-35.653920 -29.770100 41.416353 9
-38.362908 -29.784339 41.417694 9
-41.096260 -29.757674 41.424003 9
-43.899894 -29.535246 41.462094 9
-47.324509 -27.272761 41.851475 9
-50.921674 -24.652201 42.300631 9
50.594682 -19.819224 44.931765 9
47.699668 -23.511939 44.339103 9
44.989111 -25.175179 44.108618 9
42.369265 -25.572677 44.103999 9
39.777699 -25.427761 44.195407 9
37.184574 -25.288600 44.283980 9
34.590302 -25.107388 44.378392 9
31.992827 -24.954421 44.465919 9
29.392333 -24.792043 44.553393 9
26.787821 -24.602585 44.644043 9
24.180383 -24.483565 44.720127 9
21.567426 -24.311550 44.804117 9
18.952091 -24.204906 44.874441 9
16.330534 -24.064752 44.949137 9
13.703881 -23.931990 45.020743 9
11.072432 -23.814350 45.087844 9
8.435342 -23.702125 45.152214 9
5.789122 -23.561195 45.220108 9
3.141318 -23.478240 45.275630 9
0.485395 -23.384253 45.331431 9
-2.182860 -23.251541 45.392607 9
-4.857344 -23.138806 45.448371 9
-7.543061 -23.010239 45.505307 9
-10.236059 -22.898340 45.557428 9
-12.935488 -22.808508 45.603731 9
-15.636486 -22.768210 45.639137 9
-18.371903 -22.591846 45.697876 9
-21.098253 -22.529824 45.733748 9
-23.841181 -22.441023 45.772783 9
-26.583274 -22.413822 45.798647 9
-29.346581 -22.343310 45.830713 9
-32.118880 -22.290099 45.857773 9
-34.913734 -22.198639 45.890087 9
-37.712143 -22.150848 45.912496 9
-40.511393 -22.154147 45.923606 9
-43.383277 -21.943361 45.972487 9
-46.834569 -19.765971 46.383608 9
58.245301 139.227837 78.596007 3
54.019942 139.200710 78.700276 3
49.799834 139.193296 78.805702 3
45.582712 139.179143 78.907235 3
41.369156 139.204346 79.013766 3
37.156154 139.196498 79.111385 3
32.944185 139.206714 79.209954 3
28.732109 139.200904 79.302915 3
62.668487 139.196422 83.448667 3
58.426226 139.165435 83.551794 3
54.193806 139.218119 83.669730 3
49.960464 139.186881 83.768436 3
45.732326 139.197950 83.873605 3
41.505589 139.180592 83.970851 3
37.281747 139.227173 84.079048 3
33.057250 139.177554 84.165502 3
62.865891 139.189677 88.440664 3
58.617305 139.247202 88.559720 3
54.367571 139.219191 88.658680 3
50.123262 139.212307 88.760457 3
45.882546 139.214364 88.862463 3
41.643228 139.180257 88.954996 3
37.406866 139.190373 89.055406 3
33.171102 139.197352 89.153506 3
67.335591 139.199067 93.354940 3
63.065744 139.202893 93.461067 3
58.800604 139.195246 93.563299 3
54.539181 139.166376 93.659439 3
50.284582 139.187861 93.765730 3
46.032449 139.201464 93.869004 3
41.781511 139.179239 93.962923 3
37.533152 139.190069 94.063152 3
71.838990 139.224255 98.304272 3
67.547234 139.192903 98.399705 3
63.265260 139.198187 98.502981 3
58.987439 139.183310 98.600625 3
54.716722 139.204592 98.706062 3
50.448120 139.194174 98.803154 3
46.182556 139.173390 98.896991 3
41.921250 139.207092 99.003081 3
76.263343 138.186994 103.023800 0
72.064000 139.216669 103.379604 3
67.760520 139.192737 103.472766 3
63.465668 139.191230 103.571130 3
59.179000 139.227753 103.678628 3
54.892935 139.202065 103.770243 3
50.610540 139.157509 103.856796 3
46.335654 139.205816 103.966281 3
42.060386 139.183671 104.057834 3
76.343172 136.695803 107.732634 0
72.045215 136.674953 107.821894 0
67.759514 136.706773 107.924977 0
63.667353 139.186354 108.668037 3
59.366831 139.199867 108.767104 3
55.072317 139.238056 108.872767 3
50.777571 139.200448 108.958728 3
46.488157 139.198407 109.054164 3
80.789617 135.760583 112.497770 0
76.582841 136.696873 112.842738 0
72.277233 136.726708 112.941282 0
67.972557 136.689967 113.022213 0
63.676709 136.673610 113.109272 0
59.390673 136.713569 113.212317 0
55.247643 139.184384 113.981419 3
50.943071 139.189720 114.076768 3
46.641751 139.196447 114.173141 3
86.330003 143.241664 119.675511 0
81.157055 136.729219 117.908121 0
76.829280 136.747065 117.998226 0
72.505600 136.726300 118.078370 0
68.188922 136.696231 118.156898 0
63.882376 136.704183 118.247318 0
59.576668 136.641740 118.318716 0
55.284241 136.702422 118.426353 0
50.991216 136.689211 118.513990 0
85.756425 136.669865 122.991355 0
81.411497 136.721318 123.085209 0
77.070271 136.732234 123.168569 0
72.735695 136.728613 123.249142 0
68.408648 136.724890 123.331222 0
64.088614 136.725059 123.416007 0
59.774937 136.733340 123.504768 0
55.464242 136.709884 123.585659 0
51.117228 135.831806 123.413486 0
90.282128 135.821835 127.877484 0
86.034354 136.731163 128.229053 0
81.671400 136.745017 128.306466 0
77.317227 136.757434 128.385460 0
72.968131 136.739064 128.456971 0
68.629684 136.751660 128.540089 0
64.295160 136.732261 128.615359 0
59.967262 136.718276 128.694356 0
55.646509 136.735593 128.785118 0
90.690820 136.707885 133.412367 0
86.309481 136.755841 133.492818 0
81.935173 136.785861 133.570052 0
77.562264 136.749368 133.628466 0
73.199609 136.723610 133.692853 0
68.845964 136.707829 133.762983 0
64.503590 136.745137 133.852737 0
60.162238 136.722437 133.925751 0
55.775645 135.836461 133.723286 0
95.248867 135.775517 138.345762 0
90.984790 136.756665 138.728312 0
86.587930 136.790664 138.798576 0
82.191105 136.745618 138.845547 0
77.805515 136.709064 138.898384 0
73.437850 136.759178 138.983180 0
69.071019 136.744592 139.049450 0
64.712021 136.739081 139.121809 0
60.322310 136.203437 139.020074 0
101.284153 143.820916 146.413117 0
95.696613 136.734872 144.011763 0
91.276513 136.773874 144.074376 0
86.860053 136.761289 144.122744 0
82.452394 136.733900 144.169563 0
78.057863 136.734574 144.229655 0
73.671044 136.726636 144.290341 0
69.298114 136.785154 144.377609 0
64.919432 136.700859 144.419006 0
100.450818 136.721313 149.357021 0
96.008225 136.777833 149.415425 0
91.560327 136.719483 149.436827 0
87.136605 136.749500 149.493984 0
82.724730 136.796346 149.561287 0
78.314546 136.781341 149.610536 0
73.912571 136.758763 149.661168 0
69.519500 136.743257 149.718434 0
65.050721 135.697838 149.410171 0
105.083283 135.762850 154.414980 0
100.773221 136.728339 154.798737 0
96.319086 136.799437 154.855773 0
91.862361 136.776620 154.882671 0
87.421040 136.780384 154.924082 0
82.991457 136.794826 154.974106 0
78.567417 136.775468 155.016235 0
74.153208 136.762909 155.065523 0
69.739821 136.670367 155.089743 0
105.588919 136.725582 160.264546 0
101.114010 136.830726 160.322698 0
96.625166 136.773113 160.323694 0
92.155751 136.755949 160.345425 0
87.704691 136.787518 160.391060 0
83.259028 136.782078 160.427701 0
78.821467 136.761372 160.463672 0
74.393635 136.745389 160.506636 0
110.276892 135.794226 165.432115 0
105.929679 136.725124 165.804751 0
101.439476 136.822505 165.852905 0
96.939821 136.785128 165.853467 0
92.453671 136.749135 165.860367 0
87.988082 136.774433 165.897338 0
83.528784 136.768364 165.927631 0
79.073444 136.709619 165.942776 0
74.533682 135.730706 165.598569 0
115.940610 139.664786 172.615160 0
110.806969 136.716393 171.396379 0
106.290245 136.819556 171.433347 0
101.777778 136.874073 171.456820 0
97.256794 136.793974 171.431579 0
92.762680 136.800457 171.448148 0
88.287493 136.861639 171.493458 0
83.801142 136.756286 171.476902 0
79.334621 136.719159 171.494584 0
115.724578 136.671317 177.049331 0
111.177374 136.763540 177.066869 0
106.629614 136.775746 177.057638 0
102.100133 136.811335 177.065296 0
97.576009 136.798471 177.059461 0
93.073277 136.843130 177.084880 0
88.564868 136.765467 177.065536 0
84.071089 136.704830 177.060280 0
79.533388 136.161770 176.857991 0
120.488211 135.662843 182.362313 0
116.122782 136.764009 182.803462 0
111.545770 136.781370 182.779720 0
107.003656 136.908321 182.811391 0
102.439310 136.830657 182.761495 0
97.913276 136.898611 182.782633 0
93.372909 136.790770 182.734706 0
88.855083 136.744446 182.721097 0
84.247491 135.887169 182.361542 0
121.104281 136.697309 188.594342 0
116.517417 136.819427 188.599572 0
111.929562 136.861262 188.577024 0
107.340262 136.811382 188.521534 0
102.788536 136.889892 188.531944 0
98.225943 136.821890 188.484722 0
93.678997 136.762340 188.449441 0
89.147431 136.718255 188.429213 0
125.998928 136.013588 194.186672 0
121.526091 136.788044 194.476007 0
116.907558 136.832724 194.436206 0
112.307520 136.890236 194.411284 0
107.697787 136.811722 194.332289 0
103.115197 136.794938 194.290715 0
98.543484 136.755962 194.247669 0
93.983638 136.703245 194.207022 0
89.334289 135.902379 193.828977 0
126.589466 136.767680 200.449374 0
121.940590 136.823925 200.395048 0
117.311268 136.892976 200.356468 0
112.685957 136.901160 200.298447 0
108.067371 136.858173 200.225571 0
103.460575 136.789996 200.150176 0
98.874731 136.755289 200.100156 0
94.212557 136.113440 199.770340 0
127.052586 136.928624 206.505397 0
122.373906 136.926938 206.411529 0
117.711427 136.914509 206.322711 0
113.072278 136.931966 206.258802 0
108.436767 136.881819 206.171916 0
103.812640 136.802531 206.080870 0
99.201857 136.706734 205.991807 0
127.882599 138.690533 213.440983 0
122.797373 136.962063 212.462641 0
118.108433 136.898969 212.336674 0
113.451494 136.903991 212.256009 0
108.814853 136.930799 212.197167 0
104.157174 136.748603 212.043698 0
99.429747 136.018926 211.624987 0
118.429379 136.490545 218.214739 0
113.850482 136.955612 218.361956 0
109.102876 136.465177 218.025023 0
-145.696039 27.121412 2.125523 7
-139.766055 27.113680 0.573702 7
-133.977447 27.101567 -0.952524 7
-128.393925 27.029398 -2.408022 7
-122.987145 26.912652 -3.807579 7
-110.268755 33.015854 -10.256976 8
-104.474999 33.551998 -12.107885 8
-99.877201 33.162537 -13.192309 8
-95.492451 32.661153 -14.175987 8
-91.072956 32.263159 -15.231458 8
-86.844372 31.763002 -16.196442 8
-82.657046 31.293235 -17.176258 8
-78.581833 30.784749 -18.117597 8
-74.695931 30.156526 -18.959734 8
-70.697797 29.702080 -19.927732 8
-66.944049 29.063794 -20.749964 8
-63.191774 28.482448 -21.609733 8
-55.362406 32.322290 -25.736508 9
-49.375536 34.393041 -28.507889 9
-44.427445 35.472948 -30.522496 9
-40.759157 35.220676 -31.551319 9
-37.461168 34.605360 -32.312587 9
-34.291266 33.889190 -32.999327 9
-31.201699 33.121835 -33.648574 9
-28.108816 32.401874 -34.330484 9
-25.046926 31.687434 -35.015426 9
-22.049404 30.934218 -35.673013 9
-19.093650 30.167953 -36.321714 9
-15.808627 29.886047 -37.299533 9
-12.375764 29.869031 -38.451152 9
-8.986244 29.863529 -39.603358 9
-5.692569 29.792668 -40.705304 9
-2.639627 29.437016 -41.614030 9
0.069267 28.620130 -42.219177 9
2.711336 27.734938 -42.782399 9
5.319059 26.826544 -43.333886 9
7.914876 25.928237 -43.895371 9
10.482462 25.012714 -44.449622 9
12.998667 24.038640 -44.971173 9
15.507048 23.075798 -45.504445 9
17.932743 21.991833 -45.967842 9
20.389016 20.981599 -46.482475 9
22.778408 19.869114 -46.940675 9
25.168635 18.774268 -47.416220 9
27.518562 17.617473 -47.861522 9
29.835820 16.408314 -48.283314 9
32.130977 15.163509 -48.692316 9
34.390451 13.850952 -49.070515 9
36.620260 12.477457 -49.422971 9
38.839041 11.078631 -49.771071 9
41.025558 9.603480 -50.086401 9
43.164944 8.010289 -50.346757 9
45.153734 6.040020 -50.409634 9
46.995680 3.669024 -50.267569 9
48.664538 0.795338 -49.870648 9
50.173311 -2.591633 -49.220491 9
51.460646 -6.703427 -48.210805 9
52.414807 -11.916981 -46.651163 9
52.633041 -19.490623 -43.892660 9
-142.132932 26.463488 6.745552 7
-135.938613 26.682916 4.928997 7
-129.823413 26.956505 3.093283 7
-124.022308 27.091188 1.401837 7
-109.971826 34.213483 -6.126468 8
-104.130891 34.747536 -8.054693 8
-99.442403 34.399859 -9.228694 8
-94.833594 34.062518 -10.397128 8
-90.271878 33.762591 -11.582399 8
-85.909172 33.359033 -12.670867 8
-81.653195 32.929470 -13.727127 8
-77.560205 32.415351 -14.705873 8
-73.434423 32.001183 -15.754155 8
-69.435562 31.530470 -16.748637 8
-65.546638 31.014526 -17.699606 8
-59.096373 33.241430 -20.745755 9
-52.619705 35.674867 -23.908232 9
-46.719403 37.665373 -26.694206 9
-42.438301 38.018829 -28.218865 9
-38.968322 37.544944 -29.113420 9
-35.731588 36.858768 -29.846027 9
-32.500171 36.214877 -30.606774 9
-29.353406 35.518210 -31.326314 9
-26.223335 34.847641 -32.062574 9
-23.152459 34.149511 -32.777105 9
-20.167316 33.386122 -33.443965 9
-17.204937 32.634628 -34.118691 9
-14.248502 31.916961 -34.816608 9
-11.362502 31.145053 -35.476535 9
-8.510894 30.364513 -36.130873 9
-5.438535 29.940479 -37.028308 9
-2.142563 29.899818 -38.181377 9
1.101356 29.852057 -39.322801 9
4.300063 29.805124 -40.458238 9
7.360670 29.610744 -41.490300 9
9.987289 28.779838 -42.102111 9
12.548161 27.872951 -42.667199 9
15.104316 26.986473 -43.248898 9
17.627995 26.072742 -43.816677 9
20.114252 25.119866 -44.363613 9
22.578366 24.151557 -44.905354 9
25.001433 23.130458 -45.419065 9
27.410844 22.103731 -45.934810 9
29.797267 21.051715 -46.440802 9
32.152401 19.954836 -46.925705 9
34.487812 18.832403 -47.401966 9
36.773911 17.619024 -47.831109 9
39.063312 16.420503 -48.277233 9
41.320276 15.157687 -48.693832 9
43.524617 13.778245 -49.051576 9
45.579937 12.044859 -49.215522 9
47.531330 10.035582 -49.235686 9
49.341431 7.632971 -49.049742 9
51.017839 4.821436 -48.654873 9
52.562535 1.569421 -48.039654 9
53.984622 -2.138354 -47.202240 9
55.231458 -6.491666 -46.045630 9
56.207778 -11.827392 -44.396786 9
56.255995 -20.208997 -41.161834 9
-147.311717 23.695040 14.946722 7
-147.725859 18.628587 17.694640 7
-132.781371 25.686466 9.745864 7
-126.349745 26.235365 7.596297 7
-111.085371 34.245883 -0.960611 8
-104.375396 35.449179 -3.551149 8
-102.443151 32.668645 -2.722010 8
-94.678780 35.021072 -6.230655 8
-89.928321 34.850808 -7.581015 8
-85.420514 34.544402 -8.801799 8
-81.013400 34.223530 -9.996352 8
-76.714008 33.877568 -11.156953 8
-72.500871 33.523101 -12.298095 8
-68.459591 33.071156 -13.349293 8
-64.393981 32.713353 -14.465148 8
-56.663945 36.251172 -18.638159 9
-50.161808 38.716625 -21.913379 9
-44.894719 40.026607 -24.248031 9
-40.875362 40.087635 -25.592975 9
-37.425187 39.585630 -26.495100 9
-34.115947 38.978130 -27.311259 9
-30.856149 38.364638 -28.118389 9
-27.677357 37.704726 -28.886852 9
-24.538652 37.044114 -29.651556 9
-21.395827 36.436834 -30.452382 9
-18.407615 35.679876 -31.141236 9
-15.368700 35.032356 -31.907726 9
-12.405150 34.330080 -32.632866 9
-9.515554 33.569695 -33.315495 9
-6.661407 32.799978 -33.991169 9
-3.841324 32.020820 -34.660213 9
-1.007196 31.301006 -35.370627 9
1.773852 30.542052 -36.054039 9
4.608629 29.904462 -36.820622 9
7.795791 29.866518 -37.991628 9
10.962604 29.867123 -39.181542 9
14.056714 29.820376 -40.332935 9
17.077756 29.720151 -41.442812 9
19.613561 28.845905 -42.041270 9
22.123112 27.954091 -42.631439 9
24.605645 27.040835 -43.211288 9
27.077378 26.133633 -43.798871 9
29.515398 25.187986 -44.366117 9
31.903638 24.168279 -44.891463 9
34.282817 23.149630 -45.422959 9
36.636621 22.097400 -45.939379 9
38.983959 21.048013 -46.463681 9
41.286379 19.916918 -46.944694 9
43.550834 18.711947 -47.388539 9
45.673576 17.187101 -47.649827 9
47.707678 15.439871 -47.791225 9
49.602825 13.327754 -47.732741 9
51.370330 10.846474 -47.477556 9
53.053668 8.075086 -47.076900 9
54.669811 5.032467 -46.546025 9
56.234702 1.737592 -45.899841 9
57.687913 -2.004180 -45.033060 9
58.980349 -6.379323 -43.848820 9
60.026919 -11.707374 -42.180665 9
-141.348835 20.005449 20.549906 7
-131.484461 23.135025 15.941522 7
-123.908513 24.619969 12.870363 7
-117.694290 25.128313 10.708198 7
-100.079048 35.589256 -0.105724 8
-95.027078 35.543086 -1.648887 8
-90.085956 35.493345 -3.167474 8
-85.403717 35.300354 -4.543619 8
-80.841629 35.081516 -5.880222 8
-76.341095 34.888052 -7.221399 8
-71.986272 34.636228 -8.497876 8
-67.789385 34.307069 -9.695930 8
-63.690190 33.954146 -10.861458 8
-54.747087 38.717703 -16.152792 9
-48.208377 41.215831 -19.547111 9
-43.366767 42.062392 -21.579223 9
-39.501013 41.945274 -22.825279 9
-36.115912 41.359631 -23.692126 9
-32.767297 40.786750 -24.562784 9
-29.437376 40.246533 -25.452719 9
-26.170583 39.685458 -26.320825 9
-22.991498 39.069849 -27.142352 9
-19.842335 38.467154 -27.969325 9
-16.738476 37.856592 -28.786354 9
-13.748400 37.145551 -29.525453 9
-10.759079 36.477942 -30.294240 9
-7.807689 35.803841 -31.055923 9
-4.879012 35.142640 -31.824887 9
-2.034366 34.405207 -32.537412 9
0.768499 33.647025 -33.234466 9
3.533557 32.871168 -33.918820 9
6.273641 32.094774 -34.602985 9
9.021878 31.368770 -35.322470 9
11.723117 30.606100 -36.016854 9
14.492271 29.993144 -36.813951 9
17.531701 29.882933 -37.950002 9
20.588292 29.870717 -39.145657 9
23.570155 29.798002 -40.294232 9
26.529424 29.753399 -41.455401 9
28.996671 28.857702 -42.054235 9
31.439327 27.941407 -42.643210 9
33.882276 27.050807 -43.252596 9
