ply
format ascii 1.0
element vertex 1379
property float x
property float y
property float z
property int scalar_Label
end_header
-99.470304 -0.374787 -37.976558 8
-95.681249 -3.232701 -37.858470 8
-92.180120 -6.354808 -37.450049 8
-88.987501 -9.781874 -36.715744 8
-86.305363 -13.741034 -35.417787 8
-84.521235 -18.672451 -33.097305 8
-81.695479 -22.589541 -31.913393 8
-149.803213 21.587702 -22.413652 7
-144.366435 19.521251 -23.483972 7
-139.101796 17.396049 -24.447249 7
-133.633518 15.494620 -25.663704 7
-128.333754 13.534847 -26.774667 7
-123.251399 11.468829 -27.725616 7
-118.388850 9.283122 -28.506331 7
-107.822076 12.013190 -35.186086 8
-102.587958 10.382056 -36.526024 8
-98.130476 8.132800 -37.107949 8
-93.842177 5.772909 -37.548276 8
-89.711028 3.303105 -37.852985 8
-85.779353 0.672465 -37.968813 8
-82.030719 -2.116569 -37.904995 8
-78.475634 -5.087841 -37.640979 8
-75.199033 -8.343783 -37.069956 8
-72.315301 -12.027357 -36.044890 8
-70.077599 -16.445034 -34.246907 8
-59.209809 -11.347993 -42.725276 9
-51.307655 -9.227245 -47.874676 9
-46.461935 -10.423604 -49.431338 9
-43.102172 -13.316216 -49.192226 9
-40.467321 -17.103353 -48.038819 9
-38.342324 -21.583232 -46.204474 9
-37.290491 -27.533541 -42.918839 9
-34.423370 -31.249960 -41.951851 9
-146.704760 25.396350 -18.871605 7
-140.652366 23.778481 -20.582300 7
-134.919922 22.014869 -22.053747 7
-129.496103 20.098448 -23.286192 7
-124.528392 17.897164 -24.120203 7
-119.215614 16.033145 -25.355680 7
-109.071307 18.241839 -31.643634 8
-103.015605 17.254759 -33.843553 8
-98.211009 15.290433 -34.799344 8
-93.604595 13.209212 -35.591413 8
-89.084905 11.101033 -36.333267 8
-84.738133 8.880525 -36.926283 8
-80.499193 6.599042 -37.435956 8
-76.463357 4.156186 -37.749298 8
-72.530561 1.638381 -37.972114 8
-68.810180 -1.074516 -37.971513 8
-60.452012 1.121491 -43.488939 9
-53.515204 2.035176 -47.474151 9
-47.739778 1.849784 -50.174728 9
-43.608277 -0.072422 -50.933367 9
-40.126112 -2.708539 -50.911786 9
-36.815555 -5.544245 -50.683213 9
-33.657220 -8.572102 -50.262100 9
-30.686400 -11.851922 -49.591827 9
-27.963894 -15.481884 -48.578067 9
-25.605730 -19.642489 -47.045323 9
-23.905977 -24.773250 -44.560519 9
-22.460128 -30.386574 -41.643634 9
-151.144036 29.883579 -12.244532 7
-144.443791 28.601150 -14.551382 7
-138.050003 27.211663 -16.645971 7
-131.930639 25.724899 -18.550239 7
-126.106428 24.112113 -20.233946 7
-120.522218 22.401932 -21.743368 7
-114.951392 20.764483 -23.305856 8
-103.242288 24.267930 -31.410007 8
-99.422673 21.449851 -31.324384 8
-94.452028 19.646123 -32.507148 8
-89.642029 17.767690 -33.568808 8
-84.970358 15.825786 -34.527858 8
-80.436628 13.812809 -35.379154 8
-76.036182 11.724883 -36.122224 8
-71.746684 9.575458 -36.777156 8
-67.628942 7.296377 -37.267384 8
-58.861649 9.829731 -43.341772 9
-52.102882 10.521699 -47.176966 9
-46.691781 9.937121 -49.484363 9
-42.509728 8.104118 -50.342001 9
-38.786431 5.797662 -50.658490 9
-35.180624 3.376360 -50.846694 9
-31.637393 0.895300 -50.971277 9
-28.216267 -1.724391 -50.949225 9
-24.894817 -4.466595 -50.802688 9
-21.734809 -7.421452 -50.440030 9
-18.712796 -10.575502 -49.882205 9
-15.892658 -14.031602 -49.028087 9
-13.366437 -17.942080 -47.729263 9
-11.301065 -22.581617 -45.717650 9
-10.404170 -29.046473 -41.901897 9
-150.462781 32.025375 -6.318937 7
-143.108166 31.152430 -9.315552 7
-136.227558 30.076435 -11.942775 7
-129.825576 28.771224 -14.179423 7
-123.592760 27.448148 -16.328346 7
-117.714629 25.955523 -18.189887 7
-107.038970 28.393567 -25.222501 8
-100.635296 27.622156 -27.871591 8
-95.260996 26.110344 -29.493755 8
-90.037591 24.553034 -31.016605 8
-86.187878 21.862858 -31.064149 8
-81.366283 20.073580 -32.238916 8
-76.673306 18.230208 -33.319121 8
-72.081957 16.350983 -34.330992 8
-67.655155 14.368689 -35.195774 8
-64.689180 10.976665 -34.347654 8
-52.256648 17.265027 -45.037089 9
-46.672704 16.823537 -47.582461 9
-42.310983 15.185725 -48.683794 9
-38.383349 13.126117 -49.279196 9
-34.548897 10.995823 -49.785556 9
-30.790690 8.806995 -50.219893 9
-27.095235 6.569262 -50.595737 9
-23.530512 4.193894 -50.817043 9
-20.023173 1.760486 -50.976313 9
-16.617269 -0.793679 -51.007758 9
-13.337656 -3.512323 -50.868581 9
-10.138888 -6.348021 -50.614852 9
-7.122962 -9.453084 -50.089529 9
-4.239229 -12.777532 -49.353214 9
-1.567914 -16.457410 -48.271430 9
0.727072 -20.769375 -46.570308 9
2.315620 -26.277567 -43.693606 9
4.603948 -30.838354 -41.836131 9
-143.324911 32.625116 -2.471279 7
-135.609604 32.079289 -5.987924 7
-128.495930 31.246573 -8.999477 7
-121.807566 30.230135 -11.669927 7
-116.046107 28.620025 -13.447472 7
-104.502692 31.698245 -21.563377 8
-98.536367 30.557543 -23.799189 8
-92.977953 29.182982 -25.665620 8
-87.536616 27.800806 -27.474030 8
-82.203617 26.413499 -29.230518 8
-77.153306 24.859038 -30.729266 8
-73.352484 22.226634 -30.820979 8
-68.649640 20.469767 -32.010550 8
-64.703057 18.041610 -32.337865 8
-54.773795 21.604856 -40.035470 9
-47.422091 22.865657 -44.765547 9
-42.790773 21.485123 -46.213374 9
-38.674688 19.622932 -47.058306 9
-34.668634 17.685403 -47.799338 9
-30.722927 15.720409 -48.496229 9
-26.840207 13.720437 -49.142244 9
-23.075550 11.614957 -49.658730 9
-19.378900 9.454739 -50.107723 9
-15.749450 7.234578 -50.485967 9
-12.218477 4.907676 -50.744096 9
-8.738894 2.526080 -50.943509 9
-5.371315 0.001674 -50.990397 9
-2.087294 -2.638832 -50.918585 9
1.093371 -5.434396 -50.690377 9
4.171612 -8.397368 -50.297725 9
7.094766 -11.622011 -49.646921 9
9.824850 -15.189824 -48.661066 9
12.308752 -19.214939 -47.232546 9
14.282241 -24.170740 -44.891015 9
15.734580 -30.155287 -41.563194 9
-147.439444 31.412386 8.504508 7
-136.976662 32.681291 2.112497 7
-128.539132 32.724938 -2.325941 7
-121.212491 32.121661 -5.714506 7
-115.987129 30.048430 -6.928814 7
-106.733335 31.230110 -12.654184 8
-96.867463 33.144074 -19.245378 8
-91.079833 31.933697 -21.409479 8
-85.356940 30.770957 -23.581262 8
-80.012485 29.379826 -25.393366 8
-74.728844 28.022864 -27.205064 8
-69.510113 26.694526 -29.009998 8
-65.735127 24.090254 -29.127771 8
-57.587038 25.743200 -34.668126 9
-49.814958 27.260665 -39.916436 9
-43.823249 27.190905 -43.071957 9
-39.503118 25.515580 -44.179424 9
-35.339394 23.729558 -45.129563 9
-31.249849 21.911792 -46.023351 9
-27.232042 20.059893 -46.860313 9
-23.265710 18.192119 -47.664428 9
-19.417421 16.225602 -48.340202 9
-15.617989 14.234637 -48.978288 9
-11.923168 12.145246 -49.495446 9
-8.253906 10.049218 -50.000226 9
-4.680667 7.851021 -50.386010 9
-1.179933 5.572452 -50.681156 9
2.254362 3.213750 -50.889139 9
5.605938 0.743475 -50.978667 9
8.876698 -1.846217 -50.945217 9
12.069859 -4.561664 -50.786079 9
15.143614 -7.479650 -50.423791 9
18.122202 -10.579525 -49.886421 9
20.945766 -13.976271 -49.059547 9
23.513669 -17.867045 -47.748101 9
25.755964 -22.417937 -45.796087 9
27.125050 -28.673636 -42.161877 9
29.564731 -33.181770 -40.363396 9
-132.582801 31.315534 8.776414 7
-122.469038 32.646057 2.342275 7
-115.985560 31.452370 -0.253391 7
-102.280413 36.055643 -11.086495 8
-95.875300 35.188576 -13.897623 8
-89.673517 34.279093 -16.573693 8
-83.753398 33.251128 -19.015396 8
-78.156271 32.053509 -21.162049 8
-72.666410 30.860439 -23.260136 8
-67.380716 29.578451 -25.187405 8
-65.503537 25.179894 -22.953208 8
-53.214014 30.763649 -33.798698 9
-45.478888 32.281796 -39.154145 9
-40.081973 31.652000 -41.648857 9
-36.549121 29.191280 -41.776531 9
-32.275537 27.539292 -42.912785 9
-28.084541 25.853705 -43.984665 9
-24.012468 24.087940 -44.937836 9
-19.995109 22.307139 -45.855505 9
-16.046920 20.490315 -46.714229 9
-12.204761 18.587078 -47.456621 9
-8.379925 16.699193 -48.206322 9
-4.676052 14.692316 -48.807485 9
-0.995728 12.683300 -49.399636 9
2.610583 10.601459 -49.903042 9
6.131176 8.422480 -50.293427 9
9.587679 6.167480 -50.598253 9
13.024219 3.893539 -50.883762 9
16.342922 1.449075 -50.984864 9
19.593491 -1.104446 -50.974150 9
22.780148 -3.770886 -50.851222 9
25.878700 -6.601162 -50.565570 9
28.877733 -9.630113 -50.085576 9
31.742601 -12.937010 -49.334360 9
34.415727 -16.651633 -48.185582 9
36.841774 -20.914836 -46.506250 9
38.690619 -26.412171 -43.614102 9
41.156430 -30.891630 -41.813725 9
-118.098736 31.266750 8.920136 7
-102.560873 37.160784 -4.176977 8
-95.497256 36.750596 -7.780475 8
-88.923049 36.090670 -10.928278 8
-82.745259 35.232387 -13.710899 8
-76.757126 34.332794 -16.362422 8
-71.004846 33.341490 -18.818716 8
-65.849016 31.916036 -20.619053 8
-57.783948 33.304322 -26.179254 9
-49.405893 35.225389 -32.322684 9
-42.462482 35.985329 -36.791131 9
-37.497950 34.930028 -38.785733 9
-33.044155 33.435356 -40.167660 9
-28.669065 31.923585 -41.497662 9
-25.217364 29.463741 -41.599906 9
-21.058083 27.812897 -42.714136 9
-16.945565 26.162625 -43.807536 9
-12.951907 24.424532 -44.772996 9
-9.026777 22.650068 -45.677510 9
-5.151433 20.857157 -46.545074 9
-1.370915 18.983874 -47.303767 9
2.375453 17.101414 -48.041246 9
6.039080 15.140780 -48.678309 9
9.663344 13.153856 -49.278366 9
13.215781 11.089797 -49.784970 9
16.709223 8.959053 -50.213233 9
20.133975 6.739365 -50.541040 9
23.495452 4.429812 -50.770821 9
26.829145 2.078135 -50.958427 9
30.076598 -0.417671 -50.994556 9
33.250736 -3.049805 -50.892479 9
36.351989 -5.831011 -50.643046 9
39.368319 -8.797775 -50.212354 9
42.284416 -11.996816 -49.557065 9
44.900387 -15.836735 -48.259432 9
47.050442 -20.710387 -45.933303 9
47.777907 -28.689503 -40.493926 9
-104.480409 37.015139 4.768887 8
-96.278273 37.404051 -0.200518 8
-89.070078 37.179387 -4.133065 8
-82.272888 36.772732 -7.695464 8
-75.934771 36.120126 -10.810539 8
-69.921403 35.313784 -13.626218 8
-65.756343 32.948474 -14.184534 8
-54.672979 37.084095 -23.730532 9
-46.026633 39.264326 -30.375316 9
-40.033732 39.104161 -33.697579 9
-35.338131 37.775990 -35.379447 9
-30.733223 36.432219 -37.001797 9
-26.174055 35.115648 -38.623338 9
-21.854706 33.612349 -39.967745 9
-17.580274 32.122590 -41.301184 9
-14.162176 29.707541 -41.434653 9
-10.080998 28.090209 -42.567647 9
-6.108593 26.394323 -43.582000 9
-2.160473 24.716331 -44.600460 9
1.689636 22.960237 -45.506785 9
5.506989 21.203189 -46.397812 9
9.232402 19.362211 -47.175721 9
12.896840 17.471084 -47.884304 9
16.513636 15.542477 -48.540974 9
20.092527 13.585474 -49.158322 9
23.612788 11.564043 -49.696788 9
27.047360 9.428155 -50.102483 9
30.449090 7.251101 -50.462096 9
33.804748 5.005570 -50.747126 9
37.089610 2.641415 -50.905000 9
40.336521 0.204264 -50.989681 9
43.490002 -2.415038 -50.885782 9
46.376992 -5.560361 -50.230835 9
48.953489 -9.368940 -48.895143 9
51.200942 -13.943344 -46.790387 9
52.995187 -19.616595 -43.591596 9
52.250691 -30.966846 -34.603974 9
-99.392958 36.233413 10.351883 8
-90.678155 37.098426 4.572640 8
-82.913622 37.396341 -0.207013 8
-75.947570 37.200954 -4.134013 8
-72.277072 34.259487 -3.966421 8
-65.726086 33.939922 -7.561111 8
-52.006146 40.443535 -20.747054 9
-43.558865 42.423434 -27.275801 9
-38.062790 41.771340 -30.001392 9
-33.321667 40.476802 -31.781382 9
-28.597035 39.246715 -33.606371 9
-24.036487 37.925366 -35.266945 9
-19.589635 36.556307 -36.826961 9
-15.161293 35.238679 -38.420344 9
-10.921100 33.777593 -39.793966 9
-6.732243 32.319681 -41.143608 9
-3.204046 30.120237 -41.525356 9
0.630933 28.324643 -42.408862 9
4.532016 26.655529 -43.434373 9
8.388316 24.974506 -44.427848 9
12.202313 23.281319 -45.390529 9
15.935845 21.518979 -46.255208 9
19.600137 19.695161 -47.034544 9
23.219130 17.837636 -47.764442 9
26.790206 15.937240 -48.436189 9
30.310623 13.983734 -49.040170 9
33.785525 11.978639 -49.580645 9
37.186763 9.868385 -49.999117 9
40.576400 7.748150 -50.406750 9
43.856723 5.442103 -50.608394 9
46.901367 2.699719 -50.333796 9
49.676417 -0.586599 -49.479251 9
52.217203 -4.402006 -48.077720 9
54.533981 -8.778454 -46.110839 9
56.634449 -13.755873 -43.552575 9
57.371147 -21.868992 -37.748851 9
-98.321091 32.161423 21.034517 8
-85.678604 36.276431 10.127023 8
-77.312297 37.144266 4.400633 8
-69.875020 37.421699 -0.295804 8
-65.807007 34.847738 -0.674626 8
-49.748742 43.419686 -17.239484 9
-41.734344 44.967515 -23.316172 9
-36.380989 44.156410 -25.897199 9
-31.477588 43.004729 -27.936852 9
-26.691251 41.822938 -29.885147 9
-22.051356 40.572969 -31.693736 9
-17.463583 39.347761 -33.494072 9
-13.032421 38.028340 -35.127568 9
-8.682854 36.689287 -36.699303 9
-4.398589 35.344587 -38.230288 9
-0.217821 33.943778 -39.656956 9
3.856642 32.475172 -40.968223 9
7.530516 30.551262 -41.675782 9
11.116480 28.543587 -42.266351 9
14.964033 26.918386 -43.324565 9
18.741132 25.241969 -44.302310 9
22.472515 23.542856 -45.237373 9
26.141263 21.791423 -46.095817 9
29.756237 19.994098 -46.888157 9
33.335438 18.172768 -47.642795 9
36.864633 16.299940 -48.329153 9
40.324713 14.336741 -48.904628 9
43.746980 12.326664 -49.422964 9
46.917563 9.882640 -49.445638 9
49.836349 6.960729 -48.937801 9
52.550238 3.601969 -47.960949 9
55.098085 -0.161282 -46.564764 9
57.592201 -4.141923 -44.966811 9
59.932163 -8.571908 -42.921578 9
59.098074 -20.052913 -33.339532 9
58.012705 -32.768156 -22.630533 9
-83.919736 32.656771 20.021552 8
-72.364655 36.305243 9.899077 8
-65.879004 35.781830 6.325960 8
-48.144342 45.792305 -12.838363 9
-40.432181 47.018152 -18.610087 9
-35.022289 46.229319 -21.310275 9
-29.919272 45.247939 -23.665850 9
-25.009391 44.169649 -25.825444 9
-20.247874 43.028842 -27.844870 9
-15.574468 41.881254 -29.807003 9
-11.066884 40.635111 -31.588556 9
-6.619698 39.399100 -33.343722 9
-2.254167 38.145065 -35.036252 9
1.976835 36.803397 -36.576410 9
6.169895 35.483645 -38.113618 9
10.241919 34.077403 -39.507701 9
14.259803 32.662271 -40.863552 9
18.004529 30.936069 -41.798397 9
21.377361 28.729876 -42.113062 9
25.167310 27.137233 -43.190348 9
28.885401 25.484850 -44.176840 9
32.547639 23.789162 -45.095897 9
36.165199 22.061324 -45.963564 9
39.731263 20.284863 -46.762169 9
43.258237 18.473708 -47.510791 9
46.552343 16.286823 -47.810976 9
49.608147 13.676053 -47.620260 9
52.440364 10.625515 -46.935057 9
55.153148 7.289287 -45.945875 9
57.821924 3.787138 -44.797335 9
60.459768 0.129112 -43.505870 9
62.988629 -3.865149 -41.876245 9
59.047159 -22.135176 -24.607992 9
66.562143 -15.627985 -34.633558 5
68.732393 -21.029501 -31.647614 5
-70.061553 33.057402 19.138332 8
-47.445165 47.337039 -7.133627 9
-39.473641 48.750140 -13.365311 9
-33.947863 48.031306 -16.266189 9
-28.724612 47.131526 -18.826318 9
-23.619108 46.219504 -21.303853 9
-18.668193 45.250065 -23.637609 9
-13.900530 44.182178 -25.775057 9
-9.266098 43.058508 -27.783549 9
-4.720446 41.920843 -29.726166 9
-0.317883 40.699629 -31.510298 9
4.019101 39.477685 -33.254296 9
8.289382 38.249695 -34.952974 9
12.438139 36.940892 -36.509065 9
16.496060 35.581124 -37.966961 9
20.500797 34.213743 -39.386751 9
24.441889 32.820122 -40.746224 9
28.255135 31.301930 -41.922532 9
31.448374 28.911982 -41.979645 9
35.176496 27.339475 -43.060644 9
38.821791 25.681980 -44.020131 9
42.436588 24.014231 -44.953694 9
45.893691 22.118635 -45.599083 9
49.076475 19.768089 -45.692946 9
52.028696 16.994526 -45.289884 9
54.867190 13.971299 -44.608795 9
57.654506 10.792606 -43.768034 9
59.037978 4.761187 -39.661140 9
63.152183 4.060204 -41.732654 9
64.791175 -1.795536 -37.940385 5
67.966210 -4.541039 -37.717159 5
71.063840 -7.509198 -37.261830 5
74.032898 -10.847173 -36.419550 5
76.817782 -14.735009 -35.005408 5
79.253615 -19.659517 -32.510016 5
-58.722464 37.926253 15.801729 9
-39.154133 49.889452 -7.119437 9
-36.317119 46.506701 -6.072752 9
-27.812286 48.740206 -13.504370 9
-22.477616 48.019105 -16.355895 9
-17.411707 47.133966 -18.894425 9
-12.498153 46.191166 -21.286355 9
-7.686725 45.236563 -23.603429 9
-3.018487 44.217206 -25.773738 9
1.469610 43.079195 -27.727248 9
5.901835 41.958493 -29.660722 9
10.223005 40.783588 -31.477252 9
14.456314 39.575452 -33.209789 9
18.612406 38.341357 -34.871440 9
22.664289 37.038468 -36.408109 9
26.631339 35.684186 -37.847227 9
30.564700 34.344426 -39.278252 9
34.423393 32.956184 -40.620800 9
38.258679 31.590557 -41.968815 9
41.343884 29.094158 -41.866579 9
44.938092 27.416369 -42.794642 9
48.254560 25.306482 -43.175288 9
51.335975 22.794182 -43.061691 9
54.277878 20.009998 -42.627322 9
57.168371 17.089684 -42.045219 9
60.058824 14.117814 -41.420886 9
59.025573 3.267729 -31.536886 9
64.810992 5.873532 -37.549379 5
68.146496 3.586343 -37.802981 5
71.456069 1.229582 -37.982112 5
74.701884 -1.293089 -37.980208 5
77.884535 -4.000746 -37.781496 5
81.009674 -6.902275 -37.382178 5
84.020313 -10.169112 -36.599438 5
86.910080 -13.864206 -35.375761 5
89.518972 -18.490760 -33.179341 5
-39.587649 50.336758 0.357262 9
-33.316667 50.194301 -3.690411 9
-27.366210 49.894585 -7.388755 9
-21.781503 49.370305 -10.648959 9
-16.431990 48.732180 -13.654399 9
-11.282082 48.002514 -16.448177 9
-6.378664 47.115364 -18.941583 9
-1.597640 46.193470 -21.324185 9
3.052622 45.218915 -23.574775 9
7.599525 44.215462 -25.732290 9
11.986174 43.104955 -27.690728 9
16.303017 41.989662 -29.599416 9
20.513607 40.816805 -31.388086 9
24.642336 39.610428 -33.093919 9
28.727933 38.418091 -34.784132 9
32.706611 37.145015 -36.333670 9
36.599078 35.810973 -37.773549 9
40.376846 34.362907 -39.038579 9
43.832786 32.457380 -39.691710 9
47.024496 30.141716 -39.812580 9
50.025851 27.498856 -39.522682 9
52.995450 24.772681 -39.140070 9
55.953338 21.990390 -38.701795 9
58.884187 19.117015 -38.167223 9
59.040797 10.822955 -31.066825 9
59.002909 1.705428 -23.121815 9
67.777185 10.391191 -36.544632 5
71.193671 8.341247 -37.054386 5
74.583400 6.235778 -37.498941 5
77.918604 4.002115 -37.796580 5
81.209232 1.647375 -37.960157 5
84.455718 -0.843492 -37.976902 5
87.660093 -3.483350 -37.837016 5
90.799247 -6.355065 -37.453070 5
93.865191 -9.512387 -36.773061 5
96.833300 -13.067103 -35.683455 5
99.594773 -17.411574 -33.770708 5
-42.220812 48.749943 11.327579 9
-34.196269 50.147540 4.613610 9
-27.671891 50.317367 0.015067 9
-21.601513 50.205551 -4.023581 9
-15.944728 49.821415 -7.538169 9
-7.928358 52.123072 -15.052902 4
-3.622131 50.605148 -16.638002 4
-0.192430 48.154576 -16.795529 9
4.402818 47.086478 -18.978798 9
9.034595 46.155316 -21.309193 9
13.566277 45.198452 -23.548770 9
17.993088 44.202723 -25.682550 9
22.284288 43.119347 -27.646145 9
26.501431 42.019907 -29.545242 9
30.605936 40.844548 -31.300252 9
34.677035 39.697126 -33.057642 9
38.673567 38.514941 -34.733533 9
42.362540 36.931151 -35.842529 9
45.729066 34.879544 -36.315558 9
48.830717 32.406249 -36.232957 9
51.882027 29.832359 -36.026820 9
54.875355 27.133283 -35.670060 9
57.928547 24.509578 -35.421534 9
59.029302 18.184229 -30.547627 9
59.036522 9.437339 -22.773483 9
67.015072 16.295159 -34.322647 5
70.522258 14.469822 -35.095531 5
73.999896 12.602316 -35.811047 5
77.448472 10.686591 -36.464148 5
80.840216 8.649814 -36.971090 5
84.207630 6.554378 -37.409567 5
87.541596 4.368064 -37.744697 5
90.827683 2.039534 -37.920972 5
94.095068 -0.371043 -38.011836 5
97.299379 -3.003480 -37.862649 5
100.473239 -5.791529 -37.554619 5
103.589802 -8.842563 -36.973935 5
106.458293 -12.824906 -35.395995 5
108.726243 -19.101172 -31.368410 5
-37.643758 47.665157 17.148684 9
-29.225735 49.527478 9.577010 9
-12.860399 59.740172 -11.137765 4
-6.768603 59.996554 -15.623947 4
-2.821726 58.122997 -16.675033 4
0.689831 55.814896 -17.026625 4
3.939816 53.228519 -16.942159 4
5.643245 48.827600 -14.127185 9
10.280552 47.867968 -16.490231 9
14.969458 47.072172 -19.038014 9
19.473789 46.147009 -21.338964 9
23.879256 45.189022 -23.540736 9
28.219989 44.237112 -25.702549 9
32.366054 43.104419 -27.563721 9
36.513667 42.054433 -29.500918 9
40.483215 40.821888 -31.147448 9
44.120548 39.146491 -32.158905 9
47.381238 36.910180 -32.396849 9
50.493746 34.431744 -32.310754 9
53.597079 31.922479 -32.189879 9
56.698169 29.390415 -32.046362 9
58.885650 25.168269 -29.727074 9
59.036194 16.953730 -22.352998 9
66.126723 21.893655 -31.791722 5
69.545567 19.905832 -32.363870 5
73.106119 18.227064 -33.315837 5
76.639745 16.522142 -34.224909 5
80.127960 14.743438 -35.034838 5
83.577190 12.894739 -35.753550 5
86.983087 10.954383 -36.358293 5
90.371982 8.975895 -36.916146 5
93.722584 6.895462 -37.354169 5
97.048273 4.734750 -37.701410 5
100.340755 2.456781 -37.918415 5
103.597928 0.036924 -37.981282 5
106.703379 -2.918401 -37.450497 5
109.466171 -7.130361 -35.536281 5
111.762341 -13.231286 -31.576378 5
113.745423 -20.953963 -25.921006 5
-10.137551 69.038620 -14.202572 1
-2.371718 71.001226 -21.579710 1
1.101815 68.771476 -21.991036 1
4.074354 66.027701 -21.565487 4
4.550455 60.516320 -16.782101 4
7.405391 57.536080 -16.050669 4
10.022224 54.253273 -14.866784 4
11.432097 49.468659 -11.423182 9
16.072867 48.573489 -13.903253 9
20.766890 47.850660 -16.580651 9
25.333618 47.072177 -19.114416 9
29.702537 46.131228 -21.354860 9
33.987588 45.167960 -23.513720 9
38.201292 44.193890 -25.610661 9
42.136173 42.891965 -27.202614 9
45.692856 41.071512 -28.041220 9
48.886628 38.701875 -28.108827 9
52.053536 36.281837 -28.109375 9
55.238343 33.881595 -28.140128 9
58.359620 31.357704 -28.009472 9
59.102502 24.449997 -22.100360 9
64.432161 25.919457 -27.260374 5
68.237635 24.656360 -28.788508 5
72.020383 23.413507 -30.318376 5
75.710662 22.041869 -31.661481 5
79.114048 20.095173 -32.263583 5
82.640560 18.439862 -33.223885 5
86.129836 16.727481 -34.103551 5
89.605714 15.007258 -34.965421 5
93.021515 13.154984 -35.660510 5
96.408731 11.235625 -36.271768 5
99.787884 9.295519 -36.856980 5
103.128718 7.240357 -37.306700 5
106.353238 4.810659 -37.323515 5
109.322734 1.499657 -36.336211 5
111.957044 -3.102095 -33.905854 5
114.801816 -7.243601 -32.053089 5
117.357015 -12.736895 -28.732527 5
-15.352727 70.558990 -4.339427 1
-7.159963 72.665311 -12.341941 1
-3.112404 70.887493 -13.619162 1
2.345689 70.630114 -17.371235 1
7.001538 69.660082 -19.857499 1
9.421683 66.324512 -18.458803 1
10.498940 61.415898 -14.581310 4
12.828084 57.829327 -12.874110 4
14.885339 53.851476 -10.594445 4
16.960582 49.807836 -8.263621 9
21.771013 49.183647 -11.181423 9
26.501039 48.574814 -14.053432 9
31.059574 47.852660 -16.690755 9
35.463910 47.025123 -19.113603 9
39.754706 46.135988 -21.393350 9
42.191602 42.555739 -19.757240 9
47.043848 42.648615 -23.378158 9
50.275747 40.301381 -23.492486 9
53.515296 37.963134 -23.619283 9
56.742632 35.599237 -23.711080 9
59.018591 31.534365 -21.487529 9
59.094335 23.283704 -13.671111 9
66.387236 28.378607 -23.826315 5
70.281285 27.285676 -25.608193 5
74.054708 26.025484 -27.141269 5
77.809224 24.791797 -28.684289 5
81.515940 23.520026 -30.154664 5
85.164654 22.178378 -31.514657 5
88.541030 20.240049 -32.105932 5
92.056607 18.655873 -33.134625 5
95.515950 16.959436 -34.013755 5
98.943744 15.200069 -34.808314 5
102.359466 13.421866 -35.574519 5
105.691169 11.404690 -36.049989 5
108.793573 8.655999 -35.658978 5
111.602604 4.851959 -34.045602 5
114.277058 0.375655 -31.690642 5
117.674419 -1.751034 -32.102114 5
120.330947 -6.771080 -29.210775 6
123.472836 -10.191092 -28.197735 6
126.467885 -14.452251 -26.272567 6
-10.641505 81.467289 -10.702763 1
-8.899869 77.465219 -8.132558 1
-3.759534 76.699008 -11.248835 1
0.780476 75.449290 -13.443217 1
3.504277 72.406206 -12.532882 1
7.419854 70.610401 -13.724231 1
12.079942 69.684960 -16.316152 1
15.620046 67.592352 -16.933188 1
15.276554 60.985433 -10.254298 4
12.729161 51.464059 0.908864 4
17.215578 50.256824 -1.269408 9
22.439022 50.085705 -5.003866 9
27.425535 49.754995 -8.403636 9
32.093732 49.131038 -11.277933 9
36.688239 48.524321 -14.111655 9
41.046727 47.694146 -16.549370 9
43.394212 43.936849 -14.634059 9
48.236719 43.973514 -18.272377 9
51.545631 41.701915 -18.516404 9
54.841149 39.410391 -18.728663 9
58.137631 37.119967 -18.940339 9
59.109699 30.673267 -13.366799 9
64.161248 31.476596 -17.896673 5
68.196273 30.553426 -19.984215 5
72.163626 29.591467 -21.981364 5
75.986616 28.423135 -23.667601 5
79.812893 27.337181 -25.434460 5
83.541828 26.114626 -26.993455 5
87.255597 24.925793 -28.571907 5
90.898284 23.635597 -29.996408 5
94.501863 22.307915 -31.353071 5
97.878925 20.439571 -32.011283 5
101.352145 18.843482 -33.004549 5
104.773690 17.128500 -33.841060 5
108.010983 14.873010 -34.010392 5
110.961275 11.666614 -33.034999 5
113.891843 8.253319 -31.840073 5
117.117839 5.710249 -31.712358 5
119.987889 1.761646 -29.943712 6
123.308129 -0.666511 -29.992990 6
126.592903 -3.321939 -29.791109 6
129.852943 -6.202542 -29.347947 6
133.051629 -9.529294 -28.419991 6
136.164089 -13.525624 -26.769872 6
138.954307 -19.637254 -22.807037 6
-14.198998 90.146948 -8.906022 3
-8.967920 89.327451 -12.127592 3
-3.858928 88.516088 -15.259998 3
-0.646944 86.034692 -15.275537 1
2.601643 83.600102 -15.362493 1
4.060978 79.386630 -12.307713 1
5.766324 75.328256 -9.592623 1
11.880625 75.874437 -14.827766 1
15.913389 74.333460 -16.390978 1
17.638285 70.243209 -13.649901 1
19.372250 66.064984 -10.825251 1
17.833527 57.837873 -1.466878 4
16.831970 49.914724 7.181463 9
22.570535 50.299911 2.413323 9
27.875835 50.305967 -1.643182 9
32.869311 50.053430 -5.200920 9
37.657645 49.660121 -8.458761 9
42.062005 48.843997 -10.999354 9
45.910085 47.295779 -12.383127 9
49.271151 45.043500 -12.690794 9
52.620181 42.778313 -12.973311 9
55.987206 40.547300 -13.300505 9
58.110177 36.165833 -10.532270 9
59.090513 29.580774 -4.692336 9
65.694365 33.145183 -13.256086 5
69.820035 32.362895 -15.593898 5
73.872869 31.543634 -17.836549 5
77.798090 30.564052 -19.819261 5
81.721206 29.671950 -21.884905 5
85.487231 28.524296 -23.573105 5
89.235634 27.411885 -25.280303 5
92.935301 26.258998 -26.907232 5
96.579108 25.037961 -28.420830 5
100.172952 23.751226 -29.828013 5
103.737127 22.442368 -31.187746 5
107.005898 20.326824 -31.513657 5
110.200607 17.960880 -31.529808 5
113.261609 15.111580 -30.957704 5
116.264043 11.955877 -30.031155 5
119.225503 8.505737 -28.775272 6
122.618167 6.501610 -29.290560 6
125.998433 4.421740 -29.717460 6
129.340873 2.140300 -29.910587 6
132.675829 -0.247254 -29.988433 6
135.993579 -2.812994 -29.871301 6
139.283506 -5.654525 -29.453144 6
142.543783 -8.849654 -28.654327 6
145.747945 -12.652327 -27.199786 6
148.756051 -18.168636 -23.873290 6
-16.154069 94.843072 -4.363073 3
-8.287698 96.179552 -11.932624 3
-3.491338 95.066720 -14.598080 3
0.357234 93.191636 -15.740782 3
6.157546 93.197039 -20.321757 3
11.779041 93.194951 -24.750401 3
16.562935 92.518738 -27.832722 3
21.151205 91.757329 -30.671054 3
15.817965 80.570015 -15.129512 1
17.928767 76.982394 -13.145692 1
19.651965 72.889780 -10.340959 1
21.419961 68.749500 -7.519082 1
13.671044 46.125047 21.563762 9
21.477249 48.943364 12.591010 9
27.643656 49.951168 6.747812 9
33.169645 50.322260 2.057497 9
38.264293 50.278488 -1.869392 9
42.815704 49.605572 -4.727208 9
46.616473 47.917699 -5.960810 9
50.085578 45.759798 -6.452583 9
53.489245 43.510681 -6.796419 9
56.938466 41.344818 -7.256818 9
59.070838 36.899362 -4.360985 9
59.092950 28.490051 4.228978 9
66.997206 34.370137 -7.902715 5
71.262143 33.807087 -10.619414 5
75.416248 33.149352 -13.149686 5
79.480880 32.424862 -15.538708 5
83.445712 31.597604 -17.741668 5
87.303645 30.633500 -19.718210 5
91.141506 29.715857 -21.723239 5
94.860312 28.601462 -23.431135 5
98.562052 27.522542 -25.158642 5
102.216930 26.399211 -26.800911 5
105.790125 25.122267 -28.219121 5
109.162622 23.311770 -28.931778 5
112.240102 20.588812 -28.477269 5
115.206204 17.409416 -27.464625 5
118.200738 14.181902 -26.420369 6
121.651858 12.463300 -27.272534 6
125.080844 10.669030 -28.026240 6
128.489486 8.788886 -28.672336 6
131.879204 6.808888 -29.197495 6
135.258529 4.745070 -29.624680 6
138.615884 2.517819 -29.863093 6
141.964105 0.155499 -29.951632 6
145.305518 -2.364614 -29.868600 6
148.635056 -5.119628 -29.530645 6
-9.840668 101.098073 -8.036552 2
-4.741612 100.165772 -11.209211 2
-0.100905 98.945968 -13.709201 2
2.663571 96.121085 -13.028117 3
5.715890 93.553911 -12.841642 3
11.314564 93.444745 -17.250711 3
22.009953 98.562613 -31.180749 3
24.880852 96.142186 -30.986439 3
17.275865 82.630356 -10.848032 1
19.712310 79.379081 -9.433237 1
21.690898 75.565851 -7.062209 1
25.231519 46.704368 20.147357 9
32.334388 49.031010 12.050361 9
38.209389 49.953999 6.402496 9
43.070185 49.628343 2.871367 9
47.010157 48.055618 1.380815 9
50.477039 45.800461 0.984521 9
54.000737 43.647889 0.440538 9
57.523939 41.510433 -0.114143 9
59.054550 35.907620 4.543201 9
59.071263 27.316488 13.534132 9
68.034014 35.076272 -1.679916 5
72.478196 34.791893 -4.886124 5
76.778767 34.370467 -7.830663 5
80.961980 33.844407 -10.568340 5
85.022777 33.183546 -13.063595 5
89.014297 32.486800 -15.462186 5
92.883443 31.617043 -17.578399 5
96.686723 30.686953 -19.575069 5
100.457807 29.771178 -21.557135 5
103.455362 26.840383 -20.809568 5
107.700348 27.388761 -24.694052 5
110.937438 25.151560 -24.854750 5
113.990466 22.294714 -24.214856 5
117.042297 19.326331 -23.451972 5
120.485835 17.611077 -24.309805 6
123.963072 16.033747 -25.334739 6
127.424847 14.421700 -26.306610 6
130.865830 12.741869 -27.186408 6
134.280102 10.949956 -27.922810 6
137.685681 9.104721 -28.591738 6
141.076042 7.156477 -29.135684 6
144.458119 5.115194 -29.570493 6
147.829306 2.937107 -29.847901 6
147.103661 -26.574321 1.904432 6
-7.239280 104.271811 -5.686607 2
-1.119406 104.203897 -10.702921 2
2.512581 102.136586 -11.538784 2
4.721732 98.826576 -9.876922 2
8.020725 96.486919 -10.138336 3
10.693332 93.565244 -9.260267 3
27.275289 104.402308 -34.444576 3
27.897180 99.786880 -30.067323 3
27.818741 94.287253 -24.169605 3
21.324860 81.591852 -5.342130 1
36.372229 47.092978 19.088970 9
42.508812 48.443336 12.646464 9
46.728155 47.154127 10.593324 9
50.321358 44.963949 10.019077 9
53.906382 42.778450 9.452095 9
57.555040 40.717240 8.705957 9
59.085891 34.964767 13.638200 9
59.071413 26.140705 23.121236 9
68.477280 34.634540 6.412144 5
73.318496 35.013514 2.105769 5
77.916990 35.109214 -1.695228 5
82.246200 34.821930 -4.862438 5
86.442426 34.398150 -7.770629 5
90.532279 33.875200 -10.481436 5
94.503189 33.203325 -12.931322 5
98.405530 32.483418 -15.269361 5
102.235515 31.693084 -17.468477 5
105.943306 30.678638 -19.323289 5
108.740712 27.111375 -17.694110 5
112.585755 26.574187 -20.162621 5
115.635653 23.624213 -19.389773 5
119.103339 21.972182 -20.344626 6
122.664098 20.676392 -21.752801 6
126.169458 19.232486 -22.951902 6
129.670709 17.815148 -24.171278 6
133.130683 16.264941 -25.209234 6
136.572197 14.654553 -26.162358 6
140.003063 13.004830 -27.059348 6
143.411423 11.238588 -27.807353 6
146.811032 9.401413 -28.466484 6
149.998971 6.187396 -27.463762 6
-2.901944 108.855242 -6.356192 2
0.766522 106.769561 -7.238050 2
3.919855 104.277266 -7.236741 2
7.664987 102.327267 -8.317875 2
10.104731 99.215355 -7.028677 2
28.095569 110.931741 -34.964204 3
30.952849 108.651533 -34.917002 3
30.911758 103.423734 -29.217011 3
30.859700 97.995673 -23.284906 3
30.770187 92.325831 -17.052943 3
44.477190 43.235401 25.047900 9
41.481050 30.395634 41.612153 9
52.122125 39.117106 23.218012 9
55.774943 36.819111 22.715818 9
52.641569 22.574267 40.956355 9
58.650712 24.150444 34.263186 9
66.531015 29.607833 21.765114 5
73.319335 33.538690 11.852825 5
78.495329 34.663029 6.363016 5
83.184350 35.025719 2.118495 5
87.642821 35.092202 -1.604243 5
91.883087 34.843852 -4.794944 5
95.982781 34.419850 -7.670789 5
99.980854 33.888300 -10.338880 5
103.880411 33.235617 -12.786859 5
107.607378 32.229935 -14.698338 5
110.235712 28.082546 -12.238088 5
114.116324 27.585258 -14.824334 5
117.281818 24.903020 -14.407926 5
121.149014 24.554121 -17.135526 6
124.733138 23.346875 -18.678221 6
128.296971 22.135899 -20.194464 6
131.820622 20.832925 -21.570473 6
135.306415 19.424014 -22.792689 6
138.794649 18.072013 -24.074022 6
142.228443 16.494442 -25.055617 6
145.661897 14.929119 -26.044574 6
149.077134 13.266700 -26.905272 6
147.290885 -22.658064 14.422558 6
-2.538713 110.204977 -0.155193 2
2.875132 109.525649 -4.141734 2
4.521754 105.732016 -1.399449 2
8.860950 104.264479 -3.564894 2
10.890955 100.750650 -1.451713 2
33.087608 116.364913 -38.026031 3
33.856936 112.128407 -34.003815 3
33.868153 106.995347 -28.324049 3
33.891849 101.689386 -22.456906 3
33.917074 96.188391 -16.367994 3
76.913120 29.684238 21.600900 5
83.369281 33.554916 11.822560 5
88.354832 34.642824 6.425953 5
92.930596 35.057895 2.139407 5
97.250709 35.076823 -1.478824 5
101.406993 34.871602 -4.700018 5
105.400421 34.404207 -7.482097 5
109.081966 33.204025 -9.168441 5
112.387599 30.958643 -9.351992 5
114.716180 25.599660 -5.190351 5
119.366008 27.579969 -11.262854 6
123.078634 26.712289 -13.324495 6
126.712990 25.671660 -15.118617 6
130.329717 24.659753 -16.924116 6
133.887360 23.500581 -18.507126 6
137.416800 22.296916 -20.009756 6
140.915089 21.018386 -21.395102 6
144.389169 19.677565 -22.683151 6
147.847003 18.297924 -23.907101 6
145.638529 -18.477877 19.762300 6
2.460093 110.190254 3.591509 2
6.496078 108.381588 2.013982 2
7.814543 104.224838 5.524060 2
33.836431 122.603863 -38.478624 3
36.666255 120.434837 -38.548965 3
36.735042 115.573606 -33.104833 3
36.803723 110.540051 -27.458269 3
36.884008 105.335754 -21.621106 3
36.962582 99.936008 -15.553083 3
37.024207 94.311102 -9.206522 3
87.320166 30.150716 20.884914 5
93.275919 33.542513 11.879967 5
98.097652 34.631803 6.517988 5
102.546867 35.057784 2.249966 5
106.698872 34.916799 -1.100056 5
101.644462 8.419068 33.959932 5
113.553074 30.833885 -2.135233 5
116.774234 28.118886 -1.684359 5
121.075012 28.972439 -6.284689 6
124.874649 28.356412 -8.746463 6
128.615266 27.670670 -11.069963 6
132.273368 26.798469 -13.099674 6
135.874198 25.803523 -14.930975 6
139.444421 24.776415 -16.691726 6
142.976117 23.662898 -18.312152 6
146.471475 22.446291 -19.774655 6
144.164152 -13.200331 23.749898 6
148.062437 -14.967883 22.615475 6
38.609107 127.697459 -41.409471 3
39.498392 123.788055 -37.699222 3
39.582427 118.982726 -32.208083 3
39.717047 114.056541 -26.615159 3
39.842172 108.941327 -20.786176 3
39.953685 103.620139 -14.697276 3
40.106846 98.140625 -8.453640 3
97.389962 30.185860 20.880343 5
103.058749 33.510089 12.015896 5
106.063653 29.983547 13.619352 5
111.177798 32.475385 6.243261 5
114.351632 29.473371 7.094053 5
118.455278 29.387673 3.677478 6
122.603466 29.677085 -0.216025 6
125.776365 26.661260 0.678508 6
130.361637 29.013077 -6.033398 6
134.115064 28.467089 -8.566546 6
137.793302 27.763824 -10.839344 6
141.399644 26.874689 -12.820504 6
144.967360 25.919272 -14.681289 6
148.503257 24.910842 -16.443397 6
146.729530 -8.853665 25.481952 6
39.342753 133.713004 -41.890178 3
42.129401 131.629719 -42.045803 3
42.269558 127.077478 -36.787591 3
42.422880 122.379141 -31.360194 3
42.588254 117.525011 -25.750639 3
42.769711 112.509853 -19.956031 3
42.955515 107.311246 -13.938294 3
106.229748 27.080558 25.746768 5
110.941748 28.134752 20.313732 5
123.585103 28.357717 8.978524 6
127.905777 29.357696 3.994060 6
131.947831 29.631046 0.151652 6
135.834229 29.536942 -3.095847 6
139.595705 29.123029 -5.833661 6
143.282393 28.551593 -8.304301 6
146.900966 27.808661 -10.496499 6
145.589419 -1.761009 26.942127 6
149.339711 -4.140158 26.666692 6
43.921149 138.502620 -44.714207 3
44.828183 134.806995 -41.117786 3
45.039863 130.359958 -35.932797 3
45.234698 125.741871 -30.514985 3
45.443551 120.972075 -24.917002 3
45.663636 116.038464 -19.120976 3
45.899189 110.935251 -13.123409 3
133.076536 28.245201 9.442070 6
137.277646 29.278979 4.434832 6
141.240654 29.628092 0.509383 6
145.050246 29.541847 -2.722819 6
148.507318 27.777193 -3.522299 6
148.356630 3.883685 26.716306 6
48.335672 143.123486 -47.415686 3
52.023955 142.009946 -49.685608 3
55.652145 140.918386 -51.913876 3
59.238211 139.863261 -54.136400 3
48.272042 124.386968 -24.088904 3
48.542698 119.546781 -18.319868 3
142.503780 28.090341 10.026803 6
146.596527 29.197219 4.937585 6
147.852586 14.335726 23.026751 6
48.203087 143.807520 -40.749532 3
53.649665 144.194518 -46.771067 3
58.477366 144.200157 -51.670452 3
63.135826 144.201979 -56.383489 3
66.661401 143.234176 -58.707079 3
70.032553 142.187714 -60.764735 3
73.382545 141.190861 -62.854681 3
76.669205 140.197809 -64.876185 3
79.911350 139.225859 -66.870500 3
52.816727 144.205659 -38.425191 3
57.732121 144.194085 -43.523695 3
62.492604 144.197631 -48.469681 3
67.097219 144.207211 -53.250895 3
71.522838 144.190333 -57.801501 3
75.828945 144.198112 -62.250385 3
79.988097 144.194375 -66.522351 3
83.359258 143.436175 -68.982941 3
86.496385 142.487248 -70.942374 3
89.556585 141.514126 -72.781105 3
92.618982 140.610842 -74.704236 3
95.616544 139.692191 -76.531087 3
99.638400 140.256844 -81.352392 0
102.548737 139.409148 -83.165283 0
105.419750 138.571948 -84.942757 0
108.253341 137.745338 -86.687045 0
111.049937 136.927221 -88.395970 0
56.972650 144.204241 -35.065308 3
61.810663 144.182374 -40.192352 3
66.515764 144.193786 -45.210261 3
71.050472 144.194105 -50.020413 3
75.438588 144.197647 -54.667854 3
79.680512 144.195995 -59.142276 3
83.803540 144.210810 -63.502201 3
87.770719 144.191628 -67.641201 3
91.634642 144.190904 -71.685880 3
95.391599 144.198100 -75.618580 3
99.744895 145.141707 -81.433185 0
102.615950 144.251614 -83.203475 0
105.442150 143.363189 -84.919129 0
108.259630 142.526643 -86.686179 0
111.027461 141.680557 -88.378759 0
113.770874 140.860629 -90.071823 0
116.478922 140.047643 -91.728029 0
119.166486 139.264812 -93.394605 0
121.827390 138.500750 -95.049806 0
124.457506 137.745995 -96.676614 0
127.058141 137.000427 -98.276365 0
129.569311 136.134197 -99.609726 0
61.144785 144.209850 -31.660862 3
65.939493 144.209464 -36.895677 3
70.569888 144.209989 -41.939448 3
75.031293 144.196483 -46.767205 3
79.352154 144.188768 -51.437806 3
83.539865 144.186633 -55.959584 3
87.606726 144.196284 -60.355008 3
91.535031 144.188623 -64.565247 3
95.357542 144.195002 -68.669586 3
99.064687 144.196224 -72.631592 3
103.809765 145.780341 -79.896765 0
107.894926 146.687745 -85.503502 0
110.947154 146.260646 -88.136702 0
113.746747 145.540443 -90.081187 0
116.420637 144.690947 -91.700924 0
119.069840 143.862822 -93.314027 0
121.707589 143.078519 -94.966153 0
124.305744 142.287681 -96.557139 0
126.885724 141.527033 -98.161294 0
129.430851 140.762856 -99.713853 0
131.962164 140.035560 -101.293922 0
134.459709 139.301828 -102.819752 0
136.931317 138.575010 -104.318491 0
139.389934 137.884279 -105.844966 0
141.823100 137.198735 -107.342719 0
144.228184 136.507676 -108.794005 0
59.996035 143.813715 -21.643686 3
65.308488 144.197201 -28.142328 3
70.034914 144.192568 -33.423328 3
74.624539 144.214209 -38.574475 3
79.033662 144.207220 -43.470138 3
83.288767 144.188325 -48.164154 3
87.435055 144.199998 -52.767613 3
91.434620 144.190227 -57.165254 3
95.321179 144.190573 -61.439848 3
99.093785 144.192436 -65.578664 3
102.762976 144.202242 -69.603016 3
107.447131 145.827727 -77.039151 0
110.957343 145.971894 -81.058555 0
114.282437 145.982232 -84.672781 0
117.456187 145.888536 -87.961773 0
120.532189 145.761312 -91.085477 0
124.022884 146.506356 -95.903671 0
126.717773 145.971334 -98.006337 0
129.265450 145.236924 -99.651877 0
131.747022 144.435962 -101.119503 0
134.234970 143.710820 -102.693047 0
136.681127 142.959853 -104.173975 0
139.118000 142.252456 -105.697734 0
141.521971 141.532122 -107.157345 0
143.910169 140.837979 -108.627981 0
146.281877 140.168345 -110.106603 0
148.627927 139.495908 -111.543920 0
150.957659 138.845278 -112.985768 0
153.264223 138.193004 -114.390884 0
155.559503 137.577021 -115.827236 0
157.830321 136.949222 -117.210904 0
160.070588 136.276210 -118.486769 0
74.170181 144.201498 -29.943695 3
78.666405 144.188297 -35.063543 3
83.036688 144.201143 -40.062644 3
87.240394 144.185283 -44.815677 3
91.327885 144.189258 -49.451415 3
95.291970 144.197014 -53.938917 3
99.127266 144.192759 -58.249619 3
102.851130 144.190208 -62.423824 3
107.529048 145.722380 -69.912577 0
111.108332 145.882241 -74.137642 0
114.553097 145.994056 -78.129046 0
117.840453 146.005262 -81.784209 0
121.058144 146.045029 -85.392095 0
124.145070 145.999736 -88.717257 0
127.157945 145.956704 -91.952237 0
130.115108 145.945396 -95.161405 0
132.955701 145.837169 -98.087106 0
136.182664 146.707222 -102.880868 0
138.789054 146.391040 -105.218738 0
141.239529 145.810444 -106.981399 0
143.609776 145.108725 -108.465040 0
145.954206 144.407110 -109.909879 0
148.273859 143.704217 -111.315121 0
150.583863 143.041424 -112.759181 0
152.873412 142.387067 -114.183163 0
155.143567 141.741831 -115.589376 0
157.389094 141.083401 -116.938854 0
159.626937 140.471453 -118.339463 0
161.841572 139.845089 -119.683269 0
164.042354 139.238927 -121.032404 0
166.230561 138.659425 -122.398092 0
168.401373 138.081313 -123.737289 0
170.556837 137.511212 -125.062248 0
172.699163 136.960364 -126.392372 0
174.819504 136.358490 -127.612324 0
87.057613 144.193900 -36.576730 3
91.208054 144.177785 -41.382167 3
95.257755 144.198901 -46.111052 3
99.164656 144.196448 -50.623838 3
102.957837 144.198398 -54.997018 3
106.637640 144.196797 -59.219641 3
111.265556 145.788792 -66.928772 0
114.800529 145.952788 -71.208064 0
118.190136 146.045618 -75.199769 0
117.480007 139.207373 -63.973137 0
124.594292 146.051410 -82.443262 0
127.684229 146.073331 -85.947526 0
130.682652 146.066614 -89.292169 0
133.590211 146.020580 -92.462049 0
136.428448 145.969073 -95.533546 0
139.210032 145.933356 -98.553815 0
141.929852 145.896301 -101.491303 0
144.606823 145.899443 -104.431209 0
147.191064 145.805665 -107.107874 0
150.049052 146.658426 -111.532264 0
152.442940 146.342860 -113.635212 0
154.740187 145.829273 -115.315526 0
156.967181 145.162927 -116.671933 0
159.185658 144.539461 -118.074008 0
161.374326 143.876358 -119.371184 0
163.557933 143.268598 -120.737363 0
165.724039 142.665171 -122.080284 0
167.872815 142.062238 -123.394309 0
170.008281 141.477298 -124.711020 0
172.129943 140.906534 -126.024095 0
174.235506 140.330864 -127.301572 0
176.330048 139.783053 -128.599883 0
178.411395 139.246180 -129.890545 0
180.479866 138.719534 -131.172901 0
182.535414 138.196673 -132.436978 0
184.578523 137.673754 -133.677388 0
186.611069 137.179730 -134.941328 0
188.630235 136.602155 -136.050538 0
103.056672 144.189751 -47.216875 3
106.803430 144.190727 -51.637271 3
110.442381 144.193214 -55.917261 3
115.003608 145.823202 -63.802081 0
118.493423 145.987625 -68.129509 0
121.825649 146.052666 -72.102965 0
125.048792 146.083333 -75.881295 0
128.159431 146.059482 -79.429520 0
131.657274 146.969684 -84.878209 0
134.190428 146.091194 -86.389509 0
137.091074 146.095128 -89.698419 0
139.916851 146.082605 -92.882462 0
142.666856 146.040714 -95.920688 0
145.363178 146.014631 -98.910014 0
147.999144 145.980951 -101.806287 0
150.577028 145.937197 -104.608551 0
153.103932 145.896062 -107.345300 0
155.587939 145.877650 -110.057871 0
158.017011 145.835130 -112.658810 0
160.403273 145.802167 -115.215464 0
162.959853 146.677863 -119.395422 0
165.194530 146.419072 -121.401870 0
167.364856 145.992536 -123.058554 0
169.480100 145.390105 -124.362646 0
171.583749 144.814604 -125.685425 0
173.671041 144.235648 -126.973320 0
175.743246 143.653831 -128.228770 0
177.807410 143.123696 -129.546759 0
179.854895 142.569646 -130.797155 0
181.889729 142.016989 -132.024887 0
183.914421 141.494794 -133.279321 0
185.926844 140.967902 -134.501965 0
187.928523 140.453992 -135.722878 0
189.917448 139.744381 -136.605106 0
191.903276 138.893383 -137.245729 0
193.893728 137.873927 -137.609095 0
195.896173 136.709938 -137.740988 0
197.884208 136.059265 -138.671087 0
199.858210 135.572617 -139.839131 0
115.241240 145.728748 -56.166853 0
118.784249 145.885029 -60.662854 0
122.233290 146.057691 -65.056631 0
125.514193 146.103443 -69.029547 0
128.645248 146.028882 -72.614646 0
131.767261 146.092321 -76.396776 0
135.253899 147.106615 -82.133136 0
138.191218 147.158340 -85.649151 0
140.578170 146.068935 -86.654172 0
143.584002 146.579230 -90.966092 0
146.108631 146.033199 -92.986163 0
148.774659 145.991524 -95.977339 0
151.432052 146.092929 -99.178098 0
153.988214 146.058611 -102.027487 0
156.491761 146.019042 -104.794698 0
158.948272 145.985319 -107.504644 0
161.354301 145.936178 -110.118997 0
163.720362 145.904777 -112.704340 0
166.041798 145.864393 -115.211982 0
168.324875 145.835597 -117.683052 0
170.570329 145.816198 -120.115125 0
172.776672 145.788781 -122.478252 0
175.070403 146.677430 -126.432837 0
177.180407 146.567061 -128.529265 0
179.240111 146.251526 -130.220725 0
181.267960 145.810771 -131.659110 0
183.271722 145.249924 -132.861343 0
185.265962 144.724389 -134.099512 0
187.248932 144.208191 -135.329018 0
189.218739 143.563934 -136.321139 0
191.182303 142.782946 -137.068858 0
193.147933 141.788337 -137.453855 0
195.122114 140.712297 -137.701099 0
197.104704 139.649159 -137.966163 0
199.057034 139.228218 -139.248669 0
200.998495 138.821044 -140.530904 0
202.980443 137.863974 -140.934345 0
205.028910 136.345863 -140.466606 0
119.622172 146.674168 -55.007435 0
122.701514 146.139658 -57.897053 0
125.822231 145.798016 -61.139943 0
129.155843 146.006124 -65.538703 0
132.320268 146.061099 -69.460452 0
135.381126 146.069775 -73.163292 0
138.365559 146.077176 -76.755707 0
141.285852 146.103896 -80.287470 0
144.509275 147.085496 -85.763533 0
147.101477 146.648823 -88.097074 0
149.969011 147.132022 -92.284576 0
152.581217 147.072695 -95.244890 0
155.169204 147.110280 -98.324912 0
157.599825 146.782853 -100.592026 0
159.938868 146.247282 -102.387349 0
162.342808 146.096461 -104.892212 0
164.726188 146.038553 -107.515984 0
167.073872 146.015604 -110.143827 0
169.375259 145.969652 -112.666051 0
171.640865 145.946210 -115.171980 0
173.868269 145.925126 -117.625142 0
176.053221 145.860377 -119.943149 0
178.209563 145.843988 -122.297803 0
180.332652 145.836423 -124.617246 0
182.420766 145.800543 -126.836883 0
184.478445 145.766917 -129.013904 0
186.506249 145.719437 -131.121872 0
188.529596 146.693816 -134.948115 0
190.484974 146.379172 -136.498518 0
192.427663 145.671405 -137.354642 0
194.375291 144.648059 -137.667008 0
196.336060 143.485182 -137.743368 0
198.278668 142.857018 -138.696501 0
200.199438 142.478888 -140.039018 0
202.130626 141.857231 -140.966096 0
204.137295 140.468062 -140.654859 0
206.178622 138.957441 -140.160132 0
208.280669 137.169050 -139.242877 0
133.188938 146.633951 -63.634650 0
136.006639 146.044079 -66.109619 0
138.929983 145.809359 -69.307875 0
141.987781 146.057564 -73.485334 0
144.868603 146.059444 -77.004256 0
147.689458 146.081110 -80.467256 0
150.433985 146.068743 -83.762089 0
153.122116 146.068678 -86.993586 0
155.753484 146.072854 -90.147906 0
158.587066 147.022376 -95.167269 0
161.107538 147.095531 -98.277170 0
163.575793 147.172224 -101.315835 0
165.963308 147.107415 -103.997955 0
168.337510 147.197969 -106.919664 0
170.459974 146.100501 -107.463622 0
