ply
format ascii 1.0
element vertex 1334
property float x
property float y
property float z
property int scalar_Label
end_header
-172.445598 144.123079 139.294747 0
-171.852838 146.599206 139.508442 0
-168.794918 145.700897 138.932971 0
-166.350517 145.695345 138.561885 0
-163.893309 145.721108 138.193905 0
-161.354336 145.690538 137.807785 0
-158.803415 145.695403 137.425467 0
-156.213569 145.702491 137.038791 0
-153.570297 145.696105 136.643655 0
-150.876787 145.682562 136.241354 0
-148.863085 146.502049 136.046144 0
-146.290372 146.713565 135.692601 0
-143.489964 146.719324 135.280619 0
-140.621376 146.705674 134.857388 0
-136.790880 145.727520 134.171297 0
-133.712193 145.626038 133.708617 0
-130.711778 145.666280 133.276838 0
-127.628978 145.681590 132.831177 0
-124.476913 145.688512 132.375711 0
-121.280131 145.713468 131.917451 0
-117.975065 145.697837 131.439650 0
-115.680878 146.681788 131.238929 0
-174.232052 136.601483 140.983910 0
-174.883470 141.058140 141.580670 0
-175.483582 145.304755 142.147609 0
-174.133867 146.690594 142.106986 0
-171.060751 145.698857 141.546590 0
-168.668942 145.709778 141.200697 0
-166.216925 145.687619 140.843673 0
-163.736592 145.677165 140.485283 0
-161.248957 145.705990 140.131750 0
-158.699753 145.706068 139.767482 0
-156.115784 145.713399 139.400505 0
-153.460721 145.685953 139.020802 0
-151.658855 146.708835 138.885972 0
-148.962248 146.717480 138.507492 0
-146.143408 146.640809 138.103247 0
-143.424258 146.730437 137.734067 0
-139.649034 145.728787 137.089645 0
-136.658603 145.653473 136.666075 0
-133.688369 145.658667 136.256439 0
-130.690185 145.692804 135.847950 0
-127.606201 145.698524 135.425786 0
-124.457964 145.700825 134.995967 0
-121.229993 145.687322 134.554922 0
-119.025424 146.701968 134.380042 0
-177.313322 137.943145 143.882387 0
-177.872035 142.267965 144.404835 0
-178.179832 146.093558 144.842100 0
-176.308303 146.692448 144.641517 0
-173.292447 145.709290 144.118353 0
-170.919967 145.693472 143.787059 0
-168.542560 145.717535 143.460813 0
-166.089580 145.687601 143.120038 0
-163.616295 145.679817 142.780396 0
-161.117007 145.687306 142.440414 0
-158.562408 145.674472 142.092349 0
-155.979278 145.676769 141.743660 0
-154.210656 146.700212 141.616219 0
-150.720984 145.722621 141.043253 0
-148.903762 146.751574 140.913199 0
-145.177422 145.647188 140.298222 0
-142.422244 145.709164 139.941346 0
-139.571446 145.719756 139.567916 0
-136.584713 145.641142 139.168501 0
-133.641428 145.667025 138.788122 0
-130.620887 145.670487 138.396947 0
-127.583542 145.715418 138.010028 0
-124.420929 145.695278 137.601407 0
-122.243936 146.684563 137.435602 0
-180.158879 139.032082 146.654150 0
-180.519553 143.066274 147.076704 0
-180.432817 146.311901 147.367111 0
-178.267540 146.439043 147.087860 0
-175.458078 145.685175 146.641261 0
-173.140436 145.693909 146.333946 0
-170.806246 145.724644 146.028273 0
-168.401406 145.704927 145.710229 0
-165.966717 145.692992 145.390792 0
-163.504764 145.693303 145.070767 0
-160.975669 145.656343 144.740219 0
-158.477687 145.707732 144.424123 0
-156.705811 146.688508 144.294243 0
-153.295820 145.729144 143.765629 0
-151.447172 146.681434 143.626851 0
-148.782090 146.712918 143.294915 0
-145.138460 145.695840 142.736671 0
-142.370413 145.735509 142.396465 0
-139.406925 145.616555 142.017789 0
-136.567251 145.688394 141.675868 0
-133.585327 145.665662 141.308705 0
-130.590837 145.688023 140.946657 0
-127.551009 145.722293 140.582342 0
-125.399961 146.685921 140.424878 0
-181.990214 138.617660 149.107329 0
-182.200523 142.456213 149.451795 0
-182.303767 146.016156 149.761162 0
-180.433307 146.539903 149.563975 0
-177.606544 145.693533 149.130793 0
-175.312381 145.684310 148.838272 0
-172.984770 145.672953 148.543261 0
-170.651029 145.698465 148.252584 0
-168.258845 145.689992 147.953621 0
-165.854918 145.712466 147.657862 0
-163.390180 145.702401 147.353733 0
-160.907177 145.717042 147.051545 0
-158.367358 145.708838 146.742423 0
-156.047674 146.017048 146.490279 0
-153.670436 146.294312 146.230471 0
-151.383563 146.716572 145.996673 0
-147.824103 145.716557 145.483914 0
-145.066942 145.707607 145.159100 0
-142.229693 145.663694 144.823781 0
-139.374618 145.656008 144.491909 0
-136.489541 145.671583 144.160913 0
-133.563913 145.700156 143.828668 0
-130.530114 145.674135 143.481056 0
-128.480814 146.690895 143.347663 0
-183.177377 137.204242 151.387762 0
-183.288333 140.941273 151.672631 0
-183.387462 144.546897 151.948575 0
-182.583249 146.677319 152.006355 0
-179.713090 145.697520 151.581877 0
-177.450941 145.684001 151.305841 0
-175.190650 145.717093 151.035651 0
-172.863099 145.699012 150.755616 0
-170.513119 145.695566 150.476167 0
-168.146523 145.715180 150.198689 0
-165.727127 145.710496 149.915286 0
-163.260353 145.691474 149.627421 0
-160.787020 145.712062 149.344141 0
-158.234244 145.681401 149.049864 0
-156.438184 146.618538 148.922089 0
-153.928190 146.719304 148.647795 0
-150.416565 145.697448 148.171242 0
-147.722498 145.700991 147.872916 0
-144.987394 145.710096 147.572834 0
-142.149185 145.657988 147.258621 0
-139.314449 145.665137 146.952179 0
-136.444383 145.689065 146.645737 0
-133.499774 145.690086 146.331721 0
-131.464335 146.673683 146.202619 0
-183.989039 138.798329 153.819005 0
-184.038264 142.392042 154.051293 0
-184.214923 146.075355 154.306681 0
-181.779377 145.697404 153.996881 0
-179.563893 145.703030 153.739842 0
-177.289433 145.665488 153.475447 0
-175.031926 145.696770 153.219845 0
-172.730935 145.709981 152.960414 0
-170.378176 145.696332 152.695673 0
-167.983056 145.671488 152.427790 0
-165.591130 145.697403 152.166127 0
-163.152266 145.708179 151.900646 0
-160.669572 145.710178 151.632186 0
-158.120135 145.677190 151.356466 0
-156.376568 146.670696 151.243075 0
-152.969453 145.697264 150.813064 0
-150.298125 145.668733 150.532151 0
-147.628721 145.694148 150.257947 0
-144.859855 145.658532 149.971434 0
-142.078760 145.663169 149.689272 0
-139.260097 145.680342 149.406837 0
-136.391328 145.698002 149.122003 0
-134.396458 146.677398 149.002025 0
-186.355979 135.728490 156.138531 0
-186.387693 139.416473 156.334406 0
-186.694871 143.433778 156.581721 0
-186.588261 146.672694 156.743009 0
-183.759897 145.620841 156.368847 0
-181.605676 145.671753 156.132547 0
-179.431307 145.732704 155.897039 0
-177.141975 145.667005 155.644337 0
-174.904016 145.719886 155.406426 0
-172.543702 145.643934 155.150498 0
-170.224759 145.671556 154.907531 0
-167.868613 145.693096 154.662844 0
-165.434035 145.656371 154.409079 0
-163.031783 145.708618 154.166626 0
-160.583830 145.747941 153.921327 0
-158.026353 145.697813 153.662038 0
-155.476905 145.707415 153.409966 0
-152.856196 145.680819 153.151208 0
-150.197496 145.660571 152.891837 0
-147.540734 145.693707 152.638872 0
-144.788435 145.669721 152.375696 0
-142.022698 145.683946 152.116581 0
-139.219576 145.710277 151.857572 0
-137.257006 146.678750 151.744530 0
-188.396865 139.462198 158.740026 0
-188.381386 142.980371 158.888026 0
-188.288622 146.267162 159.020295 0
-185.839784 145.752580 158.735068 0
-183.659402 145.713280 158.502198 0
-181.478047 145.715312 158.273726 0
-179.222980 145.650064 158.037126 0
-177.026997 145.715202 157.815380 0
-174.765999 145.728290 157.587218 0
-172.424167 145.671829 157.350252 0
-170.080171 145.658565 157.117919 0
-167.700574 145.642799 156.884700 0
-165.345493 145.704885 156.660590 0
-162.945101 145.752172 156.434140 0
-160.460286 145.737804 156.199229 0
-157.937872 145.724697 155.963681 0
-155.358384 145.690844 155.724557 0
-152.760249 145.684722 155.488129 0
-150.143098 145.706035 155.254415 0
-147.462785 145.704535 155.016665 0
-144.716475 145.680109 154.774695 0
-141.984575 145.724246 154.540997 0
-140.043426 146.671807 154.432656 0
-188.524592 136.347379 160.820011 0
-188.566002 140.049813 160.943602 0
-188.528254 143.506715 161.053764 0
-188.198586 146.391048 161.117489 0
-185.673458 145.749039 160.839732 0
-183.515255 145.738026 160.623770 0
-181.333787 145.733410 160.408544 0
-179.105617 145.701570 160.190575 0
-176.853013 145.677704 159.973395 0
-174.658863 145.780146 159.769519 0
-171.234223 144.213460 159.387045 0
-169.018889 144.398011 159.190277 0
-167.711356 145.830892 159.130996 0
-165.190377 145.666001 158.897780 0
-162.818578 145.744327 158.691292 0
-160.336669 145.727374 158.473929 0
-157.784192 145.670930 158.251688 0
-155.266910 145.706805 158.039730 0
-152.671738 145.697248 157.822139 0
-150.036782 145.690851 157.604479 0
-147.380183 145.709867 157.389399 0
-144.793839 145.857504 157.189542 0
-142.718707 146.612527 157.064446 0
-188.440531 136.526518 163.007786 0
-188.365225 140.017167 163.079252 0
-188.386981 143.559879 163.164532 0
-188.059780 146.436218 163.202922 0
-185.484951 145.710508 162.939548 0
-183.323916 145.690024 162.736338 0
-181.145505 145.685031 162.534919 0
-178.907290 145.633430 162.329753 0
-176.744211 145.734176 162.138734 0
-174.442677 145.677388 161.933832 0
-171.082272 144.197595 161.596170 0
-168.727569 144.186618 161.394255 0
-167.466109 145.677231 161.336687 0
-165.118443 145.735670 161.143921 0
-162.653650 145.687110 160.941020 0
-160.204651 145.706225 160.744964 0
-157.694990 145.696515 160.546240 0
-155.139886 145.679613 160.346919 0
-152.590822 145.718595 160.153462 0
-149.958812 145.708489 159.955066 0
-147.506951 145.953847 159.783746 0
-145.403288 146.629923 159.659177 0
-188.040960 139.778576 165.200217 0
-188.061621 143.312242 165.251429 0
-187.825952 146.329225 165.274933 0
-185.266900 145.625696 165.035593 0
-183.137043 145.648839 164.849196 0
-180.989189 145.684620 164.664633 0
-178.786015 145.678665 164.477779 0
-176.549454 145.666420 164.291220 0
-174.320563 145.707633 164.109612 0
-172.072355 145.763152 163.930002 0
-169.681102 145.665537 163.738871 0
-167.309683 145.641966 163.554320 0
-164.969401 145.704409 163.377582 0
-162.580705 145.747568 163.200053 0
-160.093824 145.711562 163.016534 0
-157.579434 145.689471 162.834800 0
-155.047853 145.694574 162.656046 0
-152.462557 145.683697 162.476513 0
-150.155457 146.045047 162.331043 0
-147.966701 146.576953 162.202497 0
-187.476222 139.140553 167.304088 0
-187.422036 142.553422 167.314595 0
-187.397688 145.912302 167.330755 0
-185.719987 146.589594 167.195536 0
-183.000342 145.684452 166.966846 0
-180.812247 145.653173 166.791407 0
-178.622451 145.661533 166.619570 0
-176.441220 145.723290 166.452335 0
-174.210195 145.754259 166.284388 0
-171.903739 145.722130 166.113490 0
-169.548921 145.668699 165.942240 0
-167.255215 145.742221 165.780679 0
-164.847329 145.708258 165.612966 0
-162.448613 145.732173 165.450382 0
-159.965604 145.694968 165.284621 0
-157.490040 145.714507 165.124012 0
-154.940938 145.691449 164.961445 0
-152.767416 146.161364 164.836576 0
-150.475168 146.523943 164.705681 0
-186.527915 137.867638 169.396614 0
-186.563890 141.441746 169.381486 0
-186.602761 144.912774 169.370626 0
-185.636377 146.713202 169.290681 0
-182.851558 145.701442 169.082226 0
-180.659606 145.658141 168.920280 0
-178.495557 145.698185 168.763910 0
-176.270986 145.690806 168.606762 0
-174.030419 145.702886 168.452140 0
-171.755706 145.709573 168.298803 0
-169.418423 145.674062 168.144773 0
-167.148782 145.773168 167.999545 0
-164.733200 145.722370 167.847778 0
-162.309896 145.708270 167.699548 0
-159.826369 145.664526 167.551177 0
-157.388333 145.724292 167.410318 0
-155.267020 146.210245 167.296263 0
-152.864368 146.392371 167.166518 0
-185.302329 139.679001 171.456961 0
-185.312414 143.128899 171.411325 0
-185.160812 146.226015 171.362315 0
-183.250484 146.554026 171.225911 0
-180.507062 145.663243 171.049040 0
-178.352929 145.711680 170.906385 0
-176.132672 145.704230 170.763651 0
-173.908401 145.732921 170.624191 0
-171.608515 145.698185 170.484253 0
-169.260240 145.641929 170.345348 0
-167.017976 145.771682 170.215838 0
-164.622977 145.741500 170.081921 0
-162.189360 145.707575 169.949798 0
-159.734348 145.693196 169.820480 0
-157.773723 146.332115 169.721743 0
-183.474679 137.005000 173.562088 0
-183.530802 140.571252 173.484309 0
-183.536768 143.954707 173.411260 0
-178.274547 139.216182 173.174837 0
-180.376025 145.700493 173.178908 0
-178.230226 145.754336 173.049640 0
-176.009657 145.739598 172.921113 0
-173.747527 145.708291 172.794449 0
-171.428500 145.641611 172.669165 0
-169.175262 145.708818 172.549583 0
-166.820458 145.681799 172.429963 0
-164.490081 145.731126 172.314790 0
-162.404910 146.135355 172.212072 0
-160.414550 146.687544 172.116635 0
-181.165208 137.096832 175.619561 0
-181.355445 140.825640 175.514986 0
-176.493980 136.761115 175.357433 0
-180.758398 146.503021 175.315441 0
-178.624425 146.552127 175.199815 0
-175.844125 145.714076 175.077955 0
-173.602703 145.706340 174.966506 0
-171.299933 145.656066 174.857258 0
-169.017310 145.677110 174.751540 0
-166.651775 145.630336 174.647757 0
-165.017770 146.578564 174.560031 0
-177.513287 138.565986 177.583872 0
-177.676117 142.146600 177.456451 0
-177.989902 145.847074 177.336234 0
-176.338614 146.632704 177.233718 0
-174.140029 146.661023 177.137328 0
-167.040455 139.990915 177.059071 0
-169.506071 146.517579 176.954205 0
-167.231120 146.568297 176.867092 0
53.435433 -31.605694 -42.142262 9
50.922830 -31.224985 -42.000365 9
48.583414 -29.356040 -42.020019 9
45.446572 -34.595418 -41.318632 9
42.905685 -34.830515 -41.141307 9
40.370957 -35.093255 -40.969987 9
37.849391 -35.300882 -40.812983 9
35.335812 -35.498761 -40.665602 9
32.830314 -35.674404 -40.529019 9
30.331080 -35.842735 -40.401670 9
27.835889 -36.040243 -40.279883 9
25.349257 -36.149240 -40.175265 9
22.865093 -36.295631 -40.075297 9
20.385987 -36.362605 -39.991446 9
17.908209 -36.499343 -39.909014 9
15.433067 -36.554266 -39.842834 9
12.959479 -36.676864 -39.778262 9
10.486192 -36.728244 -39.728836 9
8.012453 -36.764088 -39.689100 9
5.537508 -36.786173 -39.658872 9
3.061455 -36.813261 -39.636327 9
0.584319 -36.850503 -39.620971 9
-1.897006 -36.851991 -39.617262 9
-4.385169 -36.800632 -39.626870 9
-6.872894 -36.806178 -39.639168 9
-9.365808 -36.795227 -39.661295 9
-11.868228 -36.733777 -39.696586 9
-14.372976 -36.702981 -39.737187 9
-16.879813 -36.701283 -39.783272 9
-19.410227 -36.559294 -39.851410 9
-21.946933 -36.433133 -39.926447 9
-24.486678 -36.344812 -40.006260 9
-27.038489 -36.232902 -40.096925 9
-29.602089 -36.105706 -40.197701 9
-32.178050 -35.964977 -40.308492 9
-34.769826 -35.796584 -40.430790 9
-37.372841 -35.630485 -40.561707 9
-39.987877 -35.464857 -40.701505 9
-42.623250 -35.262905 -40.853979 9
-45.265745 -35.090809 -41.012563 9
-47.961213 -34.749700 -41.197583 9
-51.246336 -32.043388 -41.634667 9
-54.012950 -31.650901 -41.845555 9
65.933274 -20.243914 -40.904962 9
62.115287 -27.035736 -40.037636 9
58.880299 -30.933323 -39.462531 9
55.799710 -34.317897 -38.949854 9
52.959122 -36.451682 -38.566716 9
50.262373 -37.812648 -38.266206 9
47.701665 -38.280488 -38.057682 9
45.153045 -38.763967 -37.856594 9
42.652124 -38.904912 -37.695316 9
40.157104 -39.056899 -37.541378 9
37.667191 -39.228288 -37.393991 9
35.184745 -39.387909 -37.255903 9
32.713537 -39.463990 -37.133412 9
30.242262 -39.616833 -37.012217 9
27.779203 -39.698632 -36.905359 9
25.319080 -39.792122 -36.805479 9
22.861721 -39.900679 -36.712263 9
20.408155 -39.965211 -36.630833 9
17.956053 -40.075440 -36.553349 9
15.506156 -40.121347 -36.489337 9
13.056967 -40.168047 -36.433121 9
10.608919 -40.257592 -36.381065 9
8.160507 -40.309500 -36.340101 9
5.709193 -40.294125 -36.312755 9
3.259407 -40.354632 -36.286721 9
0.804870 -40.348178 -36.274271 9
-1.652724 -40.335352 -36.270207 9
-4.114579 -40.307700 -36.275267 9
-6.574581 -40.348497 -36.282323 9
-9.043201 -40.328375 -36.302493 9
-11.519356 -40.278544 -36.333130 9
-13.999729 -40.240106 -36.370732 9
-16.492568 -40.145167 -36.421185 9
-18.979449 -40.151664 -36.470901 9
-21.483938 -40.072184 -36.536102 9
-23.997050 -39.986617 -36.609945 9
-26.513702 -39.931172 -36.689330 9
-29.035435 -39.894167 -36.775305 9
-31.582505 -39.759985 -36.878060 9
-34.138024 -39.637014 -36.988201 9
-36.698137 -39.545800 -37.103964 9
-39.282530 -39.387795 -37.234154 9
-41.868373 -39.280978 -37.368379 9
-44.478365 -39.119260 -37.516195 9
-47.108111 -38.930402 -37.675259 9
-49.865405 -38.275009 -37.885727 9
-52.795797 -37.028052 -38.159987 9
-56.080712 -34.564448 -38.556983 9
-59.813745 -30.673061 -39.098952 9
-64.995432 -21.949385 -40.107974 9
-69.892348 -14.841245 -40.986636 9
68.031417 -24.844519 -37.474867 9
64.611056 -29.114330 -36.891432 9
61.412227 -32.577176 -36.390895 9
58.329775 -35.757725 -35.927456 9
55.400395 -38.346294 -35.525652 9
52.638651 -40.111046 -35.202900 9
50.020328 -41.057110 -34.956931 9
47.446593 -41.821982 -34.734745 9
44.975528 -41.823614 -34.582411 9
42.497413 -41.943173 -34.428625 9
40.027201 -42.047284 -34.284040 9
37.560591 -42.178344 -34.145256 9
35.092826 -42.406573 -34.006788 9
32.644345 -42.444625 -33.890984 9
30.193144 -42.595036 -33.774236 9
27.749915 -42.679614 -33.670310 9
25.309865 -42.770457 -33.573589 9
22.873371 -42.844952 -33.485771 9
20.439007 -42.936041 -33.404314 9
18.006996 -43.024189 -33.330686 9
15.576781 -43.005481 -33.272692 9
13.147292 -43.107822 -33.213122 9
10.717415 -43.119060 -33.167941 9
8.288704 -43.197069 -33.125279 9
5.856899 -43.189228 -33.096565 9
3.423452 -43.186001 -33.075018 9
0.990004 -43.221798 -33.058078 9
-1.447078 -43.230147 -33.050712 9
-3.886272 -43.247262 -33.050228 9
-6.331962 -43.222337 -33.060431 9
-8.780706 -43.209614 -33.077294 9
-11.236711 -43.168362 -33.103880 9
-13.698174 -43.125704 -33.138196 9
-16.158694 -43.138734 -33.175987 9
-18.634362 -43.074323 -33.227272 9
-21.118929 -42.996148 -33.287328 9
-23.607852 -42.940399 -33.353471 9
-26.105553 -42.877747 -33.427958 9
-28.609284 -42.828458 -33.509298 9
-31.122015 -42.776055 -33.598794 9
-33.658356 -42.644670 -33.702336 9
-36.190474 -42.590873 -33.807980 9
-38.748044 -42.461027 -33.927631 9
-42.487444 -36.864705 -34.482450 9
-43.897488 -42.208630 -34.191149 9
-46.493500 -42.071903 -34.336290 9
-49.129389 -41.826237 -34.498594 9
-51.982472 -40.784077 -34.733464 9
-55.026205 -39.137336 -35.026934 9
-58.458446 -36.226370 -35.434031 9
-62.203344 -32.455167 -35.924369 9
-66.191981 -28.150625 -36.473071 9
-70.702420 -22.447515 -37.154023 9
92.168029 -5.589556 -37.580891 5
88.561123 -8.335164 -37.063866 5
85.265004 -10.025555 -36.644599 5
82.101784 -11.318758 -36.268865 5
79.029094 -12.356542 -35.924488 5
76.007635 -13.292701 -35.598954 5
70.538646 -26.981603 -34.330009 9
67.193256 -30.626135 -33.835544 9
63.981473 -33.950571 -33.378731 9
60.920046 -36.794555 -32.970082 9
57.935638 -39.535761 -32.581083 9
55.105219 -41.626509 -32.250166 9
52.410666 -43.061438 -31.976142 9
49.818358 -43.955186 -31.749542 9
47.305734 -44.366168 -31.565180 9
44.844124 -44.428814 -31.412879 9
42.382745 -44.547532 -31.264416 9
39.930467 -44.637659 -31.125559 9
37.479497 -44.779415 -30.990819 9
35.035212 -44.912933 -30.864220 9
32.600077 -44.989515 -30.748933 9
30.168890 -45.068350 -30.640944 9
27.741440 -45.146534 -30.540410 9
25.316195 -45.254894 -30.445285 9
22.896385 -45.289617 -30.362313 9
20.477700 -45.356667 -30.284548 9
18.060968 -45.417265 -30.214493 9
15.645614 -45.466770 -30.152424 9
13.230985 -45.510105 -30.098001 9
10.816574 -45.550348 -30.051015 9
8.401776 -45.582970 -30.011744 9
5.986254 -45.615246 -29.979718 9
3.567395 -45.599495 -29.957964 9
1.148461 -45.625473 -29.940779 9
-1.271741 -45.663125 -29.930083 9
-3.697210 -45.659417 -29.929247 9
-6.129272 -45.616956 -29.938120 9
-8.560110 -45.636390 -29.950333 9
-10.998193 -45.621493 -29.972013 9
-13.440051 -45.615855 -30.000416 9
-15.893092 -45.559140 -30.039416 9
-18.353580 -45.494417 -30.086312 9
-20.813692 -45.482717 -30.137230 9
-23.282053 -45.458672 -30.196385 9
-25.766919 -45.374806 -30.266895 9
-28.257688 -45.307339 -30.343906 9
-30.757073 -45.240780 -30.428466 9
-33.264453 -45.180745 -30.520261 9
-35.788367 -45.084890 -30.622134 9
-38.324285 -44.982580 -30.732242 9
-40.868678 -44.893332 -30.849358 9
-43.431193 -44.774538 -30.976400 9
-45.992558 -44.714408 -31.107518 9
-48.603259 -44.500502 -31.257185 9
-52.896050 -37.700118 -31.867694 9
-56.215225 -35.154432 -32.199401 9
-57.478137 -40.380627 -31.999535 9
-60.975394 -37.379151 -32.381852 9
-64.658073 -33.993179 -32.804106 9
-68.558463 -30.157282 -33.272195 9
-75.822461 -15.847302 -34.515443 8
-78.944179 -15.326720 -34.777930 8
-82.152076 -14.630402 -35.064088 8
-85.414883 -13.867401 -35.366356 8
-88.744559 -13.011887 -35.687072 8
-92.144638 -12.064282 -36.026674 8
-95.664066 -10.903611 -36.395058 8
-99.349421 -9.428394 -36.801087 8
-103.320342 -7.363198 -37.267948 8
104.737955 -14.562219 -35.056447 5
101.498579 -15.604681 -34.648511 5
98.373395 -16.369597 -34.272717 5
95.276365 -17.140008 -33.907891 5
92.228163 -17.835129 -33.559491 5
89.245475 -18.377514 -33.232427 5
86.274134 -18.969056 -32.912373 5
83.342165 -19.493106 -32.607113 5
80.440809 -19.977354 -32.314475 5
77.575141 -20.389975 -32.036281 5
74.710397 -20.888107 -31.762102 5
69.850351 -31.721083 -30.840950 9
66.633771 -34.853151 -30.428471 9
63.560149 -37.559032 -30.055320 9
60.607256 -39.895195 -29.716763 9
57.706105 -42.229897 -29.389418 9
54.908471 -44.208084 -29.094289 9
52.246924 -45.517541 -28.848948 9
49.693669 -46.224026 -28.648094 9
47.192171 -46.654709 -28.471509 9
44.748841 -46.677614 -28.326224 9
42.299756 -46.808242 -28.182116 9
39.865184 -46.854020 -28.050187 9
37.430899 -46.953611 -27.922490 9
35.003066 -47.037748 -27.802910 9
32.578689 -47.140086 -27.689524 9
30.157386 -47.269354 -27.581836 9
27.745543 -47.293328 -27.487045 9
25.333386 -47.389069 -27.395419 9
22.924561 -47.480972 -27.311072 9
20.519665 -47.508412 -27.237222 9
18.116054 -47.523949 -27.170992 9
15.713006 -47.537799 -27.111817 9
13.310741 -47.619833 -27.055987 9
10.908785 -47.664960 -27.009071 9
8.505367 -47.660255 -26.971721 9
6.103082 -47.723636 -26.937725 9
3.696853 -47.713181 -26.914539 9
1.288244 -47.701052 -26.898372 9
-1.120829 -47.723783 -26.887320 9
-3.533674 -47.728938 -26.884137 9
-5.950212 -47.728174 -26.888226 9
-8.370380 -47.728329 -26.899243 9
-10.796776 -47.707600 -26.918352 9
-13.228108 -47.686571 -26.944497 9
-15.667963 -47.638921 -26.979092 9
-18.106733 -47.647765 -27.017791 9
-20.553675 -47.638111 -27.064570 9
-23.015085 -47.573881 -27.121392 9
-25.480260 -47.535401 -27.184043 9
-27.954925 -47.486686 -27.254481 9
-30.438580 -47.434709 -27.332385 9
-32.934064 -47.367113 -27.418480 9
-35.431564 -47.338651 -27.509847 9
-37.958397 -47.212977 -27.613997 9
-40.476921 -47.180528 -27.720562 9
-43.017236 -47.097321 -27.837528 9
-45.572293 -47.001797 -27.962870 9
-48.167985 -46.791237 -28.102508 9
-50.868070 -46.229424 -28.270225 9
-53.763863 -45.010787 -28.484353 9
-56.836337 -43.278123 -28.737823 9
-60.189973 -40.718658 -29.050215 9
-63.686730 -37.890370 -29.390096 9
-67.356020 -34.725916 -29.762398 9
-74.083196 -22.044208 -30.728134 8
-77.006982 -21.973246 -30.942872 8
-80.011823 -21.714285 -31.178751 8
-83.087716 -21.315117 -31.433324 8
-86.175894 -20.956022 -31.695534 8
-89.312348 -20.536795 -31.971961 8
-92.502501 -20.049986 -32.263434 8
-95.720836 -19.569417 -32.565396 8
-99.001987 -19.009123 -32.883858 8
-102.308155 -18.470463 -33.212296 8
-105.928096 -17.261503 -33.599185 8
106.166240 -20.563535 -31.605424 5
102.932707 -21.662323 -31.210363 5
99.906528 -22.182198 -30.862843 5
96.921200 -22.647211 -30.529112 5
94.100691 -22.595519 -30.236250 5
91.270107 -22.630390 -29.947319 5
88.466297 -22.614434 -29.670349 5
85.686858 -22.549099 -29.405001 5
82.914148 -22.501235 -29.147321 5
80.103580 -22.669267 -28.886408 5
77.289800 -22.918622 -28.629964 5
74.487224 -23.187866 -28.381340 5
69.371477 -35.349238 -27.520338 9
66.312015 -37.765962 -27.187704 9
63.314017 -40.143329 -26.868455 9
60.386883 -42.414361 -26.565580 9
57.540789 -44.491312 -26.282925 9
54.797655 -46.185315 -26.029059 9
52.160190 -47.394961 -25.807915 9
49.615613 -48.109584 -25.618942 9
47.123622 -48.544560 -25.451039 9
45.183457 -44.126816 -25.515834 9
42.263150 -48.586665 -25.175750 9
39.839880 -48.610813 -25.048468 9
37.412472 -48.737024 -24.923548 9
34.992501 -48.841403 -24.806598 9
32.580185 -48.904832 -24.698391 9
30.174250 -48.922502 -24.599051 9
27.767012 -49.024808 -24.502842 9
25.366174 -49.055552 -24.416543 9
22.967871 -49.068486 -24.337764 9
20.570714 -49.090646 -24.265319 9
18.173997 -49.183235 -24.196613 9
15.779273 -49.226984 -24.136688 9
13.385111 -49.256233 -24.084062 9
10.991047 -49.288912 -24.037970 9
8.596338 -49.309026 -23.999069 9
6.200352 -49.319612 -23.967225 9
3.802015 -49.311691 -23.942804 9
1.404958 -49.367317 -23.922425 9
-0.999060 -49.337797 -23.912222 9
-3.403671 -49.346797 -23.907109 9
-5.810416 -49.367746 -23.908192 9
-8.224452 -49.345611 -23.917750 9
-10.636397 -49.388454 -23.931351 9
-13.061252 -49.348499 -23.955107 9
-15.490412 -49.319925 -23.985163 9
-17.922509 -49.314053 -24.021074 9
-20.360185 -49.310319 -24.063719 9
-22.807773 -49.282012 -24.114249 9
-25.260925 -49.263763 -24.171257 9
-27.726045 -49.218219 -24.236359 9
-30.200351 -49.167985 -24.308657 9
-32.684851 -49.110770 -24.388302 9
-35.172019 -49.088311 -24.473547 9
-37.673565 -49.041022 -24.567011 9
-40.191840 -48.963457 -24.669019 9
-42.706265 -48.953153 -24.775338 9
-45.247410 -48.873485 -24.892076 9
-47.824615 -48.696479 -25.020664 9
-50.500456 -48.189031 -25.171998 9
-53.313441 -47.244092 -25.351641 9
-56.347504 -45.604493 -25.572492 9
-59.555861 -43.510371 -25.824526 9
-62.917394 -41.082619 -26.102995 9
-66.464382 -38.250863 -26.412246 9
-70.052113 -35.518351 -26.728560 9
-76.711008 -23.522388 -27.520907 8
-79.657070 -23.421227 -27.735053 8
-82.629393 -23.301005 -27.959377 8
-85.598857 -23.247379 -28.189570 8
-88.622070 -23.101483 -28.434057 8
-91.653150 -22.995051 -28.686092 8
-94.724451 -22.842925 -28.950403 8
-97.816181 -22.700526 -29.224175 8
-100.923170 -22.581655 -29.506760 8
-104.111455 -22.328417 -29.807394 8
-108.247499 -19.932762 -30.244884 8
117.052320 -6.628632 -29.688714 5
116.901592 2.412070 -29.817631 6
105.655978 -23.299398 -28.123913 5
104.012906 -19.227718 -28.017122 5
99.695766 -24.015435 -27.468029 5
96.745618 -24.386018 -27.154169 5
93.830461 -24.708329 -26.852239 5
102.390303 18.262579 -28.592493 5
88.075381 -25.292589 -26.279124 5
85.237188 -25.537708 -26.008313 5
82.416293 -25.780950 -25.746412 5
79.609487 -26.033786 -25.492801 5
76.823847 -26.262145 -25.248837 5
74.065319 -26.431108 -25.015809 5
69.086348 -37.960270 -24.325790 9
66.074021 -40.204951 -24.034157 9
63.125864 -42.377470 -23.756102 9
60.247666 -44.427139 -23.493187 9
57.423943 -46.425531 -23.242196 9
54.722590 -47.903444 -23.020405 9
52.090809 -49.129307 -22.816740 9
49.565177 -49.763724 -22.642920 9
47.090642 -50.120187 -22.486600 9
44.664550 -50.148435 -22.349013 9
42.234308 -50.268743 -22.214990 9
39.820015 -50.287985 -22.091237 9
37.405747 -50.357928 -21.972437 9
35.000664 -50.368799 -21.862282 9
32.595606 -50.429896 -21.757058 9
30.194265 -50.492810 -21.658369 9
27.798343 -50.513325 -21.567613 9
25.402531 -50.591649 -21.481516 9
23.010696 -50.632670 -21.403120 9
20.621428 -50.635051 -21.332409 9
18.232722 -50.655472 -21.267572 9
15.844677 -50.705864 -21.208239 9
13.457127 -50.719202 -21.156473 9
11.068769 -50.702026 -21.112045 9
8.682346 -50.799483 -21.070523 9
6.291588 -50.764989 -21.039412 9
3.901769 -50.801560 -21.012541 9
1.508534 -50.801825 -20.993163 9
-0.890108 -50.756786 -20.981545 9
-3.286649 -50.790684 -20.973964 9
-5.688750 -50.789733 -20.973850 9
-8.090700 -50.830637 -20.978912 9
-10.506137 -50.771859 -20.993419 9
-12.924091 -50.740979 -21.013562 9
-15.336364 -50.803001 -21.037393 9
-17.759077 -50.816872 -21.069190 9
-20.202427 -50.722109 -21.110844 9
-22.639140 -50.725670 -21.156088 9
-25.089075 -50.687103 -21.209245 9
-27.545706 -50.655072 -21.268865 9
-30.010691 -50.621667 -21.335233 9
-32.489414 -50.560652 -21.409228 9
-34.958150 -50.599250 -21.486856 9
-37.463545 -50.499194 -21.575769 9
-39.962126 -50.482924 -21.668899 9
-42.483561 -50.410035 -21.770855 9
-45.010134 -50.364994 -21.878941 9
-47.554934 -50.292993 -21.995046 9
-50.201223 -49.871981 -22.130346 9
-52.983422 -49.012731 -22.288546 9
-55.923067 -47.686271 -22.471466 9
-59.149517 -45.488850 -22.694540 9
-62.389962 -43.438942 -22.922289 9
-65.806508 -40.992156 -23.174931 9
-69.306144 -38.485462 -23.440772 9
-75.625238 -27.497469 -24.043896 8
-78.592487 -27.240121 -24.250635 8
-81.572783 -27.011050 -24.465222 8
-84.585542 -26.755117 -24.689972 8
-87.620808 -26.503762 -24.923790 8
-90.703004 -26.193656 -25.169490 8
-93.795487 -25.926234 -25.423008 8
-96.937317 -25.601795 -25.688782 8
-100.107467 -25.278255 -25.964542 8
-103.370387 -24.803735 -26.257430 8
-109.056698 -18.771542 -26.821353 8
-116.896380 -8.210610 -27.624354 7
-118.846112 -11.253035 -27.794475 7
-122.613431 -10.283559 -28.169498 7
-126.517346 -9.130849 -28.567054 7
-130.613508 -7.695626 -28.993289 7
-135.118159 -5.565012 -29.471673 7
143.015657 -6.454120 -29.289071 6
138.893707 -8.539141 -28.755301 6
135.074231 -10.037915 -28.267727 6
131.424167 -11.241642 -27.809323 6
127.902475 -12.231273 -27.374736 6
124.439548 -13.175248 -26.955037 6
121.080770 -13.939723 -26.555833 6
117.783667 -14.628600 -26.171654 6
112.081025 -22.572678 -25.488159 5
108.061581 -25.906576 -25.024338 5
104.927932 -26.703620 -24.679920 5
101.998974 -26.936669 -24.368371 5
99.104698 -27.120869 -24.067916 5
96.215675 -27.351920 -23.774678 5
93.327287 -27.649430 -23.487947 5
90.478149 -27.873174 -23.212762 5
87.646444 -28.097544 -22.946211 5
84.841134 -28.283792 -22.689479 5
82.065390 -28.411329 -22.443027 5
79.301845 -28.546817 -22.204464 5
76.545893 -28.710065 -21.973089 5
73.821545 -28.786429 -21.752359 5
68.899536 -40.050675 -21.207331 9
65.931824 -42.112458 -20.952682 9
63.022187 -44.117727 -20.709712 9
60.180698 -45.993334 -20.480091 9
57.387768 -47.835107 -20.260767 9
54.669340 -49.459406 -20.056302 9
52.074967 -50.465099 -19.876432 9
49.548422 -51.143830 -19.712586 9
47.096473 -51.359930 -19.567448 9
44.667006 -51.457848 -19.431898 9
42.247717 -51.520817 -19.303739 9
39.837903 -51.541361 -19.183044 9
37.427412 -51.621131 -19.067410 9
35.024255 -51.669667 -18.958888 9
32.624862 -51.721923 -18.856639 9
30.232231 -51.719104 -18.761901 9
27.838231 -51.793320 -18.671787 9
25.449839 -51.805387 -18.589251 9
23.061740 -51.867731 -18.511900 9
20.676793 -51.882776 -18.441736 9
18.292933 -51.886339 -18.377985 9
15.909444 -51.880653 -18.320580 9
13.526313 -51.939083 -18.268066 9
11.142834 -51.945603 -18.222726 9
8.759484 -51.985061 -18.182890 9
6.222889 -47.849838 -18.229216 9
3.797901 -47.859530 -18.201796 9
1.372153 -47.890622 -18.180206 9
-1.058748 -47.872043 -18.165799 9
-3.488115 -47.918756 -18.156403 9
-5.927609 -47.873414 -18.155004 9
-8.368385 -47.864071 -18.159195 9
-10.810071 -47.888536 -18.169033 9
-13.260521 -47.871398 -18.185964 9
-15.713857 -47.874626 -18.208836 9
-18.181400 -47.809955 -18.239362 9
-20.644532 -47.827804 -18.274688 9
-22.496495 -51.991139 -18.235576 9
-24.938403 -51.972821 -18.283683 9
-27.387481 -51.955996 -18.338142 9
-29.851184 -51.900887 -18.399793 9
-32.314369 -51.896759 -18.466888 9
-34.790757 -51.868653 -18.540980 9
-37.278507 -51.831083 -18.621836 9
-39.769165 -51.826631 -18.708609 9
-42.282825 -51.764069 -18.803297 9
-44.806171 -51.709218 -18.904573 9
-47.357401 -51.588942 -19.014137 9
-49.969814 -51.282199 -19.134920 9
-52.730206 -50.484189 -19.274393 9
-55.644880 -49.227261 -19.432609 9
-58.782011 -47.322568 -19.615041 9
-62.065220 -45.097743 -19.814758 9
-65.397059 -42.906893 -20.023510 9
-68.737788 -40.875810 -20.238221 9
-74.761335 -30.772792 -20.679436 8
-77.675669 -30.601400 -20.869149 8
-80.601715 -30.456775 -21.066532 8
-83.572828 -30.244865 -21.274371 8
-86.566772 -30.033928 -21.490922 8
-89.590779 -29.806624 -21.716852 8
-92.619044 -29.632716 -21.950165 8
-95.700387 -29.387330 -22.194885 8
-98.777237 -29.218619 -22.446471 8
-101.940604 -28.905953 -22.712353 8
-105.471071 -27.811225 -23.015321 8
-114.261556 -14.926531 -23.751905 8
-116.879166 -16.349282 -23.997571 7
-119.698748 -17.326418 -24.267372 7
-123.069008 -17.157495 -24.590063 7
-126.627156 -16.669063 -24.936465 7
-130.260915 -16.110405 -25.297627 7
-133.955808 -15.516873 -25.672560 7
-137.727200 -14.863606 -26.062755 7
-141.598404 -14.113155 -26.470414 7
-145.560310 -13.290935 -26.895053 7
-149.641366 -12.352992 -27.339385 7
146.473927 -14.688572 -26.174997 6
142.900290 -15.459315 -25.718912 6
139.404116 -16.145860 -25.279158 6
135.970417 -16.775517 -24.854024 6
132.446405 -17.722851 -24.428618 6
129.180730 -18.117029 -24.036294 6
125.928135 -18.555941 -23.653221 6
122.761423 -18.843664 -23.286153 6
119.613695 -19.151470 -22.928610 6
116.196241 -20.309214 -22.553663 5
111.128741 -26.483792 -22.034092 5
107.550410 -28.548840 -21.660748 5
104.497282 -29.143215 -21.343174 5
101.588116 -29.360433 -21.045880 5
98.730439 -29.471290 -20.760246 5
95.868875 -29.655591 -20.481152 5
93.024513 -29.842876 -20.210448 5
90.198972 -30.025143 -19.948211 5
87.405485 -30.147972 -19.695574 5
84.602034 -30.372059 -19.448675 5
81.843290 -30.477047 -19.212403 5
79.108153 -30.537908 -18.984807 5
76.375283 -30.644300 -18.763904 5
73.648324 -30.782543 -18.549971 5
68.794350 -41.711481 -18.144896 9
65.853111 -43.666833 -17.921404 9
62.973635 -45.534699 -17.708966 9
60.128312 -47.459325 -17.504833 9
57.361371 -49.170504 -17.313162 9
54.676190 -50.601317 -17.134375 9
52.079706 -51.641957 -16.969400 9
49.573797 -52.189945 -16.818864 9
47.115947 -52.475181 -16.678763 9
44.690066 -52.570544 -16.547667 9
42.271464 -52.658973 -16.422955 9
39.865462 -52.677276 -16.305331 9
37.460694 -52.731607 -16.193431 9
35.063913 -52.740170 -16.088177 9
32.668116 -52.783544 -15.988613 9
30.273700 -52.864771 -15.894715 9
27.886551 -52.873062 -15.807611 9
25.501857 -52.870968 -15.726592 9
23.234823 -48.813419 -15.689984 9
20.814906 -48.813734 -15.619740 9
18.355189 -52.842467 -15.519395 9
15.973732 -52.867626 -15.461856 9
13.592478 -52.872627 -15.410399 9
11.211178 -52.897333 -15.364671 9
8.828797 -52.898026 -15.325033 9
6.446836 -52.945235 -15.290902 9
4.063379 -52.977451 -15.262783 9
1.673133 -52.913383 -15.241311 9
-0.713438 -52.963649 -15.224824 9
-3.104816 -52.975256 -15.214537 9
-5.501429 -52.960988 -15.210355 9
-7.902667 -52.939704 -15.212143 9
-10.304419 -52.957755 -15.219557 9
-12.712355 -52.957932 -15.233057 9
-15.123117 -52.975694 -15.252387 9
-17.545381 -52.943751 -15.278102 9
-19.968224 -52.953515 -15.309502 9
-22.399632 -52.946317 -15.347083 9
-24.835978 -52.950812 -15.390643 9
-27.290005 -52.891807 -15.440859 9
-29.734725 -52.933935 -15.496348 9
-32.198808 -52.910977 -15.558595 9
-34.673087 -52.881314 -15.627143 9
-37.168194 -52.796647 -15.702512 9
-39.658654 -52.784340 -15.783531 9
-42.167692 -52.734404 -15.871321 9
-44.698226 -52.641195 -15.966038 9
-47.213844 -52.660132 -16.066070 9
-49.839751 -52.290210 -16.177110 9
-52.556213 -51.651241 -16.298305 9
-55.435287 -50.512848 -16.432989 9
-58.551129 -48.669952 -16.584673 9
-61.745241 -46.733368 -16.746419 9
-65.062507 -44.568300 -16.920492 9
-68.406198 -42.505961 -17.102706 9
-74.164666 -33.213976 -17.404305 8
-77.035696 -33.124478 -17.579750 8
-79.958217 -32.942013 -17.764645 8
-82.890714 -32.792830 -17.957130 8
-85.841687 -32.652851 -18.157691 8
-88.812864 -32.518599 -18.366498 8
-91.852861 -32.266419 -18.586067 8
-94.869022 -32.139564 -18.811910 8
-97.926793 -31.970553 -19.047387 8
-100.996618 -31.834661 -19.291107 8
-104.237855 -31.362465 -19.551557 8
-109.138576 -27.223220 -19.908859 8
-116.372401 -18.205742 -20.403742 7
-118.545668 -20.549298 -20.634233 7
-121.956472 -20.244399 -20.940570 7
-125.386118 -19.973248 -21.256637 7
-128.899983 -19.604752 -21.586331 7
-132.439037 -19.263020 -21.926479 7
-136.021625 -18.913306 -22.278317 7
-139.724972 -18.413907 -22.646716 7
-143.475806 -17.910756 -23.027586 7
-147.135810 -17.653790 -23.412488 7
148.208245 -19.140872 -22.907098 6
144.815639 -19.508819 -22.481073 6
141.464859 -19.858539 -22.066996 6
138.166206 -20.162074 -21.665378 6
134.877471 -20.515844 -21.273122 6
131.641138 -20.816015 -20.892975 6
128.451104 -21.071580 -20.524300 6
125.269751 -21.375471 -20.164496 6
122.151360 -21.582964 -19.816870 6
119.049168 -21.813506 -19.478304 6
115.094797 -24.554820 -19.097338 5
110.616984 -29.064726 -18.696594 5
107.209150 -30.653722 -18.368031 5
104.257985 -30.962812 -18.073390 5
101.357953 -31.178935 -17.789026 5
98.495795 -31.334887 -17.514013 5
95.662571 -31.453206 -17.247723 5
92.846691 -31.569345 -16.989447 5
90.043961 -31.696498 -16.738899 5
87.259990 -31.811927 -16.496268 5
84.494510 -31.912989 -16.261445 5
81.734819 -32.048896 -16.033796 5
79.003176 -32.124221 -15.814202 5
76.268600 -32.270127 -15.601301 5
73.563816 -32.337208 -15.396337 5
68.754776 -43.028792 -15.122591 9
65.848909 -44.814662 -14.928000 9
62.981938 -46.623233 -14.742259 9
60.144672 -48.508585 -14.564937 9
57.399663 -50.091324 -14.397706 9
54.717303 -51.506032 -14.239306 9
52.121565 -52.545674 -14.089984 9
49.607453 -53.163241 -13.949113 9
47.160061 -53.378507 -13.815870 9
44.735833 -53.471270 -13.689059 9
42.324940 -53.498661 -13.568372 9
39.918412 -53.531633 -13.453614 9
37.513187 -53.603121 -13.344737 9
35.115191 -53.643679 -13.241759 9
32.986246 -49.687368 -13.143408 9
30.335796 -53.631539 -13.053221 9
27.948510 -53.648679 -12.967610 9
25.563339 -53.669080 -12.887744 9
23.181265 -53.648107 -12.813532 9
20.798965 -53.675375 -12.745091 9
18.418024 -53.689600 -12.682311 9
16.037626 -53.738217 -12.625280 9
13.657523 -53.723525 -12.573759 9
11.277016 -53.729020 -12.527931 9
8.895217 -53.715676 -12.487687 9
6.513902 -53.758015 -12.453241 9
4.129320 -53.748422 -12.424276 9
1.743530 -53.758180 -12.401005 9
-0.645015 -53.761053 -12.383351 9
-3.039276 -53.725004 -12.371212 9
-5.431783 -53.758053 -12.364956 9
-7.831003 -53.752008 -12.364234 9
-10.233684 -53.753661 -12.369217 9
-12.638393 -53.777675 -12.379968 9
-15.056287 -53.729854 -12.396197 9
-17.466659 -53.788134 -12.418503 9
-19.899174 -53.721608 -12.446176 9
-22.332674 -53.698791 -12.479778 9
-24.768392 -53.706807 -12.519287 9
-27.210614 -53.717556 -12.564647 9
-29.666202 -53.694517 -12.615805 9
-32.126168 -53.693203 -12.672938 9
-34.603788 -53.645424 -12.735942 9
-37.085570 -53.625140 -12.805018 9
-39.577323 -53.604021 -12.880154 9
-42.079722 -53.581291 -12.961398 9
-44.585689 -53.589160 -13.048829 9
-47.135972 -53.460384 -13.142416 9
-49.705279 -53.311541 -13.242367 9
-52.391916 -52.777234 -13.348959 9
-55.316339 -51.464792 -13.463145 9
-58.380154 -49.802364 -13.585520 9
-61.522734 -48.033009 -13.716311 9
-64.826084 -45.902277 -13.856502 9
-68.154765 -43.875843 -14.005524 9
-73.782274 -34.988728 -14.188000 8
-76.650206 -34.881440 -14.352003 8
-79.542819 -34.759679 -14.523647 8
-82.446634 -34.664236 -14.702851 8
-85.366268 -34.582186 -14.889752 8
-88.298188 -34.523559 -15.084374 8
-91.269716 -34.418146 -15.287312 8
-94.232365 -34.392595 -15.497749 8
-97.260188 -34.262378 -15.717304 8
-100.291108 -34.184412 -15.944813 8
-103.455198 -33.856305 -16.183541 8
-107.326831 -32.005787 -16.449122 8
-114.297705 -23.495636 -16.810475 8
-117.494163 -23.538392 -17.081312 7
-120.835772 -23.332790 -17.365009 7
-124.232147 -23.082728 -17.659327 7
-129.555053 -19.057922 -18.026400 7
-131.093792 -22.655181 -18.277565 7
-134.613026 -22.375581 -18.603670 7
-138.136896 -22.159912 -18.939448 7
-141.727443 -21.892946 -19.287346 7
-145.433989 -21.492094 -19.649638 7
-149.123411 -21.200479 -20.021351 7
147.456009 -21.860746 -19.347293 6
144.096342 -22.194468 -18.943600 6
140.806769 -22.443498 -18.552272 6
137.548325 -22.690719 -18.171325 6
134.348333 -22.867891 -17.801639 6
131.158183 -23.087728 -17.441093 6
127.993533 -23.311765 -17.090181 6
124.870961 -23.494832 -16.749295 6
121.795318 -23.618225 -16.418329 6
118.721047 -23.800855 -16.095721 6
114.639934 -26.923492 -15.755642 5
110.356047 -30.888800 -15.423929 5
107.062254 -32.153391 -15.127176 5
104.083442 -32.566166 -14.845901 5
101.234511 -32.638660 -14.574874 5
98.388102 -32.759871 -14.311444 5
95.571058 -32.839859 -14.055902 5
92.771602 -32.914223 -13.807948 5
89.995114 -32.960112 -13.567488 5
87.223580 -33.041604 -13.334323 5
84.457885 -33.157129 -13.108443 5
81.715064 -33.237292 -12.889752 5
78.981370 -33.335111 -12.678179 5
76.266527 -33.406165 -12.473556 5
73.576485 -33.415795 -12.275621 5
68.764723 -44.087637 -12.128418 9
65.871398 -45.812685 -11.959249 9
63.020218 -47.536631 -11.798632 9
60.204209 -49.296366 -11.646602 9
57.440048 -50.991142 -11.502376 9
54.782541 -52.243826 -11.362933 9
52.190967 -53.247621 -11.228878 9
49.676962 -53.857457 -11.098473 9
47.228138 -54.078793 -10.971055 9
44.816602 -54.055597 -10.847316 9
42.404487 -54.079955 -10.729717 9
39.998137 -54.094834 -10.617702 9
37.589320 -54.188410 -10.512161 9
35.192255 -54.197686 -10.411356 9
32.798081 -54.213607 -10.316195 9
30.407214 -54.224995 -10.226525 9
28.017283 -54.270087 -10.142778 9
25.632356 -54.257669 -10.063832 9
23.247737 -54.278973 -9.990771 9
20.865737 -54.245564 -9.922461 9
18.482775 -54.311968 -9.860883 9
16.101454 -54.317368 -9.803936 9
13.720216 -54.330451 -9.752504 9
11.338580 -54.334374 -9.706351 9
8.956573 -54.354707 -9.665821 9
6.574031 -54.385349 -9.630832 9
4.187056 -54.343116 -9.600203 9
1.800367 -54.358696 -9.575781 9
-0.590134 -54.349336 -9.556397 9
-2.982247 -54.359987 -9.542699 9
-5.380648 -54.332488 -9.533857 9
-7.774613 -54.398904 -9.531792 9
-10.182829 -54.353880 -9.533543 9
-12.588982 -54.375985 -9.541711 9
-15.010231 -54.310944 -9.554085 9
-17.422940 -54.362396 -9.573620 9
-19.847474 -54.364031 -9.597943 9
-22.284210 -54.325732 -9.627232 9
-24.718519 -54.349478 -9.662957 9
-27.165866 -54.335564 -9.703742 9
-29.629157 -54.276280 -9.749536 9
-32.087270 -54.293464 -9.802036 9
-34.564004 -54.257740 -9.859526 9
-37.040796 -54.268332 -9.923369 9
-39.535965 -54.236776 -9.992453 9
-42.044126 -54.194365 -10.067246 9
-44.561268 -54.161458 -10.148056 9
-47.068095 -54.217188 -10.235856 9
-49.668131 -53.949635 -10.325930 9
-53.580612 -48.821818 -10.368977 9
-55.233329 -52.283081 -10.512970 9
-58.274298 -50.703068 -10.609259 9
-61.451452 -48.817746 -10.710342 9
-64.750695 -46.706084 -10.817576 9
-68.059494 -44.747632 -10.934810 9
-73.508650 -36.423772 -11.009136 8
-76.355204 -36.362976 -11.162016 8
-79.234852 -36.260923 -11.321766 8
-82.117739 -36.206294 -11.489126 8
-85.040802 -36.096854 -11.663529 8
-87.983055 -35.994254 -11.845504 8
-90.938187 -35.915923 -12.035229 8
-95.189940 -32.663894 -12.221197 8
-96.901068 -35.797697 -12.438111 8
-99.947671 -35.667587 -12.651274 8
-103.008604 -35.564374 -12.872675 8
-110.582641 -25.387370 -13.097982 8
-112.948690 -27.170025 -13.344091 8
-116.774464 -25.803615 -13.599921 7
-120.097497 -25.607933 -13.864478 7
-123.439702 -25.439993 -14.138361 7
-126.827668 -25.246932 -14.421899 7
-130.254826 -25.045218 -14.715275 7
-133.698580 -24.880402 -15.018432 7
-137.179027 -24.714687 -15.331741 7
-140.730798 -24.487177 -15.655943 7
-144.320608 -24.263141 -15.990843 7
-147.947558 -24.046021 -16.336632 7
146.989602 -23.940208 -15.856122 6
143.723741 -24.088826 -15.474125 6
140.480720 -24.251733 -15.101864 6
137.282423 -24.376681 -14.739477 6
134.098473 -24.531642 -14.386359 6
130.928292 -24.718397 -14.042436 6
127.805582 -24.851972 -13.707793 6
124.705245 -24.991260 -13.382042 6
121.639818 -25.101043 -13.065025 6
118.580318 -25.256668 -12.756614 6
114.383571 -28.710661 -12.465583 5
110.248454 -32.250448 -12.190005 5
106.971139 -33.473782 -11.918360 5
104.080276 -33.623369 -11.650554 5
101.230849 -33.701865 -11.389989 5
98.394126 -33.795620 -11.137003 5
95.578950 -33.873607 -10.891263 5
92.775239 -33.967966 -10.652920 5
89.992360 -34.043617 -10.421555 5
87.237111 -34.069976 -10.196686 5
84.489696 -34.118102 -9.978941 5
81.761825 -34.139575 -9.767672 5
79.027861 -34.239996 -9.564142 5
76.331315 -34.229987 -9.365784 5
73.620770 -34.335837 -9.175619 5
68.832587 -44.849698 -9.152321 9
65.947320 -46.523111 -9.007162 9
63.100553 -48.210829 -8.870396 9
61.135699 -45.001009 -8.656972 9
57.552734 -51.437502 -8.618034 9
54.874403 -52.800855 -8.498698 9
52.284291 -53.776205 -8.379159 9
49.779725 -54.296337 -8.257368 9
47.317041 -54.604648 -8.137406 9
44.883395 -54.756594 -8.020030 9
42.476298 -54.729306 -7.904492 9
40.068333 -54.752104 -7.795408 9
37.669285 -54.722912 -7.690587 9
35.267910 -54.763828 -7.592639 9
32.873900 -54.753957 -7.498894 9
30.481330 -54.763870 -7.410882 9
28.089333 -54.814513 -7.329085 9
25.703284 -54.787139 -7.250729 9
23.317441 -54.787567 -7.178241 9
20.932834 -54.783613 -7.110852 9
18.548842 -54.783688 -7.048750 9
16.165206 -54.767472 -6.991426 9
13.781708 -54.817160 -6.940890 9
11.397037 -54.772469 -6.893184 9
9.012902 -54.812622 -6.852740 9
6.627547 -54.833722 -6.816977 9
4.238075 -54.792718 -6.784794 9
1.849109 -54.813353 -6.759316 9
-0.542021 -54.833329 -6.738976 9
-2.940966 -54.781687 -6.721963 9
-5.340568 -54.773972 -6.711233 9
-7.740296 -54.806977 -6.706719 9
-10.146990 -54.806358 -6.706529 9
-12.557862 -54.809479 -6.711633 9
-14.974156 -54.808663 -6.721852 9
-17.392764 -54.831870 -6.737917 9
-19.821197 -54.823597 -6.758433 9
-22.254538 -54.825662 -6.784491 9
-24.703346 -54.772613 -6.814464 9
-27.146702 -54.800438 -6.851810 9
-29.605365 -54.782218 -6.893365 9
-32.068255 -54.786357 -6.940877 9
-34.536987 -54.803727 -6.994144 9
-37.027555 -54.757679 -7.051336 9
-39.519150 -54.754646 -7.115097 9
-42.014821 -54.777767 -7.185037 9
-44.537184 -54.730453 -7.258916 9
-47.059034 -54.733293 -7.339637 9
-49.652639 -54.501246 -7.420709 9
-52.357806 -53.913555 -7.499735 9
-56.625650 -47.773660 -7.462669 9
-58.287499 -51.185799 -7.643138 9
-61.480768 -49.261192 -7.713630 9
-64.687616 -47.466775 -7.794670 9
-67.951634 -45.655607 -7.883303 9
-73.394716 -37.366303 -7.852068 8
-76.222538 -37.358850 -7.995337 8
-79.080073 -37.316927 -8.144717 8
-81.935748 -37.333183 -8.302035 8
-84.849340 -37.242956 -8.464402 8
-87.776440 -37.173585 -8.634267 8
-90.702874 -37.161382 -8.812286 8
-93.713746 -36.992060 -8.995127 8
-96.696509 -36.952141 -9.187486 8
-99.722408 -36.865528 -9.386727 8
-104.224194 -33.446576 -9.549304 8
-106.252086 -35.792761 -9.797280 8
-111.960454 -30.038402 -9.954514 8
-116.487280 -27.135966 -10.160546 7
-119.690702 -27.182263 -10.409463 7
-123.021708 -27.024790 -10.665042 7
-126.362363 -26.913635 -10.930047 7
-129.738567 -26.797357 -11.204157 7
-133.123588 -26.728950 -11.487899 7
-136.602018 -26.550348 -11.780510 7
-140.094285 -26.415067 -12.083159 7
-143.644914 -26.243343 -12.395685 7
-147.220401 -26.097727 -12.718542 7
-150.845077 -25.937298 -13.051845 7
146.815517 -25.372542 -12.409559 6
143.539137 -25.553109 -12.044779 6
140.349106 -25.605245 -11.688773 6
137.160523 -25.715085 -11.342117 6
133.985988 -25.854985 -11.004629 6
130.864476 -25.929418 -10.675389 6
