ply
format ascii 1.0
element vertex 1416
property float x
property float y
property float z
property int scalar_Label
end_header
107.023433 2.054484 -37.432485 5
108.938285 -1.424175 -36.585264 5
110.676325 -6.631559 -34.691848 5
112.164204 -14.602155 -31.140991 5
-45.135162 45.255834 16.472986 9
-4.613479 81.901624 -24.567016 1
-2.099234 80.952230 -25.103276 1
0.251622 79.860784 -25.483337 1
2.559334 78.746399 -25.835420 1
4.725345 77.496329 -26.044937 1
6.780857 76.135156 -26.141230 1
6.955507 72.584071 -24.034106 1
6.881611 68.636947 -21.575240 1
3.433277 60.431620 -14.956759 4
5.131436 58.368837 -14.481603 4
6.697243 56.112967 -13.833282 4
8.113546 53.626961 -12.981299 4
9.537035 51.105901 -12.117546 4
-2.303911 30.127977 6.156992 9
13.173604 47.043387 -11.373281 9
16.258512 46.826280 -12.704832 9
19.219518 46.493697 -13.914166 9
22.163917 46.199036 -15.144523 9
25.044215 45.868128 -16.328557 9
27.905763 45.569249 -17.528816 9
30.705746 45.231587 -18.682225 9
33.447630 44.855682 -19.790674 9
36.154900 44.477470 -20.886866 9
38.767294 43.985935 -21.875340 9
41.388524 43.561894 -22.914052 9
43.871728 42.928902 -23.767035 9
46.188041 42.010045 -24.374523 9
48.348520 40.800676 -24.739227 9
50.407831 39.387223 -24.939245 9
52.445641 37.921131 -25.103437 9
54.514715 36.513632 -25.323574 9
56.556711 35.036429 -25.495108 9
58.596662 33.541108 -25.660899 9
60.630607 32.015624 -25.811928 9
61.734652 28.131467 -24.119194 9
61.735684 21.195233 -20.090670 9
66.641438 27.071720 -26.040021 5
69.009945 26.380097 -26.871578 5
71.354996 25.658067 -27.679245 5
73.675925 24.898477 -28.458500 5
76.039533 24.303540 -29.361154 5
78.330117 23.516158 -30.120215 5
80.610412 22.722477 -30.876093 5
82.862621 21.857432 -31.581870 5
84.989587 20.553382 -31.974390 5
87.191752 19.518194 -32.567471 5
89.402013 18.519098 -33.191515 5
91.585159 17.411636 -33.744739 5
93.771614 16.312402 -34.310389 5
95.948514 15.161360 -34.847145 5
98.111991 13.929457 -35.336311 5
100.278688 12.687677 -35.827572 5
102.432807 11.345767 -36.260775 5
104.580843 9.921130 -36.649476 5
106.662199 8.016450 -36.733817 5
108.657700 5.398367 -36.370449 5
110.552845 1.797525 -35.398306 5
112.317065 -3.266843 -33.527343 5
114.098830 -8.918726 -31.339368 5
-5.849079 84.574281 -22.005206 1
-3.030974 83.897589 -22.866246 1
-0.406226 83.066637 -23.545501 1
2.144998 82.195282 -24.170604 1
4.605008 81.259654 -24.718131 1
6.911887 80.184558 -25.111620 1
6.923343 76.516560 -22.802196 1
6.805053 72.592483 -20.276137 1
6.266663 68.048612 -17.168617 1
5.843778 63.498581 -14.117331 4
7.393107 61.279077 -13.463527 4
8.795552 58.839116 -12.608086 4
10.102549 56.230251 -11.607719 4
11.322381 53.451430 -10.465829 4
12.462716 50.501076 -9.185225 4
13.883064 47.879119 -8.248824 9
16.849841 47.463438 -9.429626 9
19.871378 47.190832 -10.731178 9
22.864258 46.941983 -12.039282 9
25.803392 46.676741 -13.316880 9
28.665972 46.354351 -14.527673 9
31.512510 46.068710 -15.758822 9
34.291540 45.732426 -16.931385 9
37.045257 45.413324 -18.107559 9
39.738892 45.047712 -19.231151 9
42.341606 44.571949 -20.247977 9
44.774355 43.822760 -21.019235 9
47.039775 42.779216 -21.533523 9
49.224642 41.589745 -21.924436 9
51.309022 40.198078 -22.147879 9
53.346605 38.700427 -22.289205 9
55.410117 37.248097 -22.476681 9
57.510541 35.870108 -22.733400 9
59.582373 34.417529 -22.936255 9
60.691951 30.590846 -21.224575 9
61.680587 26.281774 -19.167308 9
65.477302 29.133933 -22.858335 5
67.893730 28.525105 -23.767528 5
70.321912 27.993886 -24.734776 5
72.691784 27.342241 -25.605224 5
75.041015 26.668698 -26.457341 5
77.382980 26.011041 -27.320628 5
79.685025 25.262139 -28.114106 5
81.977633 24.512962 -28.907958 5
84.289318 23.863469 -29.776623 5
86.557729 23.092736 -30.555852 5
88.784966 22.190177 -31.240520 5
90.932485 20.977471 -31.704494 5
93.131292 19.968691 -32.322247 5
95.322015 18.926346 -32.921419 5
97.511249 17.874722 -33.519931 5
99.689826 16.764503 -34.083751 5
101.863731 15.615429 -34.627808 5
104.032019 14.413167 -35.143191 5
106.152864 12.893113 -35.451441 5
108.196221 10.792646 -35.381951 5
110.161038 7.973028 -34.853083 5
112.036883 4.183087 -33.712253 5
113.877144 -0.392354 -32.098179 5
116.001181 -3.126133 -31.728251 5
117.558308 -11.799241 -27.571916 6
119.434701 -18.741227 -24.616510 6
121.887844 -20.106589 -25.254014 6
-11.697094 89.789674 -18.940058 3
-5.811925 91.883458 -23.060438 3
-2.989034 91.218398 -23.945472 3
-0.803190 89.972956 -24.157243 3
1.184841 88.545419 -24.162240 3
3.041808 86.990311 -24.027435 3
3.586561 84.047806 -22.375106 1
6.221984 83.303985 -23.146197 1
7.572354 81.173508 -22.413193 1
2.796870 72.042319 -14.238542 1
5.274332 70.994382 -14.753636 1
8.420245 70.773644 -16.127388 1
9.749755 68.395982 -15.246294 1
11.103906 66.008617 -14.376290 1
10.640558 61.238674 -11.106619 4
11.812507 58.465252 -9.912471 4
12.878374 55.486912 -8.541591 4
13.800336 52.236268 -6.932747 4
14.981181 49.267745 -5.635842 4
17.307283 47.902460 -5.924768 9
20.433461 47.750617 -7.382283 9
23.486003 47.560959 -8.784945 9
26.439690 47.287834 -10.091317 9
29.371782 47.047592 -11.413062 9
32.272837 46.824767 -12.735621 9
35.073195 46.498652 -13.948197 9
37.841197 46.178882 -15.153786 9
40.570956 45.853057 -16.341567 9
43.166393 45.338629 -17.348772 9
45.584812 44.534483 -18.090607 9
47.863147 43.485973 -18.614142 9
50.031710 42.231259 -18.958625 9
52.116905 40.805677 -19.159575 9
54.215777 39.403127 -19.387204 9
56.338499 38.047916 -19.661822 9
58.406447 36.561827 -19.832503 9
60.533630 35.203815 -20.118452 9
61.649276 31.337197 -18.335342 9
61.664366 24.472795 -14.136119 9
66.707250 30.536066 -20.534251 5
69.129858 29.935449 -21.462677 5
71.551707 29.378540 -22.422785 5
73.958653 28.826592 -23.383275 5
76.333947 28.226724 -24.302824 5
78.690429 27.612158 -25.208572 5
81.027238 26.976223 -26.095956 5
83.354240 26.348427 -26.988252 5
85.642153 25.621760 -27.804427 5
87.907360 24.842722 -28.581661 5
90.183264 24.134489 -29.413000 5
92.443859 23.397348 -30.223654 5
94.673810 22.557719 -30.960570 5
96.812936 21.319821 -31.411403 5
99.020569 20.390296 -32.092136 5
101.210282 19.376778 -32.717419 5
103.386890 18.288150 -33.295333 5
105.553165 17.124029 -33.827231 5
107.625623 15.347806 -33.942543 5
109.637176 13.043216 -33.710523 5
111.569249 9.952234 -32.965466 5
113.476347 6.302331 -31.875632 5
115.612243 4.101788 -31.794257 5
117.493907 -0.730440 -29.990918 6
119.693189 -3.127364 -29.839867 6
121.879488 -6.038333 -29.378616 6
124.031256 -9.958318 -28.297861 6
125.952203 -18.358115 -24.401583 6
128.415951 -19.715226 -25.053233 6
-9.775327 92.076520 -17.578109 3
-6.144105 92.062819 -19.307777 3
-2.550315 92.094736 -21.054984 3
0.879792 92.048372 -22.676054 3
3.853266 91.620044 -23.827059 3
5.443425 89.823672 -23.403580 3
6.879508 87.852980 -22.794419 3
7.479742 84.957302 -21.170552 1
8.553884 82.519980 -20.085858 1
5.083725 74.873971 -13.344907 1
6.681222 72.825873 -12.783287 1
8.432469 70.938923 -12.408378 1
11.593742 70.763826 -13.857906 1
12.707502 68.089509 -12.661835 1
12.264503 63.353297 -9.349840 4
13.285698 60.387666 -7.927815 4
14.171624 57.166705 -6.277155 4
15.745438 54.816592 -5.542792 4
16.508224 51.268308 -3.628350 4
17.614028 48.117842 -2.150064 9
20.806182 48.022428 -3.708723 9
23.911046 47.872586 -5.193254 9
26.983898 47.748820 -6.683573 9
28.182833 44.645445 -5.304445 9
32.919532 47.386156 -9.498423 9
35.784430 47.138996 -10.818512 9
38.626339 46.920442 -12.150200 9
41.352742 46.561677 -13.337552 9
43.954170 46.030101 -14.354752 9
46.380237 45.210506 -15.102035 9
48.611308 44.035587 -15.526250 9
50.782661 42.748997 -15.853226 9
52.929731 41.414287 -16.141952 9
55.058989 40.040072 -16.401307 9
57.143265 38.560293 -16.575086 9
59.282142 37.195962 -16.855977 9
61.407384 35.793525 -17.110629 9
61.709275 29.833919 -13.520514 9
65.343543 32.148605 -16.937300 5
67.858792 31.728203 -18.035293 5
70.323981 31.229306 -19.061965 5
72.785250 30.773606 -20.118689 5
75.193409 30.216913 -21.088216 5
77.579418 29.641213 -22.038773 5
79.956511 29.084925 -23.001615 5
82.295395 28.449602 -23.899047 5
84.628473 27.836858 -24.812381 5
86.959853 27.262814 -25.753917 5
89.248769 26.573747 -26.605138 5
91.536961 25.919275 -27.482488 5
93.797731 25.189285 -28.302476 5
96.054481 24.474158 -29.134427 5
98.291674 23.701023 -29.924292 5
100.520359 22.912675 -30.704877 5
102.730903 22.053284 -31.436072 5
104.843600 20.659481 -31.785217 5
106.967940 19.277425 -32.153335 5
109.022249 17.383988 -32.169715 5
111.003516 14.840239 -31.746770 5
113.069440 12.664759 -31.605698 5
115.038795 9.482567 -30.791607 5
116.970135 5.526386 -29.482591 6
119.196749 3.834416 -29.749686 6
121.429886 2.028921 -29.955881 6
123.658640 -0.071565 -29.982876 6
125.897305 -2.396421 -29.882783 6
128.143393 -5.104376 -29.556390 6
130.387061 -8.631797 -28.729042 6
132.456998 -17.957277 -24.230841 6
134.932179 -19.323227 -24.885545 6
-13.124398 92.990388 -12.733148 3
-6.952552 95.176269 -17.257162 3
-11.895318 87.204746 -9.374587 3
-1.537071 93.523370 -18.792766 3
0.520967 92.122747 -18.855334 3
3.886274 92.043450 -20.468625 3
7.244200 92.032609 -22.129300 3
8.827300 90.230670 -21.697291 3
10.107072 88.088497 -20.888256 3
9.587844 83.924868 -17.818685 1
6.650187 76.884245 -11.601321 1
8.561346 75.207219 -11.436410 1
9.790106 72.712057 -10.382599 1
11.665146 70.961384 -10.159588 1
14.242331 70.083611 -10.881699 1
15.165233 67.111851 -9.368169 1
14.472259 61.931480 -5.562173 4
16.174593 59.808917 -5.022424 4
16.701329 56.021615 -2.777904 4
16.910361 51.662398 0.004613 4
17.774801 48.115510 1.905603 9
21.082746 48.145191 0.170864 9
24.307968 48.135950 -1.500310 9
27.435362 48.057449 -3.079918 9
30.522333 47.994810 -4.653859 9
33.472992 47.785264 -6.064775 9
36.437807 47.673714 -7.552390 9
39.293800 47.447170 -8.912162 9
42.080925 47.166033 -10.204652 9
44.661804 46.563646 -11.182603 9
47.065373 45.664723 -11.877471 9
49.357968 44.572961 -12.392210 9
51.496178 43.179065 -12.632399 9
53.652645 41.821157 -12.910600 9
55.802667 40.447530 -13.179929 9
57.951906 39.068629 -13.450228 9
60.126968 37.745592 -13.775533 9
61.357110 34.123824 -12.104252 9
61.751002 28.234475 -8.515934 9
66.445922 33.222224 -14.309617 5
68.955954 32.768676 -15.398931 5
71.449363 32.327653 -16.491971 5
73.929557 31.908278 -17.596439 5
76.369984 31.430512 -18.646094 5
78.794093 30.958738 -19.695287 5
81.187252 30.443452 -20.704035 5
83.543984 29.857980 -21.652125 5
85.891980 29.289640 -22.611014 5
88.226109 28.719424 -23.565608 5
90.541529 28.125835 -24.499385 5
92.832588 27.479839 -25.390553 5
95.108756 26.811946 -26.263959 5
97.384384 26.181734 -27.165798 5
99.638518 25.492346 -28.022269 5
101.870030 24.725050 -28.820768 5
104.090646 23.926372 -29.597681 5
106.276756 22.951366 -30.247071 5
108.375832 21.436223 -30.507002 5
110.404808 19.370863 -30.380975 5
112.386401 16.785757 -29.901718 5
114.384901 14.047417 -29.339868 5
116.441213 11.461750 -28.913854 5
118.553060 9.055130 -28.639186 6
120.785689 7.566446 -29.023393 6
123.027431 6.033505 -29.389890 6
125.271784 4.348387 -29.666425 6
127.525291 2.535423 -29.872400 6
129.789717 0.550794 -29.981177 6
132.067220 -1.680443 -29.946662 6
134.361372 -4.280369 -29.693790 6
136.675719 -7.580055 -29.015173 6
139.014099 -12.881306 -27.088987 6
141.440604 -18.989517 -24.711129 6
-11.141829 95.319160 -11.428047 3
-7.510791 95.203341 -13.174153 3
-3.786009 95.254465 -15.088545 3
-0.257838 95.205443 -16.838166 3
-4.710355 87.454505 -9.190754 1
4.817741 93.370939 -18.138795 3
6.944745 92.085114 -18.330936 3
10.305086 92.110198 -20.063851 3
11.786713 90.191765 -19.497350 3
12.725842 87.654647 -18.230191 3
11.145231 82.211277 -13.671035 1
10.249544 77.363413 -9.878473 1
11.332632 74.705110 -8.615162 1
12.218318 71.749916 -7.050668 1
14.892076 70.966841 -7.904958 1
16.301892 68.598540 -7.023098 1
16.390008 64.441499 -4.236150 4
16.824480 60.616605 -1.861172 4
16.885667 56.151503 1.140258 4
15.884765 50.011915 5.832386 4
17.702231 47.766073 6.393757 9
21.160224 47.962616 4.429467 9
24.533407 48.128143 2.526300 9
27.735647 48.119259 0.826982 9
30.917076 48.164050 -0.902146 9
33.990678 48.117312 -2.516697 9
36.989496 48.025385 -4.065426 9
39.890897 47.840955 -5.504289 9
42.709141 47.579208 -6.851062 9
45.309109 46.974360 -7.854613 9
47.683556 45.978199 -8.478700 9
49.940183 44.769158 -8.901046 9
52.103151 43.375812 -9.153874 9
54.302649 42.058539 -9.481912 9
56.491476 40.719375 -9.794058 9
58.722776 39.476842 -10.198359 9
60.866478 38.031874 -10.424403 9
61.629253 33.193156 -7.639019 9
64.854335 34.349900 -10.198868 5
67.463566 34.065586 -11.466229 5
70.009674 33.682226 -12.637366 5
72.529137 33.289227 -13.791734 5
75.044137 32.948323 -14.982498 5
77.507279 32.518289 -16.089737 5
79.941342 32.058154 -17.165177 5
82.364337 31.621533 -18.254288 5
84.754855 31.134830 -19.296428 5
87.124662 30.631437 -20.320218 5
89.460217 30.055097 -21.280912 5
91.783096 29.478676 -22.238697 5
94.107693 28.960114 -23.239837 5
96.394910 28.333638 -24.153044 5
98.669101 27.692132 -25.053254 5
100.946348 27.109761 -25.998349 5
103.181323 26.357727 -26.812162 5
105.418985 25.650805 -27.661435 5
107.553526 24.366457 -28.077157 5
109.641026 22.734147 -28.242260 5
111.646773 20.433010 -27.926762 5
113.654251 17.916654 -27.476264 5
115.355186 12.628468 -25.039629 5
117.816662 13.252831 -26.917129 6
120.056593 12.023506 -27.458126 6
122.301018 10.762397 -27.985662 6
124.548998 9.441749 -28.481117 6
126.799131 8.010366 -28.910323 6
129.055795 6.479091 -29.283033 6
131.322796 4.857417 -29.607785 6
133.601084 3.091241 -29.849988 6
135.893629 1.120272 -29.972274 6
138.207218 -1.035472 -29.991907 6
140.545866 -3.612180 -29.757730 6
142.922580 -6.670080 -29.238685 6
145.363296 -11.101868 -27.870029 6
147.949005 -18.659612 -24.562074 6
150.468223 -20.044104 -25.235448 6
-11.345087 95.719722 -7.661921 3
-8.097871 95.216457 -8.979662 3
-4.392144 95.199180 -10.885074 3
-0.783703 95.175213 -12.739427 3
2.867294 95.276283 -14.708769 3
6.296546 95.244920 -16.472791 3
2.843275 88.258661 -9.726361 1
9.964249 92.081256 -16.152737 3
12.659833 91.425213 -17.103535 3
11.433276 86.490102 -12.983336 1
12.179174 83.611093 -11.351893 1
11.693043 79.234052 -8.022209 1
11.610757 75.191624 -5.144881 1
13.281175 73.162352 -4.610621 1
14.881685 71.022754 -3.966272 1
17.175147 69.746164 -4.297801 1
17.494742 65.877292 -1.772277 1
16.742687 60.430651 2.421047 4
9.652898 45.941245 16.297427 9
13.638161 46.606330 13.690799 9
17.355754 47.008264 11.406287 9
20.998377 47.412120 9.156357 9
24.553272 47.794318 6.964385 9
27.913423 47.978100 5.010733 9
31.147009 48.054759 3.195439 9
34.339919 48.156894 1.380380 9
37.451573 48.212867 -0.362821 9
40.414314 48.094003 -1.908479 9
43.207988 47.744141 -3.206849 9
45.855995 47.183819 -4.284835 9
48.229114 46.137240 -4.881988 9
50.506477 44.919042 -5.312872 9
52.726978 43.592593 -5.642405 9
54.960641 42.297293 -6.004792 9
57.180993 40.976195 -6.346391 9
59.400655 39.654731 -6.691602 9
60.487787 35.630909 -4.565079 9
61.707478 31.742651 -2.609743 9
65.772140 34.951503 -7.088306 5
67.501751 32.296175 -6.267422 5
71.016154 34.453835 -9.729151 5
73.597542 34.206895 -11.034103 5
76.113277 33.842959 -12.226548 5
78.597596 33.450996 -13.386234 5
81.071505 33.092750 -14.566919 5
83.498599 32.647350 -15.665929 5
85.917354 32.235944 -16.787224 5
87.686294 29.495026 -15.964812 5
90.676590 31.318527 -18.933042 5
93.035415 30.872054 -20.008278 5
95.341707 30.266623 -20.949911 5
97.638807 29.668762 -21.895353 5
99.931557 29.100299 -22.862104 5
102.222788 28.578175 -23.863192 5
104.477811 27.922156 -24.757017 5
106.268395 24.650224 -23.623214 5
108.805951 25.632181 -25.792465 5
110.858237 23.707459 -25.726597 5
112.868068 21.320829 -25.329713 5
114.914104 18.960613 -24.976385 5
117.019693 16.832760 -24.818745 6
119.268090 15.788052 -25.476996 6
121.518859 14.733933 -26.134585 6
123.766038 13.593107 -26.736163 6
126.013539 12.376336 -27.291326 6
128.267252 11.133367 -27.836982 6
130.524715 9.797177 -28.326806 6
132.791469 8.422700 -28.800980 6
135.065820 6.912642 -29.193418 6
137.352085 5.261018 -29.502825 6
139.655647 3.538119 -29.779591 6
141.978699 1.610144 -29.935660 6
144.327175 -0.468837 -30.010952 6
146.709772 -2.908668 -29.870653 6
149.142365 -5.877996 -29.412026 6
-8.547926 102.066317 -9.747669 2
-4.445481 102.348315 -12.122932 2
-0.746261 102.370134 -14.098905 2
1.307771 100.963483 -14.166840 2
2.654350 98.900210 -13.385584 2
2.315737 95.181402 -10.510128 3
5.829483 95.182855 -12.387506 3
9.302679 95.227131 -14.277866 3
11.154577 93.660875 -14.140713 3
12.787855 91.860302 -13.720948 3
13.698719 89.252012 -12.334854 3
13.179769 84.973640 -8.981323 1
13.940397 82.035618 -7.284741 1
11.483207 75.197736 -1.054854 1
13.901964 74.035231 -1.536162 1
14.855900 71.060698 0.070201 1
16.916680 69.437250 0.105130 1
16.492199 64.527611 3.835902 4
2.667128 41.243725 27.978249 9
7.953359 43.431140 23.522342 9
12.388397 44.618719 20.239916 9
16.657668 45.725704 17.101574 9
20.484851 46.321399 14.565234 9
24.247101 46.944582 12.041095 9
27.769604 47.313220 9.825628 9
31.263129 47.748422 7.575094 9
34.503094 47.871062 5.682145 9
37.678718 47.980103 3.830618 9
40.794052 48.078269 2.016435 9
43.688532 47.863349 0.542253 9
46.282776 47.151102 -0.417790 9
48.724388 46.183067 -1.116302 9
50.987796 44.880608 -1.483673 9
53.233508 43.546997 -1.823166 9
55.492475 42.245293 -2.196465 9
57.760099 40.967360 -2.595265 9
59.987535 39.601066 -2.913387 9
61.214690 35.826626 -0.983148 9
61.680073 29.977615 2.826101 9
66.606122 35.319454 -3.727597 5
69.327503 35.254328 -5.251773 5
71.964167 35.047030 -6.632091 5
74.564229 34.816871 -7.979261 5
77.119399 34.533235 -9.267146 5
79.666710 34.302800 -10.591272 5
82.146139 33.933145 -11.783126 5
84.618178 33.609655 -13.006513 5
87.051272 33.223112 -14.167244 5
89.466558 32.840894 -15.324332 5
91.845576 32.388252 -16.415153 5
94.212126 31.949932 -17.512318 5
96.554791 31.475694 -18.574315 5
98.888866 31.027058 -19.652683 5
101.187392 30.474197 -20.641722 5
103.458665 29.837687 -21.560555 5
105.316574 26.968350 -20.695950 5
107.900930 28.122263 -23.044411 5
110.002887 26.535142 -23.217698 5
112.041633 24.416233 -22.990351 5
114.072467 22.039183 -22.584292 5
116.415177 21.917214 -23.923411 6
118.665075 21.128713 -24.751275 6
120.895874 20.175579 -25.458067 6
122.941893 17.161726 -24.638516 6
125.193089 16.137170 -25.316389 6
127.440969 15.011088 -25.926311 6
129.695318 13.890366 -26.547790 6
131.954008 12.727549 -27.146920 6
134.217049 11.478599 -27.693467 6
136.489403 10.218744 -28.242225 6
138.768870 8.770275 -28.669769 6
141.062448 7.296834 -29.092919 6
143.371623 5.696662 -29.442745 6
145.700024 4.000900 -29.742966 6
148.052761 2.130335 -29.942439 6
-6.880026 104.092639 -8.190413 2
-3.199446 104.005344 -10.122875 2
0.264765 103.808290 -11.859644 2
3.076800 103.089302 -12.857555 2
4.458158 101.071488 -12.116383 2
5.783592 98.978752 -11.292576 2
5.452545 95.219634 -8.334423 3
8.914968 95.204860 -10.222104 3
12.341015 95.236100 -12.127125 3
13.209577 92.614451 -10.676039 3
14.804535 90.735187 -10.174336 3
9.444881 80.996653 -0.066317 1
14.879906 83.320024 -4.777023 1
11.370035 75.224222 3.096197 1
13.820238 74.052003 2.592411 1
14.738340 70.985051 4.321549 1
16.793280 69.302731 4.403043 1
9.677952 40.527055 29.322111 9
14.918284 42.898400 24.650843 9
13.940111 36.069824 30.151437 9
23.584376 45.527754 17.851545 9
27.302643 46.117975 15.318068 9
30.990202 46.787928 12.740506 9
34.453386 47.210680 10.465142 9
37.813861 47.572925 8.288141 9
41.034942 47.798884 6.285169 9
43.965853 47.591125 4.756729 9
46.594667 46.882261 3.758221 9
49.024347 45.825650 3.120348 9
51.342663 44.565096 2.689361 9
53.672559 43.338967 2.223333 9
55.938948 41.985317 1.881777 9
58.214743 40.654683 1.514626 9
60.514642 39.382815 1.087762 9
61.616216 35.210611 3.428727 9
61.669633 28.196251 8.408291 9
67.378024 35.503022 -0.147737 5
70.149606 35.522665 -1.787148 5
72.815442 35.347492 -3.229191 5
75.487526 35.278491 -4.754185 5
78.108357 35.150550 -6.210576 5
80.666928 34.917912 -7.559232 5
83.176334 34.607063 -8.826692 5
85.672582 34.329306 -10.113410 5
88.131966 34.000255 -11.345278 5
90.581654 33.712967 -12.604535 5
92.980407 33.305598 -13.751624 5
95.375424 32.955113 -14.940319 5
97.732798 32.517016 -16.047769 5
100.076692 32.086759 -17.156134 5
102.401522 31.634794 -18.241082 5
104.700043 31.115252 -19.265724 5
106.929113 30.266335 -20.018582 5
109.079587 28.958257 -20.402262 5
111.159049 27.132564 -20.380051 5
113.201807 24.903147 -20.053462 5
115.279109 22.711529 -19.778242 5
117.766489 23.742603 -22.035368 6
120.017019 22.971276 -22.877033 6
122.258777 22.136451 -23.671937 6
124.502888 21.339712 -24.498681 6
126.737019 20.425962 -25.240134 6
128.919548 18.666724 -25.356258 6
131.095549 16.394023 -25.109473 6
133.352250 15.313932 -25.758163 6
135.614243 14.211738 -26.398121 6
137.881336 13.028326 -26.987537 6
140.156966 11.824788 -27.571694 6
142.442114 10.501580 -28.081009 6
144.740040 9.123653 -28.563392 6
147.052993 7.676246 -29.009887 6
149.386084 6.072696 -29.362639 6
-6.224511 105.259073 -5.443976 2
-4.165542 103.742517 -5.439659 2
-0.021195 104.092639 -8.015919 2
3.557557 104.033391 -9.969610 2
6.300088 103.273952 -10.929371 2
7.627037 101.197714 -10.104994 2
8.964310 99.106845 -9.278394 2
8.551165 95.215513 -6.115066 3
12.611051 95.857475 -8.882880 3
13.473689 93.203686 -7.374748 3
15.135986 91.369425 -6.936328 3
14.561361 87.003011 -3.337295 1
15.526447 84.266551 -1.834323 1
11.208971 75.197243 7.400899 1
11.167871 70.936986 10.608350 1
14.691320 70.999316 8.555977 1
18.091000 70.997353 6.618766 1
20.168937 69.338133 6.668019 1
16.557939 39.702561 30.755500 9
21.792661 42.331572 25.785896 9
26.299535 44.045006 21.911154 9
30.378748 45.251032 18.655769 9
30.841331 40.450336 21.934022 9
37.676903 46.671906 13.366077 9
41.056286 47.105713 11.077116 9
44.074669 46.986733 9.402830 9
46.804230 46.397503 8.240334 9
49.261750 45.322672 7.591169 9
51.605764 44.038441 7.159235 9
53.937952 42.738630 6.742350 9
56.280634 41.469542 6.293371 9
58.607799 40.173903 5.869682 9
60.938220 38.891903 5.430716 9
61.635188 33.621715 8.878578 9
65.148679 35.202856 5.633950 5
68.021632 35.321553 3.837173 5
70.847878 35.425045 2.076001 5
73.620183 35.487363 0.373807 5
76.357745 35.556740 -1.316060 5
78.999361 35.441596 -2.816968 5
81.607986 35.317088 -4.294489 5
84.192993 35.210246 -5.773925 5
86.713226 34.975193 -7.124060 5
89.191223 34.673260 -8.403155 5
91.658630 34.413991 -9.710107 5
94.087959 34.088708 -10.949086 5
96.517377 33.847656 -12.252584 5
98.902446 33.499793 -13.454535 5
101.262500 33.115729 -14.618046 5
103.595589 32.675285 -15.727227 5
105.884025 32.067213 -16.690384 5
108.091155 31.038569 -17.301270 5
110.220014 29.511071 -17.504915 5
112.287717 27.478946 -17.307708 5
114.372719 25.388652 -17.082157 5
116.828830 26.071235 -19.101254 6
119.094841 25.395480 -20.020326 6
121.359227 24.754872 -20.967027 6
123.602229 23.938713 -21.776284 6
125.851737 23.219861 -22.663292 6
128.090503 22.386583 -23.463803 6
130.330509 21.575814 -24.284560 6
132.567157 20.695974 -25.056323 6
134.805602 19.819167 -25.834579 6
136.990666 16.695229 -24.954529 6
139.254574 15.622723 -25.613518 6
141.524967 14.512003 -26.252156 6
143.803553 13.333493 -26.850127 6
146.092193 12.118520 -27.431327 6
148.393897 10.809467 -27.955971 6
-6.785073 108.663087 -3.709117 2
-3.344592 108.300855 -5.391077 2
-1.317703 106.790199 -5.379505 2
0.627960 105.217064 -5.275937 2
2.615721 103.687772 -5.233103 2
6.671704 104.097949 -7.875297 2
9.330978 103.278340 -8.770501 2
10.423486 100.958472 -7.612572 2
11.754792 98.841390 -6.750781 2
12.352617 95.935059 -4.862443 3
14.187912 94.277002 -4.649345 3
15.028714 91.527155 -3.026878 3
14.402208 87.065230 0.753853 1
15.422510 84.348521 2.241420 1
7.516376 70.986101 17.048421 1
11.117320 70.999142 14.944666 1
14.633611 71.001751 12.895095 1
18.087280 71.017627 10.868889 1
23.115043 38.431182 32.663585 9
28.624747 41.795077 26.859631 9
33.110874 43.713805 22.751481 9
37.056536 44.897668 19.516040 9
40.818366 45.920688 16.508118 9
43.990488 45.998960 14.560945 9
46.812715 45.501219 13.253631 9
49.374056 44.545577 12.444101 9
51.691375 43.118444 12.132547 9
54.127553 41.947264 11.554120 9
56.455901 40.555070 11.203599 9
58.807353 39.217418 10.795160 9
61.202960 37.989134 10.274942 9
61.610137 31.868387 14.624210 9
65.503640 34.310988 10.438408 5
68.511428 34.695225 8.329261 5
71.481810 35.113120 6.214528 5
74.315094 35.277824 4.369734 5
77.111076 35.452424 2.537240 5
79.826104 35.497864 0.847790 5
82.507921 35.548991 -0.828580 5
85.120271 35.479008 -2.374826 5
87.670106 35.291750 -3.798020 5
90.220780 35.204327 -5.299208 5
92.723528 35.036062 -6.713429 5
95.193894 34.835004 -8.086084 5
97.612079 34.505038 -9.333187 5
100.010822 34.172235 -10.568993 5
102.402245 33.892476 -11.842651 5
104.765635 33.563573 -13.065097 5
107.031324 32.780083 -13.890815 5
109.214970 31.533261 -14.323019 5
111.341345 29.873088 -14.414399 5
113.421695 27.773298 -14.152445 5
115.537161 25.736565 -13.962271 5
118.135012 27.548458 -16.942439 6
120.406601 26.906295 -17.893955 6
122.423620 23.668491 -16.756562 6
124.929528 25.586961 -19.766628 6
127.186234 24.960036 -20.728535 6
129.427530 24.164323 -21.557956 6
131.668512 23.377413 -22.396538 6
133.907742 22.561186 -23.215019 6
136.148433 21.779968 -24.063278 6
138.388216 20.947133 -24.875398 6
140.628799 20.021729 -25.622025 6
142.879429 16.939865 -24.774672 6
145.152304 15.902170 -25.464216 6
147.433658 14.789720 -26.106501 6
149.725700 13.615135 -26.712351 6
-6.412526 109.620361 -0.589331 2
-2.481566 109.640516 -2.905853 2
1.315324 109.639807 -5.129821 2
3.346768 108.172264 -5.163614 2
5.269523 106.616713 -5.066625 2
6.859213 104.756258 -4.536163 2
9.661874 104.043108 -5.624490 2
11.831930 102.758511 -5.893353 2
12.028721 99.502414 -3.452469 2
11.597594 95.506379 -0.062589 3
14.803724 95.248032 -1.755678 3
14.919395 91.688392 0.963954 3
14.165245 87.045453 5.044473 1
5.570415 73.197387 20.973142 1
7.338805 70.951628 21.677131 1
11.003498 70.986913 19.469558 1
14.541114 70.962289 17.381681 1
29.720139 37.254062 34.443910 9
35.403832 41.266132 27.900643 9
39.880488 43.430492 23.514339 9
43.472143 44.166157 20.766086 9
46.453282 43.860843 19.189866 9
49.106308 42.974930 18.258640 9
51.511345 41.613275 17.842753 9
53.959473 40.352162 17.320357 9
56.340910 38.955857 16.940171 9
58.769624 37.671896 16.441833 9
61.191551 36.381799 15.949673 9
61.582057 30.046356 20.583042 9
65.484738 32.404322 16.370141 5
68.808543 33.504692 13.477413 5
71.900010 34.155390 11.070676 5
74.870770 34.619667 8.878952 5
77.779619 35.047246 6.751037 5
80.569603 35.248288 4.867925 5
83.313439 35.428321 3.026949 5
85.995280 35.525294 1.285581 5
88.607739 35.496051 -0.318457 5
91.189635 35.465812 -1.905238 5
93.723023 35.358330 -3.405125 5
96.224389 35.226960 -4.869231 5
98.703649 35.108249 -6.331698 5
101.136070 34.882768 -7.685600 5
103.536939 34.603549 -8.981071 5
105.894827 34.194033 -10.152345 5
108.146803 33.258090 -10.856898 5
110.314105 31.804558 -11.114875 5
112.419872 29.860583 -10.961654 5
114.541855 27.865237 -10.781946 5
117.110432 29.251541 -13.471071 6
119.410738 28.748459 -14.549297 6
121.696660 28.198389 -15.584965 6
123.977156 27.677122 -16.641637 6
126.243907 27.085200 -17.638066 6
128.497905 26.394583 -18.553474 6
130.752370 25.773513 -19.524725 6
133.001549 25.136427 -20.482827 6
135.244309 24.421758 -21.380062 6
137.482278 23.571615 -22.173304 6
139.723098 22.818121 -23.044594 6
141.963810 22.031215 -23.892789 6
144.206641 21.126771 -24.655141 6
146.452696 20.255606 -25.447446 6
148.770220 17.153430 -24.586334 6
-3.255624 109.620152 1.678040 2
-0.439570 108.724701 0.707180 2
4.338461 109.598001 -2.869467 2
6.835220 108.552605 -3.531751 2
7.866719 106.182004 -2.248194 2
9.268204 104.123720 -1.440628 2
11.978952 103.323149 -2.434740 2
11.916454 99.780864 0.443302 2
11.439834 95.705213 3.997143 3
14.762482 95.525075 2.129562 3
14.767813 91.809553 5.099047 3
5.433508 77.516898 22.189431 1
5.377650 73.202130 25.670699 1
35.069460 33.786135 38.788675 9
41.996023 40.481655 29.206082 9
45.566389 41.150922 26.464607 9
48.466678 40.612753 25.090496 9
50.909465 39.183317 24.702085 9
53.365399 37.787666 24.276457 9
55.801677 36.354389 23.890384 9
58.268708 34.995507 23.424093 9
60.696220 33.548160 23.049845 9
60.093437 24.492684 30.562899 9
61.649649 20.471264 32.756902 9
68.473341 30.537549 20.554552 5
71.992995 32.219157 17.022660 5
75.194224 33.221137 14.223223 5
78.279496 34.069993 11.614849 5
79.943763 30.546374 13.337358 5
84.041344 34.994244 7.256879 5
86.793076 35.248809 5.319176 5
89.453922 35.313233 3.586082 5
92.098574 35.444187 1.808774 5
94.694564 35.515020 0.107318 5
97.233944 35.476634 -1.474658 5
99.731291 35.372169 -2.980234 5
102.204361 35.271651 -4.475619 5
104.632373 35.063479 -5.859995 5
106.979990 34.524230 -6.935568 5
109.209332 33.349927 -7.439764 5
111.358647 31.633028 -7.469526 5
113.487453 29.649296 -7.279143 5
115.655659 27.781391 -7.206956 5
118.363859 30.263297 -10.892159 6
120.679614 29.844060 -12.054144 6
122.980586 29.391646 -13.182742 6
125.268412 28.905318 -14.278415 6
127.540210 28.322187 -15.290038 6
129.811903 27.839751 -16.382561 6
132.069231 27.232047 -17.369800 6
134.321145 26.608669 -18.343363 6
136.567421 25.927047 -19.269769 6
138.811612 25.258678 -20.207303 6
141.053806 24.623661 -21.171755 6
143.294633 23.758389 -21.957156 6
145.536764 22.991382 -22.822449 6
147.780695 22.197660 -23.670116 6
150.028551 21.352761 -24.482398 6
3.756763 109.649573 1.536461 2
6.995972 109.223252 -0.112759 2
8.108580 106.902309 1.103775 2
8.820268 104.164032 2.908510 2
11.750431 103.528591 1.616555 2
11.796757 100.060027 4.427680 2
7.671113 92.194011 13.419975 3
12.263363 93.207723 9.743627 3
14.634109 91.956592 9.295012 3
46.084533 34.648920 36.144853 9
49.037120 34.018535 34.785659 9
51.586918 32.574463 34.337485 9
53.805209 30.386512 34.698731 9
56.168112 28.488949 34.731521 9
58.146238 25.623622 35.788407 9
69.789092 23.633138 29.976013 5
74.894587 29.887144 21.671284 5
78.381047 31.780453 17.915316 5
81.546163 32.923158 14.968059 5
84.577628 33.841088 12.285644 5
87.448417 34.397854 9.995343 5
90.210399 34.727337 7.956088 5
92.945147 35.111480 5.888474 5
95.589675 35.290687 4.042052 5
98.193610 35.443955 2.240833 5
100.745937 35.509892 0.541356 5
103.243136 35.449098 -1.022374 5
105.695011 35.283262 -2.474109 5
108.020676 34.521324 -3.366557 5
110.247596 33.190694 -3.739528 5
112.383573 31.199642 -3.524328 5
114.556015 29.296771 -3.405476 5
117.255263 31.415915 -6.863625 6
119.591432 30.986545 -8.039109 6
121.934297 30.741315 -9.368702 6
124.247032 30.336360 -10.552068 6
126.551721 29.974824 -11.766826 6
128.839073 29.531751 -12.906503 6
131.113804 29.031907 -13.994068 6
133.378519 28.478963 -15.034166 6
135.638751 27.972564 -16.110460 6
137.890350 27.370845 -17.106269 6
140.138159 26.789956 -18.118060 6
142.381997 26.100225 -19.041561 6
144.624738 25.399014 -19.956862 6
146.866347 24.722273 -20.892815 6
149.111328 23.921828 -21.733378 6
-14.364694 94.450100 29.923253 3
5.577670 108.489620 5.546619 2
4.461182 104.053577 9.967276 2
5.485287 101.487435 11.465964 2
10.774687 103.017786 6.833659 2
3.934897 92.615066 19.868028 3
7.546914 92.453832 17.710788 3
11.205567 92.431491 15.406460 3
14.498685 92.108383 13.584021 3
81.281050 29.142492 22.872651 5
84.803786 31.521388 18.613615 5
87.896209 32.703539 15.621657 5
90.848150 33.602414 12.953694 5
93.681106 34.251567 10.568048 5
96.406989 34.652669 8.455603 5
99.091718 35.053958 6.368461 5
101.696512 35.262988 4.490810 5
104.257289 35.420284 2.683234 5
106.714851 35.183718 1.266751 5
109.023206 34.187230 0.573444 5
111.214244 32.447213 0.568866 5
113.397555 30.528917 0.714938 5
115.580272 28.435465 1.004376 5
118.451304 31.867232 -3.715390 6
120.822642 31.644278 -5.094857 6
123.180760 31.461470 -6.500090 6
125.508672 31.125651 -7.760676 6
127.826088 30.826420 -9.045869 6
130.125895 30.457874 -10.263686 6
132.415068 30.101605 -11.485962 6
134.688602 29.621529 -12.597246 6
136.954774 29.151952 -13.713676 6
139.212760 28.629580 -14.782551 6
141.465027 28.109952 -15.851262 6
143.712588 27.502044 -16.845482 6
145.956407 26.938119 -17.874823 6
148.273525 23.728920 -16.774900 6
150.443082 25.582739 -19.749515 6
-15.294587 98.054719 32.281870 3
-12.514240 96.712666 31.627109 3
-9.720833 95.415692 30.924221 3
-6.781056 94.287579 29.980947 3
-3.560643 93.466901 28.591773 3
0.130380 93.161177 26.456139 3
3.828596 92.949651 24.234319 3
7.485403 92.786422 21.997107 3
11.083502 92.653169 19.771420 3
14.366920 92.271046 17.961620 3
87.717349 28.564526 23.894675 5
91.140052 31.017239 19.550669 5
94.223599 32.487075 16.262042 5
97.112199 33.420443 13.555519 5
99.895636 34.126385 11.110120 5
102.579317 34.580083 8.943279 5
105.202627 34.930790 6.902618 5
107.632134 34.392885 5.741252 5
109.298546 29.272359 8.961551 5
112.145663 31.290554 5.358864 5
114.339555 29.144688 5.710781 5
117.204943 32.100533 1.301147 6
119.626691 32.011461 -0.239650 6
122.038688 32.034836 -1.870005 6
124.415634 31.925850 -3.366091 6
126.764812 31.707831 -4.752477 6
129.099592 31.514494 -6.151103 6
131.413703 31.234936 -7.464037 6
133.715140 30.971527 -8.783134 6
135.998515 30.551450 -9.958734 6
138.273541 30.165084 -11.158221 6
140.539213 29.769277 -12.344451 6
142.796600 29.273208 -13.441389 6
145.049124 28.707621 -14.477309 6
147.295335 28.242231 -15.594649 6
149.541586 27.619802 -16.580302 6
-16.087706 101.790222 34.453718 3
-13.270072 100.454536 33.747401 3
-10.474105 99.135343 33.040408 3
-7.742041 97.794372 32.394222 3
-4.997091 96.497568 31.700261 3
-2.272843 95.215139 31.006861 3
0.630462 94.138912 30.013859 3
3.830373 93.401172 28.527713 3
7.431069 93.134916 26.363163 3
11.034096 92.959201 24.117498 3
14.219720 92.424219 22.462191 3
14.095163 88.278397 26.156902 3
92.798603 22.278983 30.772170 5
94.562427 17.496985 33.730055 5
100.532218 32.269240 16.896553 5
103.346350 33.178043 14.210624 5
106.034218 33.691431 11.952048 5
107.717868 28.572529 15.253420 5
110.772270 31.471732 10.677836 5
112.982801 29.259027 11.102833 5
115.194520 26.833150 11.711168 5
118.311567 31.644584 5.433763 6
120.794744 31.915243 3.520039 6
123.236600 32.070564 1.733603 6
125.635823 32.034518 0.141250 6
128.020557 32.092604 -1.523501 6
130.369397 31.931038 -2.974198 6
132.701005 31.761776 -4.407168 6
135.015750 31.570046 -5.809853 6
137.314592 31.338087 -7.167504 6
139.597781 30.936090 -8.367791 6
141.872147 30.595296 -9.615739 6
144.136637 30.261323 -10.863502 6
146.393284 29.849346 -12.038946 6
148.643876 29.401134 -13.179480 6
150.968574 27.080288 -12.748117 6
-14.026571 104.206015 35.869014 3
-11.236819 102.856673 35.170234 3
-8.497995 101.498158 34.514097 3
-5.746764 100.183306 33.810389 3
-3.038681 98.863330 33.140422 3
-0.365220 97.543570 32.493633 3
2.319079 96.265645 31.801979 3
4.998359 95.015487 31.088798 3
7.876316 94.000764 30.030336 3
11.038187 93.329259 28.472528 3
14.105021 92.620006 27.012900 3
99.899416 24.026780 29.402675 5
103.830694 30.119290 21.296034 5
106.669061 31.162014 18.425653 5
109.159145 30.440257 17.361764 5
111.413235 28.232650 17.779831 5
113.605350 25.373230 18.819417 5
116.724539 29.462846 13.047916 6
119.351892 30.378000 10.434356 6
121.907900 31.061469 8.075367 6
124.411875 31.620578 5.862341 6
126.854326 31.860865 3.974604 6
129.263364 32.021152 2.180655 6
131.640239 32.055833 0.520167 6
133.997043 32.129622 -1.161519 6
136.324327 31.948593 -2.596724 6
138.637415 31.826498 -4.074772 6
140.934244 31.668421 -5.509898 6
143.217170 31.367741 -6.808967 6
145.489868 31.034585 -8.072364 6
147.753157 30.698679 -9.327066 6
150.006886 30.379721 -10.590472 6
-14.786087 107.966215 37.996876 3
-12.014858 106.576631 37.323907 3
-9.259803 105.207197 36.644152 3
-6.498154 103.876846 35.924492 3
-3.796547 102.528274 35.263566 3
-1.094996 101.211836 34.573690 3
1.581420 99.904899 33.892957 3
4.231300 98.604819 33.224746 3
6.863244 97.318585 32.556694 3
9.467931 96.035919 31.904653 3
12.111318 94.824021 31.161451 3
13.928062 92.756580 31.773751 3
120.212181 27.104705 17.532898 6
122.951566 29.142434 13.773495 6
125.538583 30.254701 10.963379 6
128.042150 30.910280 8.627553 6
130.500676 31.458376 6.421152 6
132.915066 31.814839 4.420221 6
135.292563 31.964664 2.633399 6
137.646085 32.112878 0.864897 6
139.974738 32.112617 -0.750844 6
142.284418 31.954278 -2.209171 6
144.578050 31.913174 -3.762977 6
146.859814 31.659676 -5.114810 6
149.129706 31.421880 -6.472507 6
-15.585516 111.708500 40.184920 3
-12.771260 110.326150 39.450241 3
-9.988938 108.953735 38.729932 3
-7.235736 107.592037 38.021242 3
-4.517300 106.234872 37.333943 3
-1.840293 104.874526 36.679956 3
0.852018 103.559534 35.973601 3
3.484653 102.222344 35.331258 3
6.134005 100.931664 34.634444 3
8.749542 99.639964 33.963452 3
11.335757 98.349595 33.312875 3
13.897656 97.063861 32.676056 3
126.512326 26.377876 18.669681 6
129.187346 28.751307 14.570409 6
131.719142 29.948827 11.671093 6
134.183553 30.751076 9.189091 6
136.603311 31.417015 6.866477 6
138.979944 31.684417 4.947146 6
141.330401 31.964307 3.035179 6
143.681091 28.535763 4.588297 6
145.963997 32.029535 -0.277531 6
148.252501 32.063970 -1.914776 6
150.529754 31.935995 -3.391766 6
-16.368703 115.477973 42.355686 3
-13.552861 114.069312 41.618062 3
-10.747295 112.688188 40.863123 3
-7.994878 111.300523 40.154619 3
-5.272882 109.921872 39.461104 3
-2.561069 108.567772 38.752984 3
0.122978 107.222868 38.057700 3
2.773944 105.880964 37.385010 3
5.415735 104.562164 36.698301 3
8.039124 103.257643 36.012693 3
10.632990 101.955674 35.347451 3
13.203903 100.661016 34.693230 3
13.753897 97.297097 37.484809 3
132.833315 25.192910 20.266612 6
135.447322 28.388400 15.344686 6
137.923567 29.811345 12.219748 6
140.338773 30.631815 9.716423 6
142.714632 31.267151 7.419508 6
145.059887 31.628252 5.408112 6
147.379917 31.913539 3.488336 6
149.681709 32.026943 1.747224 6
-14.292339 117.857807 43.731889 3
-11.515682 116.428341 43.017727 3
-8.745690 115.028089 42.282060 3
-6.013477 113.632691 41.571853 3
-3.286256 112.266827 40.838523 3
-0.621097 110.882944 40.171006 3
2.046431 109.532738 39.470773 3
4.691138 108.194617 38.777652 3
7.315580 106.869796 38.088522 3
9.921085 105.558553 37.402095 3
12.500076 104.252593 36.732084 3
13.712025 101.603298 38.392445 3
139.210519 22.644188 23.228316 6
141.734003 27.838232 16.310925 6
144.145903 29.413074 13.029586 6
146.512262 30.433975 10.326561 6
148.845125 31.163683 7.935125 6
-15.067813 121.635040 45.906407 3
-12.283333 120.183814 45.179717 3
-9.526695 118.746655 44.462914 3
-6.777630 117.337745 43.726310 3
-4.040758 115.953600 42.976881 3
-1.352343 114.564701 42.271743 3
1.330006 113.203514 41.546077 3
3.983846 111.850968 40.836015 3
6.591610 110.489956 40.171983 3
9.196231 109.156660 39.485082 3
11.790885 107.845053 38.786506 3
13.674961 105.874471 39.289464 3
148.069589 27.142240 17.432277 6
150.814230 18.891945 23.744618 6
-15.844780 125.428115 48.093549 3
-13.046189 123.958465 47.344769 3
-10.241093 122.528610 46.553569 3
-7.508924 121.081499 45.840331 3
-4.790208 119.657738 45.116973 3
-2.064891 118.272659 44.352120 3
0.612897 116.883913 43.631288 3
3.261310 115.503710 42.927757 3
5.892601 114.140948 42.222818 3
8.495160 112.784705 41.536646 3
11.087975 111.450585 40.838437 3
13.649602 110.118329 40.165571 3
-16.593106 129.257605 50.250781 3
-13.807132 127.751177 49.518836 3
-11.000475 126.293432 48.723417 3
-8.245018 124.835789 47.972891 3
-5.512485 123.396024 47.225931 3
-2.812230 121.966199 46.498256 3
-0.136497 120.550684 45.779019 3
2.522299 119.154401 45.056947 3
5.161421 117.774482 44.337171 3
7.771739 116.402316 43.635932 3
10.384734 115.063898 42.900855 3
12.937487 113.703188 42.240711 3
13.509656 110.522217 45.066952 3
-14.558255 131.568038 51.691815 3
-11.748620 130.082898 50.889636 3
-9.002344 128.591154 50.151233 3
-6.230166 127.151562 49.340370 3
-3.513063 125.708188 48.583282 3
-0.831219 124.272635 47.851194 3
1.805818 122.835699 47.161682 3
4.442670 121.430112 46.443098 3
7.078229 120.055583 45.696623 3
9.685773 118.690098 44.967616 3
12.257703 117.325474 44.270970 3
13.496264 114.790518 45.919766 3
-15.309417 135.403578 53.880171 3
-12.496612 133.890421 53.070750 3
-9.724029 132.387491 52.289425 3
-6.978263 130.901809 51.517111 3
-4.259146 129.432356 50.754684 3
-1.552836 127.987856 49.980874 3
1.105602 126.542182 49.253648 3
3.734080 125.106197 48.545962 3
6.381340 123.716708 47.776562 3
8.969401 122.312359 47.077946 3
11.563652 120.944111 46.339428 3
13.447506 118.991298 46.840259 3
-16.050209 139.265184 56.070027 3
-13.266810 137.703963 55.302925 3
-10.446851 136.200361 54.445869 3
-7.701334 134.686223 53.670996 3
-4.994989 133.180740 52.926190 3
-2.264474 131.725319 52.110368 3
0.385618 130.248163 51.393988 3
3.037818 128.804688 50.643768 3
5.676076 127.383521 49.886200 3
8.296941 125.981579 49.127621 3
10.873152 124.576168 48.416780 3
13.425367 123.181660 47.719730 3
-14.207281 141.442235 57.816738 3
-11.206979 140.009878 56.679056 3
-8.425538 138.488044 55.844931 3
-5.699609 136.967131 55.065675 3
-3.003850 135.460771 54.303073 3
-0.312135 133.985286 53.515213 3
2.348585 132.522105 52.747094 3
4.970835 131.064246 52.013187 3
7.584268 129.631796 51.264202 3
10.193791 128.228534 50.491409 3
12.750986 126.815965 49.781476 3
13.275559 123.747432 52.763352 3
-12.992224 143.263841 60.543510 3
-9.558977 142.070387 58.691514 3
-6.501750 140.712347 57.382772 3
-3.699671 139.242773 56.444363 3
-1.009995 137.738498 55.656061 3
1.656534 136.252616 54.874406 3
4.284328 134.773304 54.127250 3
6.922761 133.333960 53.330616 3
9.495739 131.879332 52.618028 3
12.084842 130.467955 51.846961 3
13.230594 127.938563 53.696451 3
-13.371621 144.206595 65.856123 3
-8.635738 143.714096 61.887553 3
-5.044592 142.654691 59.678085 3
-1.920950 141.377243 58.175299 3
0.953357 139.992621 57.041864 3
3.620641 138.513176 56.222911 3
6.221749 137.022303 55.486976 3
8.808378 135.552746 54.746563 3
11.412697 134.127783 53.943805 3
13.190455 132.104027 54.632927 3
-15.543823 144.198630 74.229019 3
-9.775164 144.195749 68.554158 3
-4.484257 144.071386 63.500547 3
-0.658228 143.194821 60.784480 3
2.554910 142.013409 59.038855 3
5.467409 140.692895 57.760475 3
8.151630 139.262880 56.843127 3
10.739009 137.800694 56.066017 3
13.184224 136.266632 55.520708 3
-11.853328 144.194961 76.996474 3
-6.171986 144.195024 71.259017 3
-0.754945 144.196643 65.794769 3
3.565326 143.664845 62.091052 3
6.896460 142.598727 60.040184 3
9.898623 141.376867 58.517484 3
12.637268 140.022824 57.428340 3
13.010207 136.992752 60.765759 3
-14.049464 144.190466 85.902561 3
-8.168156 144.195090 79.793828 3
-2.578072 144.194914 74.002339 3
2.767404 144.205121 68.460315 3
7.592901 144.037195 63.686126 3
11.149755 143.159158 61.114625 3
12.987896 141.169643 61.710243 3
-16.348281 144.196107 95.268781 3
-10.286510 144.187007 88.815260 3
-4.489649 144.197742 82.629294 3
1.008347 144.195764 76.787535 3
6.262264 144.201221 71.205429 3
11.268123 144.199973 65.904522 3
12.809325 141.973135 67.123822 3
-12.505653 144.188431 98.309339 3
-6.505985 144.200299 91.727083 3
-0.829137 144.195401 85.530818 3
4.606436 144.208830 79.585013 3
9.752896 144.198266 73.996220 3
12.628754 142.803800 72.697503 3
12.483387 139.325577 77.420800 3
-14.848180 144.192398 108.342104 3
-8.643408 144.198566 101.350930 3
-2.759583 144.199858 94.739471 3
2.836955 144.201369 88.462211 3
8.156630 144.195665 82.516507 3
12.444327 143.661897 78.443262 3
12.292868 140.149975 83.332923 3
-17.332628 144.195257 118.976782 3
-10.918068 144.189505 111.559744 3
-4.828091 144.187735 104.526270 3
0.980500 144.200608 97.810887 3
6.468589 144.189744 91.510142 3
11.721037 144.194244 85.471884 3
12.112587 141.012756 89.404258 3
-18.096244 145.198356 126.644374 0
-13.305498 144.193626 122.336914 3
-6.993346 144.189630 114.840243 3
-0.980547 144.200992 107.692175 3
4.700906 144.193114 100.977953 3
10.119885 144.193380 94.576573 3
11.910591 141.893565 95.711459 3
-19.396997 145.974202 135.611015 0
-13.088047 145.705748 128.261587 0
-9.263264 144.206989 125.725935 3
-3.068255 144.195260 118.181130 3
2.827474 144.194556 111.001069 3
8.432319 144.195297 104.188117 3
11.711232 142.811117 102.214575 3
-15.508830 145.835090 139.760837 0
-9.002988 145.727777 131.726321 0
-4.237196 144.803761 127.096519 0
0.846601 144.199051 121.614486 3
6.644939 144.196687 114.364646 3
11.497525 143.755975 108.962327 3
11.299439 139.959673 114.858843 3
-18.565622 145.717842 153.000131 0
-11.396087 145.819224 143.550931 0
-4.928868 145.749994 135.287284 0
1.223056 145.699801 127.420910 0
4.749032 144.198032 125.158370 3
10.460077 144.198931 117.818295 3
11.091065 140.912692 122.028345 3
11.223053 137.175335 127.585000 0
-20.477366 146.301751 164.281140 0
-14.000838 145.886678 156.268633 0
-7.181227 145.865816 147.210297 0
-0.829545 145.792387 138.876756 0
5.193596 145.725506 130.989221 0
9.186849 144.545163 127.548422 0
11.661001 142.432971 127.593673 0
12.803926 139.391189 130.873308 0
-17.131002 145.773931 170.629120 0
-9.926721 145.796281 160.695716 0
-1.843928 146.574742 148.375892 0
3.277301 145.844269 142.541590 0
9.178279 145.762779 134.623474 0
12.761711 144.336795 132.044879 0
12.546867 140.337033 138.799894 0
-20.405516 145.701853 185.870190 0
-12.588505 145.877514 174.509297 0
-3.845385 146.857293 160.548040 0
1.031855 145.847082 155.331977 0
7.274084 145.830696 146.580589 0
12.514445 145.374685 139.985183 0
12.279876 141.321419 147.045667 0
12.058983 137.115969 154.362711 0
-21.967905 146.632519 197.736025 0
-15.690713 145.830824 189.905405 0
-6.560315 146.828697 174.913412 0
-1.492660 145.778203 169.317689 0
5.070081 145.796062 159.767129 0
12.021996 146.302217 148.847720 0
12.013823 142.354815 155.602379 0
11.775382 138.091865 163.253051 0
-19.056584 145.769852 206.558751 0
-11.098565 145.902843 194.351714 0
-3.584907 146.064965 182.790580 0
2.774841 145.800058 173.730616 0
10.503746 146.631260 160.734385 0
11.748895 143.440386 164.489191 0
11.495628 139.121378 172.484872 0
-22.173250 145.975160 223.281053 0
-14.332517 145.842994 211.329009 0
-5.389536 146.617086 196.079486 0
0.324579 145.813101 188.687839 0
6.998787 145.793573 178.431553 0
11.426932 144.543090 173.886235 0
11.187805 140.185678 182.169459 0
-17.928373 145.729102 229.959525 0
-7.941742 146.852694 211.889246 0
-2.334004 145.815300 204.847782 0
4.596953 145.766402 193.894843 0
11.139029 145.727421 183.573652 0
10.853825 141.290552 192.332358 0
10.559994 136.652535 201.513342 0
-12.977036 145.855037 235.076156 0
-5.217411 145.811370 222.337865 0
2.019056 145.745344 210.541087 0
10.234635 146.581440 195.436691 0
