ply
format ascii 1.0
element vertex 1363
property float x
property float y
property float z
property int scalar_Label
end_header
-49.205717 40.340752 22.242222 9
-46.035039 41.443782 22.149823 9
-42.402383 42.015649 22.088034 9
-38.283766 42.058864 22.056648 9
-34.081972 42.078882 22.034486 9
-29.769057 42.047277 22.022921 9
-25.473380 42.115042 22.015833 9
-21.021751 42.086729 22.021610 9
-16.498668 42.062644 22.036279 9
-11.932475 42.075814 22.058687 9
-7.242367 42.042090 22.092613 9
-2.476372 42.016652 22.136002 9
2.378062 41.989419 22.189553 9
7.311486 41.973080 22.253014 9
-13.979813 67.679988 21.221575 1
-14.188254 72.307502 21.097520 1
-14.204587 76.668948 20.991991 1
-13.005906 79.831420 20.946119 1
-10.754619 82.006914 20.951817 1
-8.023430 83.759925 20.985043 1
-4.710415 85.025563 21.049479 1
65.536656 28.883503 23.771664 5
71.835408 28.780509 23.956569 5
78.244982 28.702904 24.155320 5
84.736176 28.677692 24.367111 5
91.591482 28.481925 24.603326 5
98.579312 28.311090 24.855261 5
105.801700 28.090964 25.127290 5
130.635069 14.767938 26.096574 6
139.063086 14.180579 26.439436 6
147.940099 13.430826 26.812758 6
-113.216554 -6.606585 32.047060 8
-114.645476 3.777618 31.130977 8
-113.824655 9.164899 30.564819 8
-112.541332 13.449719 30.084503 8
-111.129019 17.353948 29.641081 8
-108.895758 19.585789 29.316000 8
-106.514166 21.506267 29.020038 8
-103.168832 21.651755 28.844195 8
-99.700594 21.634905 28.685386 8
-96.202040 21.629357 28.532739 8
-92.688477 21.662534 28.384679 8
-89.118046 21.664066 28.245610 8
-85.473575 21.609802 28.117027 8
-81.808737 21.591300 27.993495 8
-78.106491 21.581737 27.876751 8
-74.329328 21.524937 27.770222 8
-70.543546 21.525944 27.667827 8
-66.710755 21.526749 27.573122 8
-63.645836 22.711815 27.417705 9
-63.232222 27.693733 27.052245 9
-60.781703 29.713201 26.867135 9
-58.198974 31.545645 26.701634 9
-55.630618 33.399278 26.543758 9
-53.152276 35.373399 26.387874 9
-50.536337 37.168029 26.251018 9
-47.635389 38.607238 26.143074 9
-44.337533 39.572763 26.070661 9
-40.333423 39.714760 26.053526 9
-36.171440 39.737777 26.051999 9
-31.930661 39.743828 26.060523 9
-27.601790 39.725699 26.079720 9
-23.188053 39.691030 26.109392 9
-18.699181 39.654291 26.148964 9
-14.137118 39.620528 26.198402 9
-9.478741 39.567685 26.259232 9
-4.773301 39.551577 26.328544 9
0.066014 39.483580 26.411716 9
4.984429 39.425167 26.505540 9
9.985024 39.375976 26.610353 9
15.094361 39.312852 26.727854 9
20.328105 39.224917 26.859069 9
25.645001 39.155891 27.001802 9
31.099262 39.058240 27.159299 9
36.665262 38.960518 27.330296 9
42.458469 38.763711 27.521352 9
55.467645 32.365071 28.113887 9
69.670184 25.282125 28.774268 5
76.139908 25.085361 29.021417 5
82.604880 25.013769 29.277424 5
89.499021 24.713090 29.565887 5
96.590392 24.385761 29.874622 5
103.795933 24.103533 30.199577 5
-109.789430 -5.473581 35.625070 8
-111.056437 4.341561 34.657485 8
-110.461774 10.080561 34.025421 8
-109.197044 14.325816 33.522412 8
-107.336232 17.315184 33.127419 8
-104.827970 19.034848 32.839210 8
-101.582200 19.403477 32.661801 8
-98.241915 19.651410 32.501133 8
-94.876770 19.909234 32.347392 8
-91.504609 20.208556 32.198328 8
-88.023748 20.378978 32.066591 8
-84.523002 20.575407 31.940791 8
-80.968764 20.744385 31.824938 8
-77.404387 20.957536 31.713919 8
-73.725281 21.053376 31.619525 8
-70.036693 21.199489 31.529731 8
-66.271626 21.296014 31.451849 8
-63.444090 22.817042 31.280782 9
-61.063098 24.984377 31.072857 9
-58.719462 27.191674 30.871459 9
-56.316060 29.304550 30.686091 9
-53.908262 31.403255 30.511007 9
-51.452303 33.431726 30.350143 9
-48.799771 35.203101 30.216684 9
-45.644387 36.344744 30.136970 9
-42.015371 36.929215 30.105958 9
-37.812444 36.866803 30.130212 9
-33.565162 36.829379 30.162445 9
-29.257173 36.798946 30.204162 9
-24.862322 36.747588 30.257592 9
-20.407580 36.709685 30.320548 9
-15.831301 36.618754 30.398060 9
-11.187390 36.539345 30.485808 9
-6.482308 36.480694 30.583417 9
-1.655246 36.380722 30.695697 9
3.258679 36.281010 30.819989 9
8.273797 36.170204 30.957481 9
13.437009 36.005504 31.111737 9
18.702862 35.837637 31.279449 9
24.050420 35.690380 31.459249 9
29.520404 35.527879 31.654264 9
35.110900 35.356448 31.864504 9
40.853335 35.151888 32.092354 9
48.692946 33.186688 32.473785 9
73.077184 16.924798 34.007512 5
80.130642 16.247023 34.338695 5
87.476455 15.462001 34.697989 5
95.121772 14.575153 35.086066 5
103.222325 13.471421 35.513710 5
-93.765847 5.875939 37.538230 8
-90.896965 7.236312 37.290165 8
-87.845478 8.288607 37.078343 8
-84.566418 8.976763 36.907282 8
-81.271487 9.677233 36.744085 8
-77.811959 10.148268 36.609652 8
-74.290072 10.568849 36.488485 8
-70.688013 10.915923 36.382609 8
-67.068765 11.292443 36.283286 8
-63.106411 11.208130 36.232417 9
-62.491697 16.137612 35.764387 9
-60.561788 19.044642 35.478718 9
-58.492407 21.713236 35.223219 9
-56.344742 24.242398 34.989343 9
-54.081579 26.589602 34.780593 9
-51.724509 28.794514 34.593544 9
-49.278960 30.872849 34.426831 9
-46.330479 32.298037 34.325102 9
-42.844300 33.063452 34.289114 9
-38.746755 33.115735 34.323750 9
-34.509396 33.071023 34.377030 9
-30.183504 32.998495 34.443344 9
-25.798197 32.936475 34.519688 9
-21.275573 32.797283 34.613870 9
-16.704226 32.688130 34.716998 9
-12.056344 32.579344 34.831924 9
-7.322090 32.463086 34.959653 9
-2.454991 32.292989 35.104597 9
2.482980 32.140195 35.260925 9
7.555020 31.941726 35.434576 9
12.725867 31.739062 35.622328 9
17.962479 31.568696 35.821331 9
23.530321 31.173032 36.055320 9
29.081093 30.901962 36.293284 9
34.809562 30.569167 36.552632 9
40.683976 30.211246 36.830648 9
51.435576 25.539115 37.531467 9
-64.269426 1.374580 41.277581 9
-63.043976 5.597609 40.815457 9
-61.728305 9.591273 40.386873 9
-60.860021 14.160343 39.912248 9
-58.697767 16.754893 39.642525 9
-56.857354 19.777445 39.340806 9
-54.333150 21.806110 39.147004 9
-51.973671 24.054529 38.941586 9
-49.893488 26.664280 38.710517 9
-47.014459 28.200515 38.595314 9
-44.004621 29.584247 38.505342 9
-39.936158 29.652451 38.556032 9
-35.751291 29.648507 38.624879 9
-31.506749 29.647902 38.704668 9
-27.203601 29.654253 38.795303 9
-22.840128 29.667738 38.897036 9
-18.380995 29.649895 39.014027 9
-13.881060 29.667150 39.139901 9
-9.316358 29.693753 39.277548 9
-4.640750 29.681708 39.432198 9
0.089593 29.696097 39.597576 9
4.913253 29.697916 39.778043 9
9.799392 29.722685 39.970312 9
14.788550 29.731203 40.178857 9
19.875782 29.732447 40.403193 9
25.031342 29.759139 40.640304 9
30.322288 29.748965 40.897295 9
35.701578 29.751668 41.169374 9
41.248410 29.696912 41.464733 9
-55.054596 -6.144935 46.188601 9
-57.376062 3.518324 45.095033 9
-57.153452 9.137456 44.465572 9
-56.065151 13.363696 44.002697 9
-54.673143 17.070695 43.608328 9
-52.997905 20.315774 43.275944 9
-51.105578 23.214822 42.992524 9
-48.801472 25.527142 42.785210 9
-46.038661 27.224331 42.657494 9
-42.509123 27.945070 42.650688 9
-38.233347 27.770687 42.756509 9
-33.909763 27.618326 42.871760 9
-29.463682 27.398512 43.006926 9
-24.938983 27.170008 43.155670 9
-20.315519 26.912429 43.320686 9
-15.546437 26.576265 43.508088 9
-10.697609 26.243165 43.708902 9
-5.742462 25.886532 43.926625 9
-0.680098 25.509795 44.161322 9
4.544007 25.058942 44.419857 9
9.960775 24.508843 44.705859 9
15.473340 23.968256 45.007049 9
21.157822 23.363241 45.332863 9
27.104797 22.610968 45.694120 9
33.216682 21.818623 46.078727 9
39.550643 20.937743 46.493465 9
-50.050844 5.110944 49.078323 9
-49.559642 10.232544 48.481783 9
-48.150009 13.960446 48.070844 9
-46.013651 16.632947 47.803398 9
-42.851960 17.910553 47.723094 9
-38.430466 17.564721 47.860198 9
-33.887047 17.149989 48.018735 9
-29.187277 16.629461 48.203823 9
-24.327910 16.007785 48.415358 9
-19.231747 15.199656 48.664841 9
-13.995759 14.334133 48.936315 9
-8.378068 13.134323 49.266265 9
-2.354641 11.594286 49.656591 9
4.812421 8.903033 50.214863 9
136.719896 136.862953 -205.820699 0
132.668539 136.941625 -205.412807 0
128.634160 137.024911 -205.018789 0
124.573120 136.920927 -204.623632 0
120.300945 135.742541 -204.159820 0
141.283000 136.990307 -201.449522 0
137.179381 136.988594 -201.031633 0
133.089447 136.967458 -200.625842 0
129.031042 137.004369 -200.237229 0
124.979975 137.002180 -199.859069 0
120.899609 136.788047 -199.480056 0
116.864323 136.699648 -199.122307 0
113.700070 140.996102 -199.055917 0
145.622742 136.123820 -197.013827 0
141.717095 136.964973 -196.643251 0
137.599283 136.958893 -196.235526 0
133.506778 136.980129 -195.842348 0
129.431199 136.999718 -195.461878 0
125.345194 136.899162 -195.087492 0
121.276264 136.793835 -194.725569 0
117.242689 136.775857 -194.380860 0
113.220661 136.740329 -194.047540 0
110.304093 142.561812 -194.027906 0
146.173543 136.480136 -192.228688 0
142.139454 136.896702 -191.839046 0
138.029410 136.970817 -191.445576 0
133.896424 136.880961 -191.057146 0
130.135631 138.290007 -190.747559 0
125.743064 136.943120 -190.328358 0
121.670858 136.884066 -189.978326 0
117.610771 136.802979 -189.639473 0
113.578759 136.781669 -189.315070 0
109.548466 136.692449 -188.999722 0
106.927911 144.459832 -189.006452 0
142.537104 136.736749 -187.035466 0
138.419617 136.827397 -186.652364 0
134.310720 136.883668 -186.280082 0
130.236234 137.014028 -185.922133 0
126.135290 136.962714 -185.570007 0
122.052849 136.916361 -185.229845 0
117.979391 136.833456 -184.900238 0
113.940688 136.843074 -184.584974 0
109.889037 136.709529 -184.276904 0
105.793148 136.238455 -183.970722 0
142.735410 135.830956 -182.218704 0
138.823404 136.738416 -181.864893 0
134.709607 136.824404 -181.502844 0
130.610867 136.904419 -181.152092 0
126.529569 136.991680 -180.812797 0
122.432128 136.936446 -180.481836 0
118.356630 136.905678 -180.162612 0
114.302112 136.901998 -179.854996 0
110.243416 136.800253 -179.556598 0
106.203922 136.719432 -179.269536 0
102.052418 135.893477 -178.981116 0
139.000833 135.772121 -177.069123 0
135.105789 136.754732 -176.726938 0
130.987650 136.804771 -176.384802 0
126.906907 136.946277 -176.054456 0
122.823799 137.013183 -175.734139 0
118.726239 136.940882 -175.423398 0
114.662455 136.955138 -175.124034 0
110.586846 136.832578 -174.834309 0
106.535164 136.754240 -174.555440 0
102.511768 136.757639 -174.287426 0
98.332695 135.717261 -174.024906 0
135.255815 135.696281 -171.951949 0
131.378623 136.764932 -171.618693 0
127.270240 136.839801 -171.296317 0
123.180216 136.928302 -170.984257 0
119.077806 136.889442 -170.682856 0
115.004188 136.914475 -170.391484 0
110.935667 136.892698 -170.110433 0
106.874531 136.833473 -169.839642 0
102.824139 136.754545 -169.578976 0
98.803845 136.776915 -169.327565 0
94.627434 135.698398 -169.093844 0
131.533355 135.740261 -166.863681 0
127.637324 136.749732 -166.538257 0
123.541668 136.866227 -166.233921 0
119.455935 136.963871 -165.939626 0
115.350328 136.895391 -165.657578 0
111.276385 136.909194 -165.384016 0
107.207722 136.877288 -165.120818 0
103.149868 136.828553 -164.867473 0
99.106512 136.787384 -164.623482 0
95.070154 136.710922 -164.389535 0
90.924385 135.783097 -164.181085 0
127.813099 135.831238 -161.799376 0
123.898104 136.780828 -161.482358 0
119.796033 136.856639 -161.196279 0
115.722151 137.002703 -160.917625 0
111.608875 136.881541 -160.655385 0
107.529579 136.857375 -160.399790 0
103.472417 136.882356 -160.151936 0
99.420150 136.863992 -159.914339 0
95.372227 136.795374 -159.687194 0
91.335318 136.718019 -159.469250 0
87.228211 136.029834 -159.278899 0
124.098668 135.992737 -156.754114 0
120.138146 136.758217 -156.450696 0
116.043173 136.856646 -156.180598 0
111.949881 136.896748 -155.921507 0
107.861389 136.890472 -155.672972 0
103.777686 136.834370 -155.435125 0
99.719525 136.851134 -155.203019 0
95.665234 136.818573 -154.981444 0
91.619796 136.766485 -154.769170 0
87.584258 136.703939 -154.565772 0
83.569453 136.720926 -154.367386 0
120.428452 136.415532 -151.713724 0
116.378863 136.781963 -151.437910 0
112.289339 136.901843 -151.182404 0
108.181888 136.859721 -150.943300 0
104.089434 136.822023 -150.712300 0
100.019176 136.838039 -150.486774 0
95.961846 136.862818 -150.268899 0
91.901990 136.796660 -150.063830 0
87.856277 136.748777 -149.865837 0
83.820046 136.692151 -149.676273 0
80.165663 139.836162 -149.322002 0
116.705839 136.662803 -146.692986 0
112.613586 136.826198 -146.441565 0
108.515336 136.896981 -146.203620 0
104.408829 136.851090 -145.980727 0
100.324727 136.858326 -145.762331 0
96.245663 136.821767 -145.554410 0
92.182830 136.814707 -145.352284 0
88.131549 136.814518 -145.157296 0
84.081061 136.743462 -144.974403 0
80.043295 136.692490 -144.797714 0
76.713251 143.159089 -144.201393 0
112.926019 136.687792 -141.699246 0
108.821837 136.785635 -141.466270 0
104.721475 136.838562 -141.243932 0
100.621742 136.824015 -141.033902 0
96.535319 136.815546 -140.830726 0
92.458781 136.796153 -140.635603 0
88.399702 136.824459 -140.444060 0
84.338940 136.766432 -140.266145 0
80.291323 136.733443 -140.093411 0
76.232341 136.511475 -139.942190 0
109.139781 136.733441 -136.717581 0
105.031035 136.805314 -136.500369 0
100.930435 136.856795 -136.291766 0
96.825454 136.809023 -136.098506 0
92.738551 136.800283 -135.908730 0
88.663114 136.796214 -135.725302 0
84.598371 136.797705 -135.548081 0
80.540834 136.782842 -135.378923 0
76.491649 136.764616 -135.216653 0
72.357035 135.798776 -135.144606 0
109.386366 136.296058 -131.996878 0
105.337728 136.752389 -131.749447 0
101.226937 136.812557 -131.546388 0
97.113768 136.787118 -131.358034 0
93.015832 136.783570 -131.173954 0
88.928766 136.780450 -130.996162 0
84.851939 136.778824 -130.824497 0
80.785259 136.784589 -130.658322 0
76.724802 136.770451 -130.500284 0
72.667079 136.702834 -130.353700 0
68.533201 135.691555 -130.307495 0
105.485010 135.798916 -127.085374 0
101.520281 136.745646 -126.793312 0
97.401274 136.755979 -126.607968 0
93.295462 136.778454 -126.427254 0
89.199249 136.795217 -126.253051 0
85.109271 136.784745 -126.087673 0
81.022847 136.724160 -125.933619 0
76.953670 136.732154 -125.777790 0
72.892695 136.745442 -125.627076 0
68.834752 136.716424 -125.486719 0
64.712120 135.796562 -125.451292 0
101.647821 135.691403 -122.147256 0
97.693348 136.749117 -121.843398 0
93.573453 136.757522 -121.670323 0
89.462589 136.753562 -121.504212 0
85.362253 136.751908 -121.343251 0
81.273311 136.766699 -121.185677 0
77.189918 136.755965 -121.036532 0
73.113722 136.736177 -120.893790 0
69.046107 136.727862 -120.754908 0
64.988908 136.766930 -120.615428 0
60.897841 136.260997 -120.548147 0
97.827081 135.744288 -117.196374 0
93.857255 136.770299 -116.895964 0
89.732324 136.752595 -116.737531 0
85.618876 136.741810 -116.583197 0
81.518305 136.757597 -116.430299 0
77.418734 136.706343 -116.291221 0
73.339195 136.764971 -116.142392 0
69.257791 136.736335 -116.010022 0
65.183691 136.710995 -115.882023 0
61.117413 136.707803 -115.755825 0
57.217059 139.299973 -115.285017 0
94.030792 136.043620 -112.212337 0
89.999641 136.728516 -111.959536 0
85.880300 136.762506 -111.804347 0
81.761448 136.727026 -111.663667 0
77.656280 136.729398 -111.522031 0
73.556769 136.708781 -111.388166 0
69.467104 136.711797 -111.255294 0
65.384271 136.719153 -111.126163 0
61.485937 139.207041 -110.640119 3
57.387256 139.176787 -110.524412 3
90.271028 136.727120 -107.162684 0
86.135719 136.730718 -107.017321 0
82.001491 136.664499 -106.886903 0
77.894526 136.751525 -106.736708 0
73.777508 136.677025 -106.615690 0
69.676548 136.681378 -106.486365 0
65.787329 139.179647 -105.970178 3
61.675501 139.200038 -105.845478 3
57.565816 139.179096 -105.731177 3
53.464447 139.224354 -105.610341 3
86.394980 136.721333 -102.210184 0
82.253883 136.696557 -102.078725 0
78.127376 136.717848 -101.943198 0
74.259592 139.191012 -101.400492 3
70.125914 139.235255 -101.267494 3
65.995090 139.243637 -101.144040 3
61.864957 139.182416 -101.035812 3
57.746333 139.202345 -100.917412 3
53.630116 139.191602 -100.807638 3
49.594945 140.944000 -100.403001 3
82.810306 139.200181 -96.810567 3
78.646474 139.215403 -96.679849 3
74.486695 139.192427 -96.559125 3
70.339967 139.224098 -96.431753 3
66.193639 139.186995 -96.319817 3
62.055066 139.164065 -96.208429 3
57.926054 139.202121 -96.089119 3
53.797595 139.181157 -95.983457 3
49.674987 139.199018 -95.873792 3
78.884463 139.198588 -91.817638 3
74.713423 139.181292 -91.700463 3
70.557600 139.242001 -91.571109 3
66.401430 139.231547 -91.457982 3
62.247866 139.171867 -91.356918 3
58.107598 139.218992 -91.238034 3
53.967693 139.206603 -91.133131 3
49.831269 139.182353 -91.033077 3
45.700719 139.226871 -90.922351 3
74.943282 139.190929 -86.816885 3
70.770625 139.200834 -86.701067 3
66.605399 139.219779 -86.585632 3
62.444205 139.216046 -86.476982 3
58.288200 139.209034 -86.371172 3
54.135302 139.172907 -86.273433 3
49.988932 139.181718 -86.168688 3
45.846377 139.217420 -86.060559 3
41.703833 139.190620 -85.967253 3
70.988802 139.204104 -81.800195 3
66.808716 139.189414 -81.695297 3
62.636130 139.188919 -81.589111 3
58.469666 139.199793 -81.482209 3
54.306865 139.197468 -81.379841 3
50.149742 139.234775 -81.270627 3
45.992811 139.211323 -81.176145 3
41.839168 139.207865 -81.079003 3
37.687255 139.211014 -80.982057 3
67.019037 139.229948 -76.766055 3
62.833185 139.217869 -76.665624 3
58.652500 139.198204 -76.568191 3
54.477606 139.192123 -76.468942 3
50.307818 139.210346 -76.365416 3
46.140341 139.216292 -76.265881 3
41.974908 139.215240 -76.169129 3
37.811306 139.228685 -76.070253 3
33.648202 139.233417 -75.974513 3
63.026495 139.183967 -71.731452 3
58.836013 139.192856 -71.630180 3
54.650451 139.208980 -71.527979 3
50.465798 139.166701 -71.440479 3
46.288143 139.208039 -71.333796 3
42.110589 139.194026 -71.241064 3
37.935491 139.215504 -71.140571 3
33.760649 139.213446 -71.046410 3
29.582443 140.214335 -70.712596 3
59.022665 139.220141 -66.657807 3
54.822919 139.202616 -66.566116 3
50.627936 139.195029 -66.472267 3
46.435943 139.178245 -66.381028 3
42.248980 139.248144 -66.268349 3
38.059821 139.171679 -66.192633 3
33.873659 139.189649 -66.093483 3
29.687259 139.194271 -65.997912 3
59.206660 139.191734 -61.671582 3
54.996834 139.204837 -61.574405 3
50.788701 139.174328 -61.488510 3
46.586453 139.200066 -61.387714 3
42.385616 139.207117 -61.291635 3
38.186266 139.213152 -61.195625 3
33.987695 139.224196 -61.098084 3
29.789113 139.194159 -61.011120 3
25.590102 139.189917 -60.917128 3
55.170018 139.176420 -56.561808 3
50.952987 139.208570 -56.460995 3
46.736994 139.198734 -56.371051 3
42.524582 139.223155 -56.271067 3
38.311128 139.118514 -56.205854 3
34.102217 139.231384 -56.080227 3
29.892536 138.838387 -56.093003 3
25.705892 137.195606 -56.449315 3
21.579209 134.290194 -57.153544 3
51.117056 139.216751 -51.409418 3
46.887607 139.174797 -51.330210 3
42.663545 139.207896 -51.228412 3
38.436442 139.008748 -51.192021 3
34.207384 137.899320 -51.415640 3
30.004624 135.185598 -52.099075 3
25.858114 132.260904 -52.843177 3
21.768501 129.344176 -53.585156 3
17.574115 131.377656 -52.902990 3
47.040100 139.175419 -46.250409 3
42.781004 138.388950 -46.393732 3
38.512104 136.070233 -46.993331 3
34.286056 133.163443 -47.768078 3
30.118517 130.222867 -48.552620 3
26.008619 127.338765 -49.319982 3
21.954295 124.493814 -50.075330 3
17.954885 121.649235 -50.830276 3
42.798106 133.995466 -42.655009 3
38.550028 131.101330 -43.462939 3
34.360900 128.182143 -44.277869 3
30.230564 125.296825 -45.081507 3
26.156765 122.483690 -45.861924 3
22.137164 119.715950 -46.627444 3
18.170458 116.968784 -47.385798 3
14.228979 114.865175 -47.942536 3
42.796576 129.018258 -39.176492 3
38.586599 126.176691 -40.004321 3
34.434848 123.330444 -40.832395 3
30.340628 120.506046 -41.652174 3
26.301788 117.764309 -42.443998 3
22.316322 115.048516 -43.226210 3
18.383394 112.337496 -44.005684 3
14.500566 109.668761 -44.770278 3
38.622481 121.329282 -36.604469 3
34.507374 118.533867 -37.451551 3
30.448900 115.795146 -38.277911 3
26.445347 113.046323 -39.105989 3
22.493556 110.412566 -39.893762 3
18.593660 107.757268 -40.687136 3
14.741752 105.172166 -41.455282 3
10.941260 102.537326 -42.238590 3
38.656617 116.499316 -33.280995 3
34.578605 113.800551 -34.130150 3
30.555511 111.111995 -34.973581 3
26.586061 108.451379 -35.805157 3
22.666878 105.901397 -36.596088 3
18.800074 103.266328 -37.414599 3
14.980204 100.721350 -38.199657 3
11.209141 98.164414 -38.986881 3
34.649105 109.185453 -30.845738 3
30.660365 106.582946 -31.692295 3
26.724626 103.925032 -32.556250 3
22.839772 101.355484 -33.385805 3
19.003362 98.843223 -34.192173 3
15.216798 96.295871 -35.008759 3
11.474397 93.830331 -35.793346 3
7.763326 91.601946 -36.489664 3
34.718304 104.616810 -27.620341 3
30.763691 102.063668 -28.481809 3
26.861086 99.468103 -29.356084 3
23.007849 96.981509 -30.186708 3
19.202792 94.512465 -31.007836 3
15.442118 92.122422 -31.796522 3
11.690228 90.438190 -32.318079 3
7.938388 89.240176 -32.654202 3
4.171550 88.520098 -32.807569 3
30.865495 97.570304 -25.335235 3
26.995582 95.072266 -26.204951 3
23.173355 92.677420 -27.031412 3
19.382753 90.775872 -27.663824 3
15.602330 89.501937 -28.049874 3
11.824266 88.619637 -28.280394 3
8.029330 88.233030 -28.314725 3
4.215651 88.146457 -28.228251 3
0.176727 90.738664 -27.097538 3
30.965790 93.163038 -22.227335 3
27.123454 91.186501 -22.921204 3
23.308155 89.800831 -23.375224 3
19.507533 88.793958 -23.673642 3
15.703870 88.294339 -23.764828 3
11.886919 88.183012 -23.695903 3
8.068195 88.068264 -23.623260 3
4.239528 88.054291 -23.505137 3
0.409003 87.996247 -23.399468 3
27.232798 89.007140 -18.992358 3
23.412367 88.388124 -19.147624 3
19.590153 88.174141 -19.130716 3
15.764210 88.090088 -19.054759 3
11.936654 88.002221 -18.974824 3
8.875536 75.482482 -24.025587 1
9.363814 17.324325 -47.950662 9
6.381288 15.737532 -48.499552 9
3.377019 14.681879 -48.824966 9
0.386090 13.652394 -49.135693 9
-2.622143 12.906300 -49.324959 9
-5.617198 12.122273 -49.525910 9
-8.603175 11.335316 -49.724033 9
-11.602527 10.696758 -49.856322 9
-14.599975 10.074726 -49.977525 9
-17.583366 9.389481 -50.120877 9
-20.567924 8.735108 -50.247144 9
-23.570239 8.191668 -50.322767 9
-26.558365 7.577132 -50.423790 9
-29.551516 6.991461 -50.508374 9
-32.539492 6.381254 -50.598868 9
-35.545823 5.849361 -50.652028 9
-38.555477 5.320397 -50.699425 9
-41.542820 4.689888 -50.785081 9
-44.699728 4.696816 -50.596966 9
-48.478901 6.912223 -49.469046 9
49.169342 7.692235 -49.105520 9
45.994032 4.504986 -50.408600 9
42.971281 3.336543 -50.853068 9
40.003198 3.081257 -50.906435 9
37.044331 2.950507 -50.902525 9
34.089154 2.842786 -50.884315 9
31.136320 2.586390 -50.924658 9
28.187522 2.414533 -50.924619 9
25.242218 2.196672 -50.939598 9
22.300553 1.955760 -50.959867 9
19.359884 1.759610 -50.956577 9
16.422302 1.529267 -50.963299 9
13.489734 1.241412 -50.989990 9
10.555889 1.000063 -50.992327 9
7.623506 0.747517 -50.994876 9
4.688272 0.527674 -50.978873 9
1.761090 0.219602 -50.995978 9
-1.173880 -0.018416 -50.978512 9
-4.100196 -0.340999 -50.992626 9
-7.031898 -0.628646 -50.987134 9
-9.961486 -0.944570 -50.989111 9
-12.899101 -1.221812 -50.969773 9
-15.830532 -1.556638 -50.970473 9
-18.769481 -1.864770 -50.954937 9
-21.710878 -2.180958 -50.938081 9
-24.654315 -2.509025 -50.921532 9
-27.598025 -2.858531 -50.909403 9
-30.548226 -3.200908 -50.889309 9
-33.497917 -3.570174 -50.875952 9
-36.456364 -3.927019 -50.852251 9
-39.428168 -4.257389 -50.812012 9
-42.397691 -4.626328 -50.783481 9
-45.529483 -4.433044 -50.504359 9
-49.043901 -2.975066 -49.666145 9
-53.503411 1.494670 -47.500560 9
55.189062 5.765763 -46.198186 9
51.794995 0.460244 -48.478140 9
48.647765 -2.731094 -49.831978 9
45.653264 -4.332220 -50.487725 9
42.733481 -5.005183 -50.733846 9
39.846725 -5.135419 -50.738286 9
36.965240 -5.206276 -50.712009 9
34.085001 -5.364542 -50.719165 9
31.208240 -5.473830 -50.700132 9
28.333143 -5.562611 -50.667331 9
25.460464 -5.727987 -50.663277 9
22.588827 -5.865351 -50.642162 9
19.718675 -6.020713 -50.624135 9
16.850513 -6.203994 -50.613552 9
13.982400 -6.378821 -50.594444 9
11.111836 -6.522062 -50.556611 9
8.246827 -6.749559 -50.550980 9
5.376211 -6.919034 -50.514950 9
2.507417 -7.125431 -50.490292 9
-0.364916 -7.316561 -50.453987 9
-3.240245 -7.505300 -50.411677 9
-6.108191 -7.773396 -50.399482 9
-8.985691 -7.991249 -50.360098 9
-11.863439 -8.232418 -50.326023 9
-14.747706 -8.458408 -50.280171 9
-17.629323 -8.726983 -50.248145 9
-20.516107 -8.992543 -50.209684 9
-23.422568 -9.185685 -50.133816 9
-26.317334 -9.470088 -50.093389 9
-29.222874 -9.733292 -50.038275 9
-32.134981 -9.999151 -49.979053 9
-35.045070 -10.305359 -49.932564 9
-37.963011 -10.610254 -49.880136 9
-40.894367 -10.895407 -49.813420 9
-43.861853 -11.083142 -49.697334 9
-47.049233 -10.546132 -49.248643 9
-50.598244 -8.892799 -48.288647 9
-54.791741 -5.333262 -46.457004 9
-59.513513 -0.436100 -44.006590 9
-91.515152 12.949149 -35.717089 8
-94.094860 10.596992 -36.491733 8
-96.960001 8.959020 -36.932559 8
-99.981720 7.690090 -37.197436 8
-103.035090 6.489560 -37.424973 8
-106.851884 6.888730 -36.900504 8
61.314571 5.096068 -42.709187 9
57.811503 -0.038449 -44.994879 9
54.515857 -4.043109 -46.768374 9
51.367583 -7.241059 -48.174850 9
48.356698 -9.379307 -49.100463 9
45.443465 -10.570073 -49.595396 9
42.589164 -11.013729 -49.749453 9
39.756631 -11.124044 -49.748539 9
36.927948 -11.222249 -49.737141 9
34.102511 -11.278501 -49.701798 9
31.278346 -11.416852 -49.698402 9
28.456712 -11.559458 -49.691892 9
25.635932 -11.643586 -49.653948 9
22.816027 -11.748431 -49.620275 9
19.996783 -11.866613 -49.587543 9
17.175952 -11.957000 -49.537142 9
14.359050 -12.132323 -49.520053 9
11.539251 -12.268716 -49.480231 9
8.718747 -12.414365 -49.439458 9
5.900640 -12.605558 -49.414190 9
3.074380 -12.732012 -49.354356 9
0.254254 -12.941894 -49.327219 9
-2.575337 -13.093433 -49.268326 9
-5.401809 -13.297675 -49.228163 9
-8.232466 -13.496992 -49.180482 9
-11.068210 -13.690347 -49.124763 9
-13.903083 -13.918066 -49.079396 9
-16.750599 -14.101266 -49.008276 9
-19.600842 -14.303314 -48.940333 9
-22.457338 -14.506513 -48.867423 9
-25.312388 -14.750243 -48.807602 9
-28.178142 -14.976347 -48.734119 9
-31.047768 -15.219461 -48.662851 9
-33.929518 -15.445913 -48.578224 9
-36.813250 -15.700341 -48.500785 9
-39.701319 -15.972808 -48.425926 9
-42.601612 -16.234947 -48.340456 9
-45.631484 -16.081808 -48.056034 9
-48.907537 -15.172082 -47.412619 9
-52.574859 -13.122983 -46.229594 9
-56.650991 -10.004066 -44.536317 9
-60.893650 -6.657725 -42.724137 9
-67.468486 3.179361 -37.853171 8
-70.539830 2.469557 -37.915194 8
-73.634341 1.805041 -37.949681 8
-76.739758 1.147346 -37.974581 8
-79.865036 0.516802 -37.980166 8
-82.996751 -0.124221 -37.984105 8
-86.134511 -0.777674 -37.987263 8
-89.294006 -1.407683 -37.972489 8
-92.484019 -1.998107 -37.931888 8
-95.667249 -2.636602 -37.907174 8
-98.897439 -3.205490 -37.841919 8
-102.121197 -3.824066 -37.793148 8
-105.469941 -4.222034 -37.630504 8
-135.743676 10.359954 -28.148444 7
-138.257495 7.807683 -28.959981 7
-141.203217 6.022350 -29.389327 7
-144.352990 4.577202 -29.644281 7
-147.607704 3.289168 -29.814108 7
105.655148 8.654662 -36.820954 5
102.335169 8.179322 -37.107382 5
99.212979 8.443479 -37.044562 5
96.095388 8.692762 -36.982513 5
92.975258 8.894450 -36.936415 5
89.860270 9.082356 -36.890621 5
86.747299 9.241262 -36.852199 5
83.637991 9.378809 -36.817631 5
80.534480 9.507465 -36.781167 5
77.428068 9.574699 -36.767136 5
74.323026 9.600523 -36.766293 5
71.228950 9.649942 -36.748585 5
68.134350 9.643302 -36.750883 5
63.843359 -0.720972 -41.539217 9
60.484908 -4.385283 -43.222533 9
57.248571 -7.633547 -44.708115 9
54.121018 -10.459195 -45.993047 9
51.081595 -12.951610 -47.118783 9
48.148556 -14.649453 -47.871744 9
45.294095 -15.594759 -48.271211 9
42.485034 -15.997428 -48.414178 9
39.696416 -16.085554 -48.406136 9
36.911923 -16.128190 -48.371686 9
34.128577 -16.211924 -48.350970 9
31.347160 -16.292157 -48.323305 9
28.567371 -16.407963 -48.306830 9
25.788082 -16.473703 -48.261760 9
23.009706 -16.573345 -48.227091 9
20.231240 -16.669684 -48.185522 9
17.451141 -16.745376 -48.128954 9
14.672496 -16.870135 -48.089838 9
11.895443 -17.032225 -48.062731 9
9.114824 -17.161630 -48.014964 9
6.332231 -17.292548 -47.962450 9
3.546622 -17.419903 -47.902788 9
0.760532 -17.571837 -47.849118 9
-2.025442 -17.751463 -47.802899 9
-4.819746 -17.894060 -47.733768 9
-7.612854 -18.076949 -47.677950 9
-10.411006 -18.255755 -47.614599 9
-13.214431 -18.433387 -47.545033 9
-16.022334 -18.617827 -47.472968 9
-18.831552 -18.827829 -47.407220 9
-21.648140 -19.031918 -47.332905 9
-24.480396 -19.194465 -47.233088 9
-27.311368 -19.400948 -47.148154 9
-30.146819 -19.623058 -47.064691 9
-32.993984 -19.831538 -46.968753 9
-35.846604 -20.055271 -46.874001 9
-38.703343 -20.299817 -46.783054 9
-41.580226 -20.507119 -46.668138 9
-44.497013 -20.615217 -46.499415 9
-47.611902 -20.108948 -46.029425 9
-51.014614 -18.769164 -45.151111 9
-54.782030 -16.448550 -43.791098 9
-59.125970 -12.616678 -41.690480 9
-64.949280 -4.813330 -37.655225 8
-68.019018 -5.297458 -37.611433 8
-71.113606 -5.744787 -37.542892 8
-74.204249 -6.236486 -37.488877 8
-77.328941 -6.673675 -37.401210 8
-80.452798 -7.149488 -37.325120 8
-83.603922 -7.595066 -37.226889 8
-86.770636 -8.042204 -37.121905 8
-89.936946 -8.529029 -37.028813 8
-93.129736 -8.994934 -36.917719 8
-96.339138 -9.464732 -36.800685 8
-99.566939 -9.936324 -36.676542 8
-102.818644 -10.400307 -36.540468 8
-106.294121 -10.462626 -36.195727 8
-113.346743 -3.668919 -32.411911 8
-119.148998 0.362450 -29.984115 7
-122.438336 -0.497342 -29.994801 7
-125.795921 -1.264475 -29.950446 7
-129.148199 -2.076317 -29.919999 7
-132.556245 -2.827011 -29.849738 7
-135.978886 -3.591526 -29.777378 7
-139.464820 -4.291224 -29.662595 7
-142.944955 -5.042794 -29.564700 7
-146.478002 -5.753043 -29.435784 7
116.321990 10.751003 -31.498205 5
112.996197 10.608813 -31.662786 5
106.450455 -1.622874 -37.600658 5
103.200015 -2.146223 -37.929924 5
100.131065 -2.038412 -37.950929 5
97.082483 -1.893429 -37.947756 5
94.038756 -1.772007 -37.949453 5
90.999265 -1.677502 -37.957651 5
87.969998 -1.581330 -37.958746 5
84.946310 -1.504014 -37.962558 5
81.924949 -1.463289 -37.977567 5
78.910242 -1.436830 -37.993157 5
75.915138 -1.342175 -37.970077 5
72.910289 -1.357790 -37.993368 5
69.922241 -1.312289 -37.981417 5
66.939057 -1.279164 -37.969252 5
63.390531 -6.136979 -40.280296 9
59.987369 -10.650453 -42.421562 9
56.877984 -13.146187 -43.596235 9
53.838492 -15.494267 -44.695090 9
50.868677 -17.625951 -45.685499 9
47.992535 -19.051001 -46.333887 9
45.179377 -19.915102 -46.709560 9
42.410617 -20.226630 -46.816337 9
39.658891 -20.273546 -46.791354 9
36.909665 -20.309898 -46.755722 9
34.161104 -20.416217 -46.747884 9
31.415053 -20.449590 -46.699605 9
28.669768 -20.530657 -46.668488 9
25.925690 -20.633475 -46.642152 9
23.180863 -20.688319 -46.587230 9
20.438613 -20.828205 -46.567370 9
17.696466 -20.962886 -46.539384 9
14.948194 -21.002593 -46.460186 9
12.203979 -21.138105 -46.421232 9
9.459331 -21.285078 -46.382084 9
6.706534 -21.362629 -46.303830 9
3.955410 -21.492184 -46.244799 9
1.204389 -21.650476 -46.193818 9
-1.556602 -21.753988 -46.110605 9
-4.310974 -21.942296 -46.062441 9
-7.085789 -22.015560 -45.952804 9
-9.845298 -22.228947 -45.904969 9
-12.620073 -22.376593 -45.819360 9
-15.396068 -22.552430 -45.741394 9
-18.185886 -22.688144 -45.637873 9
-20.969424 -22.893774 -45.562210 9
-23.763996 -23.079279 -45.470608 9
-26.567302 -23.260759 -45.370823 9
-29.375007 -23.460060 -45.273458 9
-32.187516 -23.675690 -45.177755 9
-35.020014 -23.848454 -45.054654 9
-37.840174 -24.107639 -44.967481 9
-40.689623 -24.295045 -44.838534 9
-43.560097 -24.449998 -44.686928 9
-46.573298 -24.172664 -44.315031 9
-49.807106 -23.262625 -43.622369 9
-53.349998 -21.515727 -42.505767 9
-57.908211 -16.909148 -39.957714 9
-62.439020 -12.748520 -37.614586 9
-66.268484 -10.879763 -36.398025 8
-69.337090 -11.249778 -36.288417 8
-72.400691 -11.670781 -36.196816 8
-75.525544 -11.971683 -36.037366 8
-78.617367 -12.397817 -35.933010 8
-81.751228 -12.760489 -35.788863 8
-84.886259 -13.162209 -35.656407 8
-88.037328 -13.568071 -35.517952 8
-91.233339 -13.916110 -35.341870 8
-94.420773 -14.327550 -35.189569 8
-97.625668 -14.745087 -35.031861 8
-100.872921 -15.119656 -34.843463 8
-104.117561 -15.545487 -34.672453 8
-107.897646 -14.982908 -33.982963 8
-116.902775 -4.686324 -28.248807 7
-119.229664 -7.214717 -29.122183 7
-122.630295 -7.768829 -28.965314 7
-126.049412 -8.334809 -28.804893 7
-129.495378 -8.899534 -28.633900 7
-132.962944 -9.473846 -28.457805 7
-136.459360 -10.047287 -28.270922 7
-140.011508 -10.579136 -28.051471 7
-143.579103 -11.136951 -27.834830 7
-147.160022 -11.724338 -27.622806 7
147.480399 2.652447 -29.869807 6
144.232489 3.083037 -29.837702 6
141.016659 3.558312 -29.775684 6
137.800552 3.997793 -29.723849 6
134.603669 4.454356 -29.656008 6
131.402686 4.865112 -29.603398 6
128.228849 5.320357 -29.521359 6
125.070097 5.790147 -29.424815 6
121.899353 6.192282 -29.354432 6
117.036106 0.972351 -32.050213 5
113.870209 1.106963 -32.095061 5
108.387255 -7.075017 -36.229058 5
104.938408 -8.439948 -36.994851 5
101.906195 -8.367149 -37.045635 5
98.892304 -8.272401 -37.078836 5
95.894217 -8.160359 -37.096813 5
92.901059 -8.073794 -37.120636 5
89.920840 -7.976074 -37.132352 5
86.940423 -7.926778 -37.161247 5
83.977481 -7.838847 -37.164632 5
81.020773 -7.763712 -37.167785 5
78.064539 -7.733775 -37.186619 5
75.115354 -7.713112 -37.203545 5
72.178049 -7.667174 -37.201660 5
69.239834 -7.677831 -37.221114 5
66.314127 -7.649636 -37.215159 5
63.132816 -9.849074 -38.294374 9
59.850519 -13.486275 -40.071853 9
56.638388 -17.250090 -41.905411 9
53.614827 -19.797358 -43.137035 9
50.700785 -21.657548 -44.026225 9
47.868711 -22.910740 -44.612201 9
45.095007 -23.627506 -44.929465 9
42.358229 -23.898203 -45.022186 9
39.635632 -23.967919 -45.010452 9
36.916434 -24.008855 -44.978706 9
34.198959 -24.039296 -44.935904 9
31.482179 -24.149108 -44.926197 9
28.766927 -24.211028 -44.887059 9
26.051408 -24.238471 -44.825042 9
23.337214 -24.339543 -44.793318 9
20.622242 -24.418072 -44.744564 9
17.905377 -24.476875 -44.680124 9
15.192455 -24.630114 -44.656281 9
12.474358 -24.717123 -44.593786 9
9.756099 -24.830777 -44.538430 9
7.035106 -24.940299 -44.474996 9
4.313762 -25.075318 -44.418114 9
1.584858 -25.170526 -44.335417 9
-1.145146 -25.292306 -44.259743 9
-3.877733 -25.427639 -44.184627 9
-6.614135 -25.569042 -44.106324 9
-9.348342 -25.757189 -44.045053 9
-12.097540 -25.884128 -43.947030 9
-14.854323 -26.005690 -43.839958 9
-17.606897 -26.188170 -43.756909 9
-20.371186 -26.345166 -43.654696 9
-23.147154 -26.483651 -43.536698 9
-25.918376 -26.683021 -43.442673 9
-28.711962 -26.821116 -43.311259 9
-31.491802 -27.056580 -43.222144 9
-34.295081 -27.233676 -43.096921 9
-37.095285 -27.461552 -42.990524 9
-39.920309 -27.636044 -42.850269 9
-42.752612 -27.826338 -42.711016 9
-45.688947 -27.711053 -42.409405 9
-48.823397 -27.024511 -41.809171 9
-52.762867 -23.954349 -39.983872 9
-56.500084 -21.755929 -38.589988 9
-61.052133 -17.412874 -36.084721 9
-64.902257 -15.369883 -34.742403 8
-67.951939 -15.677856 -34.596508 8
-71.005182 -16.017532 -34.458941 8
-74.080497 -16.341137 -34.304995 8
-77.177521 -16.653024 -34.136734 8
-80.283028 -16.987850 -33.971975 8
-83.406795 -17.322980 -33.798878 8
-86.540830 -17.678427 -33.627742 8
-89.711928 -17.995718 -33.427887 8
-92.869827 -18.387239 -33.257975 8
-96.068416 -18.737082 -33.057157 8
-99.301966 -19.062052 -32.833944 8
-102.532003 -19.441954 -32.630280 8
-105.916166 -19.571477 -32.284142 8
-110.573342 -17.372802 -30.687660 8
-116.996984 -12.116113 -27.439167 7
-120.406643 -12.561996 -27.217041 7
-123.821408 -13.047435 -27.005646 7
-127.271336 -13.520529 -26.776967 7
-130.746655 -14.000425 -26.541062 7
-134.282268 -14.432023 -26.267790 7
-137.815019 -14.920945 -26.014186 7
-141.388127 -15.398401 -25.742677 7
-144.989788 -15.885184 -25.464331 7
-148.654811 -16.331178 -25.151285 7
148.067649 -5.291359 -29.518964 6
144.820719 -5.010972 -29.576412 6
141.600678 -4.710456 -29.615259 6
138.384273 -4.446010 -29.664396 6
135.177368 -4.203081 -29.716420 6
132.007582 -3.905094 -29.732320 6
128.830636 -3.670647 -29.772729 6
125.677565 -3.412229 -29.793077 6
122.534974 -3.165831 -29.811789 6
118.225839 -6.660873 -31.723907 5
114.870839 -7.342037 -32.196499 5
111.026022 -9.809429 -33.566881 5
107.110169 -12.786752 -35.186173 5
103.932242 -13.340339 -35.568337 5
100.953179 -13.232574 -35.608168 5
97.981526 -13.143247 -35.650239 5
95.029889 -13.018872 -35.667556 5
92.073202 -12.962240 -35.712134 5
89.122518 -12.929240 -35.761695 5
86.200437 -12.809729 -35.760681 5
83.271755 -12.767857 -35.792010 5
80.357379 -12.699387 -35.803107 5
77.445585 -12.663899 -35.824064 5
74.538512 -12.650826 -35.849576 5
71.645525 -12.598462 -35.848570 5
68.753933 -12.584334 -35.860155 5
65.867458 -12.584342 -35.872205 5
62.834086 -13.884015 -36.532504 9
59.766504 -15.815014 -37.504321 9
56.429070 -21.009720 -40.114333 9
53.463569 -23.225140 -41.216920 9
50.570137 -25.162028 -42.173094 9
47.772972 -26.303584 -42.722394 9
45.030605 -26.936745 -43.009363 9
42.319926 -27.207845 -43.107669 9
39.623510 -27.278593 -43.098769 9
36.931250 -27.289196 -43.053333 9
34.238950 -27.380170 -43.042284 9
31.548877 -27.411930 -42.995144 9
28.859777 -27.519561 -42.980148 9
26.170039 -27.521639 -42.905578 9
23.480951 -27.592512 -42.859570 9
20.792165 -27.682922 -42.817222 9
18.104010 -27.797860 -42.781064 9
15.410719 -27.839442 -42.701451 9
12.721620 -27.977465 -42.664470 9
10.025730 -28.048238 -42.587041 9
7.330030 -28.155670 -42.521889 9
4.629616 -28.246550 -42.441941 9
1.926822 -28.350788 -42.362379 9
-0.775450 -28.492654 -42.295562 9
-3.481634 -28.634749 -42.222412 9
-6.196271 -28.749897 -42.128987 9
-8.916305 -28.866699 -42.029831 9
-11.640693 -28.994483 -41.929677 9
-14.367202 -29.147018 -41.835556 9
-17.098657 -29.308278 -41.739224 9
-19.837319 -29.468531 -41.635628 9
-22.590943 -29.594146 -41.507365 9
-25.338520 -29.787339 -41.407057 9
-28.143561 -29.769487 -41.190718 9
-30.965215 -29.738691 -40.960343 9
-33.800198 -29.712073 -40.724686 9
-36.650199 -29.685324 -40.481416 9
-39.502430 -29.706857 -40.255634 9
-42.387149 -29.669065 -39.991236 9
-45.319231 -29.531680 -39.666889 9
-49.060636 -26.872021 -38.013509 9
-52.571054 -25.169404 -36.848593 9
-56.157903 -23.413482 -35.643640 9
-59.752123 -21.811676 -34.507463 9
-63.523222 -19.880684 -33.185050 9
-66.802410 -19.456537 -32.646695 8
-69.858667 -19.700015 -32.452371 8
-72.902837 -20.019286 -32.289675 8
-75.974928 -20.311461 -32.103907 8
-79.049633 -20.641226 -31.929383 8
-82.173687 -20.899206 -31.707502 8
-85.289987 -21.221895 -31.511129 8
-88.432921 -21.530754 -31.298067 8
-91.583145 -21.870075 -31.092006 8
-94.964654 -21.775131 -30.641180 8
-98.353914 -21.733104 -30.208012 8
-101.792795 -21.659865 -29.746671 8
-107.851079 -16.632350 -26.566276 8
-109.886205 -19.443146 -27.654241 8
-115.797569 -15.113002 -24.812827 8
-118.676869 -16.456796 -25.074258 7
-122.107051 -16.848606 -24.800949 7
-125.598461 -17.187807 -24.486971 7
-129.352643 -17.146139 -23.948781 7
-133.127816 -17.143515 -23.418722 7
-136.993062 -17.070439 -22.835208 7
-140.649141 -17.397019 -22.462351 7
-144.330688 -17.744276 -22.087959 7
-149.780252 -15.535914 -20.248792 7
149.577655 -10.744270 -28.008305 6
146.353232 -10.482985 -28.092761 6
143.138071 -10.247753 -28.182170 6
139.928622 -10.047590 -28.281346 6
136.754366 -9.807293 -28.350751 6
133.591319 -9.584678 -28.420971 6
130.444540 -9.365226 -28.484456 6
127.305596 -9.170897 -28.552816 6
124.177688 -8.992480 -28.621277 6
121.078572 -8.775145 -28.661221 6
116.975932 -11.770322 -30.372233 5
113.799068 -12.019209 -30.638047 5
109.677280 -15.560653 -32.613377 5
106.192827 -17.190508 -33.581262 5
103.152094 -17.379280 -33.789526 5
100.202954 -17.290040 -33.845382 5
97.273872 -17.169651 -33.877613 5
94.347647 -17.083153 -33.920118 5
91.430279 -17.006120 -33.960234 5
88.513823 -16.973717 -34.016264 5
85.620195 -16.883044 -34.034827 5
82.729010 -16.825918 -34.063639 5
79.844775 -16.780260 -34.091276 5
76.973526 -16.709578 -34.098855 5
74.101154 -16.692270 -34.127056 5
71.237977 -16.667327 -34.144280 5
68.384755 -16.623186 -34.144574 5
65.534424 -16.604984 -34.151350 5
62.528564 -17.948298 -34.856373 9
59.513798 -19.694383 -35.763069 9
56.496528 -21.902567 -36.902311 9
53.569737 -23.664084 -37.803580 9
50.600307 -26.529377 -39.270185 9
47.845904 -27.098474 -39.540886 9
44.997776 -29.641930 -40.828386 9
42.316078 -29.707944 -40.825707 9
39.637863 -29.766394 -40.812622 9
36.964718 -29.715878 -40.736520 9
34.290712 -29.707474 -40.675736 9
31.616671 -29.725862 -40.622335 9
28.942502 -29.722748 -40.551232 9
26.267359 -29.718190 -40.472819 9
23.589455 -29.671473 -40.365898 9
20.911163 -29.688929 -40.285747 9
18.227729 -29.647156 -40.168129 9
15.543711 -29.660310 -40.072452 9
12.854382 -29.645944 -39.955737 9
10.161429 -29.641845 -39.837641 9
7.463855 -29.639781 -39.713836 9
4.758742 -29.616404 -39.572065 9
2.050283 -29.619267 -39.437150 9
-0.669829 -29.579816 -39.273142 9
-3.392742 -29.577466 -39.121594 9
-6.124533 -29.566592 -38.958538 9
-8.857266 -29.603069 -38.813294 9
-11.612064 -29.555794 -38.616821 9
-14.367855 -29.560951 -38.440717 9
-17.141569 -29.523685 -38.234913 9
-19.922110 -29.509183 -38.033717 9
-22.712039 -29.504813 -37.830407 9
-25.526539 -29.443884 -37.589529 9
-28.311094 -29.569937 -37.440290 9
-31.101362 -29.714890 -37.293599 9
-33.891707 -29.900761 -37.161162 9
-36.694285 -30.079451 -37.017309 9
-39.509524 -30.252670 -36.862839 9
-42.333544 -30.436725 -36.706384 9
-45.265976 -30.302774 -36.371199 9
-48.323636 -29.834465 -35.847347 9
-51.663283 -28.587807 -34.894060 9
-55.202685 -26.890433 -33.685601 9
-58.756366 -25.323135 -32.534761 9
-62.427623 -23.589852 -31.280926 9
-66.156809 -21.870036 -30.020812 8
-69.303358 -21.832804 -29.664657 8
-72.500155 -21.730893 -29.263294 8
-75.695504 -21.698895 -28.890055 8
-78.941198 -21.609916 -28.475294 8
-82.198514 -21.560483 -28.071754 8
-85.495143 -21.487428 -27.644494 8
-88.809613 -21.441817 -27.221479 8
-91.977104 -21.773655 -26.997074 8
-95.174989 -22.088577 -26.753113 8
-98.414640 -22.367013 -26.478378 8
-101.637263 -22.729105 -26.239823 8
-104.974655 -22.918580 -25.893559 8
-110.769409 -18.582924 -22.983242 8
-113.238931 -20.573513 -23.624747 8
-118.189083 -18.133646 -21.745175 7
-121.644644 -18.467624 -21.423387 7
-125.151386 -18.768982 -21.070680 7
-128.603328 -19.217232 -20.789567 7
-132.143096 -19.574206 -20.443519 7
-135.719631 -19.928768 -20.083018 7
-139.359281 -20.242647 -19.685523 7
-142.987495 -20.633159 -19.318758 7
-146.657059 -21.019696 -18.935760 7
-150.443941 -21.295229 -18.473300 7
148.291996 -14.810290 -26.068257 6
145.086130 -14.592591 -26.185806 6
141.895459 -14.388599 -26.301533 6
138.721529 -14.193442 -26.412895 6
135.569082 -13.993470 -26.512611 6
132.415638 -13.845612 -26.631587 6
129.302573 -13.639209 -26.710086 6
126.201012 -13.447830 -26.788008 6
123.106691 -13.283146 -26.871715 6
120.028027 -13.120050 -26.947748 6
115.889523 -16.336264 -28.831396 5
111.711988 -19.980420 -30.932772 5
108.258665 -21.512772 -31.889438 5
105.494528 -20.798410 -31.632582 5
102.532298 -20.808621 -31.756342 5
99.600876 -20.758980 -31.840158 5
96.694504 -20.661651 -31.890684 5
93.800115 -20.561757 -31.932147 5
90.897164 -20.546084 -32.010947 5
88.026544 -20.436028 -32.031760 5
85.158839 -20.356069 -32.061111 5
82.296085 -20.297570 -32.094423 5
79.437214 -20.266704 -32.135015 5
76.588130 -20.230997 -32.165618 5
73.750751 -20.173850 -32.177437 5
70.916041 -20.146198 -32.197634 5
68.088716 -20.117030 -32.209727 5
65.265021 -20.110200 -32.226441 5
62.296002 -21.373673 -32.911907 9
59.315106 -23.049836 -33.809704 9
56.387327 -24.603999 -34.635435 9
53.491097 -26.230548 -35.492690 9
50.648913 -27.658113 -36.237194 9
47.859397 -28.802009 -36.823958 9
45.127092 -29.406682 -37.116946 9
42.421053 -29.765929 -37.272492 9
39.734685 -29.828019 -37.262964 9
37.051402 -29.870549 -37.236154 9
34.369904 -29.903469 -37.197351 9
31.689282 -29.949801 -37.158821 9
29.009579 -30.029729 -37.131337 9
26.328984 -30.018158 -37.048117 9
23.649584 -30.104588 -37.010308 9
20.969330 -30.173084 -36.956005 9
18.287401 -30.229548 -36.888323 9
15.603095 -30.277736 -36.809234 9
12.918820 -30.362585 -36.742778 9
10.232829 -30.455389 -36.673577 9
7.542261 -30.528646 -36.586841 9
4.849223 -30.614077 -36.499549 9
2.156027 -30.733345 -36.423332 9
-0.539074 -30.868319 -36.348441 9
-3.241710 -30.978071 -36.252788 9
-5.949717 -31.086782 -36.149331 9
-8.661815 -31.206448 -36.044496 9
-11.378226 -31.337102 -35.938264 9
-14.099370 -31.477686 -35.830023 9
-16.822214 -31.645536 -35.729140 9
-19.559301 -31.776903 -35.600964 9
-22.305037 -31.906656 -35.464314 9
-25.060765 -32.031780 -35.317464 9
-27.823676 -32.167582 -35.168677 9
-30.591319 -32.325162 -35.023968 9
-33.379335 -32.443348 -34.849788 9
-36.172923 -32.584686 -34.680260 9
-38.969340 -32.758547 -34.520504 9
-41.751393 -33.022475 -34.402227 9
-44.648397 -32.941318 -34.085374 9
-47.665603 -32.538612 -33.581701 9
-52.257217 -27.389441 -30.436944 9
-54.372255 -29.988078 -31.575166 9
-57.882614 -28.475463 -30.421305 9
-62.487647 -24.089392 -27.650597 9
-66.221384 -22.376391 -26.353968 8
-69.240526 -22.684372 -26.175898 8
-72.302742 -22.925201 -25.950670 8
-75.385168 -23.162747 -25.713835 8
-78.468293 -23.445605 -25.492664 8
-81.573894 -23.721821 -25.257754 8
-84.696626 -24.005942 -25.017158 8
-87.838746 -24.294432 -24.768712 8
-91.031356 -24.523110 -24.475578 8
-94.218364 -24.814363 -24.207372 8
-97.431456 -25.101754 -23.926020 8
-100.693592 -25.342708 -23.606736 8
-103.935415 -25.674984 -23.328699 8
-107.347250 -25.740080 -22.884186 8
-111.456580 -24.603307 -21.727332 8
-117.128786 -20.823156 -19.008773 7
-120.580684 -21.125628 -18.654015 7
-124.084658 -21.395412 -18.267075 7
-127.609692 -21.688034 -17.880219 7
-131.120014 -22.061675 -17.527750 7
-134.724703 -22.341510 -17.105900 7
-138.369535 -22.619385 -16.668527 7
-141.994726 -22.987532 -16.270542 7
-145.734289 -23.245372 -15.791497 7
-149.484715 -23.551166 -15.325837 7
150.640649 -18.090948 -23.502422 6
147.362766 -18.044469 -23.736475 6
144.140050 -17.929442 -23.922038 6
140.932246 -17.834576 -24.108983 6
137.781099 -17.655622 -24.239302 6
134.643007 -17.494186 -24.369899 6
131.538605 -17.295088 -24.470195 6
128.429616 -17.156819 -24.595065 6
125.342887 -17.007421 -24.704606 6
122.271891 -16.862401 -24.807541 6
119.206887 -16.749229 -24.919159 6
115.161215 -19.756462 -26.745346 5
111.155888 -22.917097 -28.643739 5
107.794636 -24.208711 -29.499795 5
104.797857 -24.383014 -29.730774 5
101.892824 -24.293639 -29.808166 5
98.992705 -24.234453 -29.893978 5
96.117212 -24.128356 -29.945896 5
