ply
format ascii 1.0
element vertex 1399
property float x
property float y
property float z
property int scalar_Label
end_header
-5.404391 103.692986 10.358117 2
-1.504954 104.274251 9.643177 2
3.105933 104.290007 8.666302 2
7.828848 104.299287 7.663488 2
25.725522 93.156276 1.692788 3
29.866062 94.063856 0.986338 3
31.949516 96.724325 1.056776 3
33.664905 99.678123 1.261520 3
35.344531 102.646655 1.475812 3
37.076946 105.561070 1.667448 3
38.730061 108.524677 1.884591 3
40.434707 111.438077 2.080110 3
42.140540 114.341134 2.272455 3
43.794710 117.272335 2.480351 3
45.440987 120.199943 2.688323 3
47.100894 123.109940 2.889069 3
48.785975 125.996167 3.078931 3
50.460101 128.884088 3.270547 3
52.107993 131.783806 3.469134 3
53.781515 134.662779 3.657324 3
55.382973 137.582332 3.867845 3
57.132237 140.409508 4.028007 3
59.782170 142.713282 3.893519 3
63.998942 144.151697 3.255694 3
70.838284 144.200666 1.787163 3
78.025211 144.195146 0.232243 3
85.459407 144.200099 -1.375144 3
93.202144 144.191711 -3.052804 3
101.208834 144.202491 -4.785011 3
109.549500 144.206231 -6.591927 3
-148.457076 -19.470681 19.196961 7
-144.881776 -20.037939 18.390518 7
-150.010424 12.336742 25.586902 7
-147.724617 15.419816 25.729755 7
-144.809284 16.141640 25.297329 7
-141.868709 16.791986 24.845791 7
-139.078286 17.950572 24.520334 7
-136.168176 18.720242 24.096571 7
-133.181100 19.270886 23.615350 7
-130.145144 19.708070 23.102352 7
-127.112773 20.193879 22.598839 7
-124.105427 20.785106 22.119871 7
-121.045517 21.266518 21.609087 7
-117.963397 21.728595 21.089731 7
-115.004532 22.542297 20.661242 8
-112.728764 25.053894 20.690818 8
-110.424472 27.426487 20.687756 8
-107.889077 29.201510 20.524635 8
-105.021155 30.197940 20.146914 8
-101.821300 30.479081 19.566767 8
-98.590158 30.746383 18.977280 8
-95.318192 30.983022 18.373355 8
-92.038618 31.261080 17.775290 8
-88.701831 31.480990 17.154294 8
-85.324870 31.682126 16.521232 8
-81.923988 31.898774 15.885843 8
-78.515479 32.162155 15.257291 8
-74.999969 32.291690 14.581499 8
-71.498855 32.513037 13.925473 8
-69.328112 35.091996 13.981455 9
-66.590152 36.672484 13.734391 9
-63.774464 38.128447 13.447676 9
-60.984644 39.636315 13.175438 9
-58.195307 41.153945 12.904618 9
-55.345717 42.588255 12.605442 9
-52.302768 43.744905 12.214485 9
-49.070675 44.649182 11.737371 9
-43.347161 41.988548 10.086304 9
-39.499595 42.173774 9.348774 9
-37.666117 45.223641 9.556051 9
-33.714366 45.351408 8.785658 9
-29.695139 45.464982 7.998473 9
-25.640924 45.610258 7.209675 9
-21.469246 45.682805 6.382966 9
-17.289900 45.827128 5.567671 9
-13.205371 46.167369 4.807805 9
-15.593575 54.351642 6.828786 4
-15.095388 58.900356 7.583019 4
-18.187895 67.494335 9.822143 1
-17.197758 71.219136 10.321126 1
-12.809474 71.117323 9.414101 1
-9.601645 72.386419 9.002584 1
-9.058067 76.527253 9.668382 1
-10.696980 82.868796 11.188170 1
-13.060072 89.788185 12.962455 3
-12.073352 93.164066 13.393623 3
-8.064325 93.523535 12.646736 3
-6.374263 96.188711 12.801214 3
-1.681492 96.002154 11.812380 3
-0.112896 98.802739 12.015801 2
1.661922 101.396094 12.138097 2
4.411913 103.111150 11.897659 2
20.746437 93.015273 6.689860 3
25.664040 93.164415 5.715158 3
29.706895 94.140059 5.072000 3
31.763573 96.807751 5.148003 3
33.459534 99.762335 5.350367 3
35.158176 102.701041 5.548679 3
36.829327 105.648377 5.753652 3
38.530771 108.560475 5.945345 3
40.195012 111.489729 6.147270 3
41.861164 114.407099 6.346050 3
43.542934 117.303937 6.537281 3
45.185526 120.219955 6.739528 3
46.866112 123.101885 6.927142 3
48.516514 125.997652 7.122946 3
50.184490 128.875735 7.311332 3
51.825365 131.766188 7.507007 3
53.477739 134.644657 7.697565 3
55.143656 137.511182 7.882593 3
56.882936 140.331469 8.043496 3
59.429083 142.682101 7.951718 3
63.576042 144.144044 7.367073 3
70.360915 144.203893 5.982034 3
77.504689 144.201257 4.511116 3
84.915642 144.197067 2.984332 3
92.593442 144.200090 1.403322 3
100.567584 144.203883 -0.239200 3
108.870527 144.201886 -1.951158 3
117.529956 144.191292 -3.738808 3
126.542233 144.185153 -5.599055 3
132.603198 145.701772 -6.573504 0
-150.001202 -10.949017 25.026126 7
-150.003836 2.078059 27.372189 7
-148.752408 9.456038 28.460185 7
-145.892201 10.541333 28.106136 7
-142.993076 11.477764 27.717642 7
-140.087282 12.391122 27.323544 7
-137.155280 13.222507 26.909486 7
-134.208777 14.018668 26.486130 7
-131.267700 14.845207 26.069115 7
-128.280675 15.550747 25.621318 7
-125.298867 16.293530 25.181057 7
-122.289868 16.982955 24.725792 7
-119.530136 18.363081 24.442596 7
-116.400338 18.771510 23.913185 8
-114.118243 21.356561 23.938361 8
-111.847708 23.892872 23.956831 8
-108.373875 23.495419 23.215699 8
-106.898576 27.812213 23.707249 8
-103.905673 28.548993 23.262416 8
-100.719841 28.891413 22.709318 8
-97.492159 29.194556 22.140916 8
-94.216090 29.449775 21.554395 8
-90.931304 29.743336 20.972909 8
-87.614244 30.027810 20.383388 8
-84.290298 30.355076 19.800051 8
-80.895786 30.603850 19.188811 8
-77.494071 30.898669 18.584274 8
-74.049945 31.175030 17.968052 8
-70.511056 31.344141 17.314079 8
-68.585567 34.355866 17.482172 9
-65.794179 35.849252 17.210106 9
-63.038145 37.408351 16.956495 9
-60.267636 38.949891 16.696759 9
-57.467825 40.452876 16.424259 9
-54.645390 41.931308 16.142799 9
-51.626889 43.126564 15.772412 9
-48.296810 43.887511 15.263623 9
-44.637337 44.217390 14.613558 9
-40.838355 44.413729 13.912343 9
-37.008926 44.638248 13.210097 9
-33.087312 44.807989 12.479981 9
-29.079671 44.937047 11.725712 9
-24.994313 45.041371 10.951754 9
-20.869842 45.174428 10.175167 9
-16.634992 45.248264 9.366371 9
-12.624986 45.679666 8.665038 9
-13.309407 51.811873 9.895245 4
-12.613494 56.164203 10.538726 4
-16.869595 66.136382 13.149303 1
-16.214668 70.253357 13.758288 1
-12.818682 71.258070 13.277883 1
-8.409056 71.208369 12.411763 1
-5.997249 73.372034 12.329502 1
-2.945818 74.871374 12.003962 1
-6.117272 82.761085 14.030343 1
-5.291272 86.424324 14.523918 1
-3.863263 89.440437 14.784610 3
-2.070157 92.074945 14.905939 3
-0.219721 94.640816 15.003683 3
2.711670 96.195320 14.710298 3
10.990161 92.929612 12.515413 3
15.810686 92.959696 11.581794 3
20.716286 93.010126 10.635049 3
25.630102 93.149316 9.702349 3
29.556876 94.209011 9.125913 3
31.554113 96.910965 9.218076 3
33.264382 99.838928 9.406270 3
34.973419 102.754829 9.592370 3
36.640077 105.691441 9.790239 3
38.283387 108.633436 9.993437 3
39.978243 111.525342 10.177479 3
41.622011 114.444947 10.376234 3
43.284029 117.341686 10.567177 3
44.946925 120.229407 10.756161 3
46.600895 123.115739 10.946458 3
48.261736 125.990669 11.133203 3
49.905374 128.871050 11.324093 3
51.549669 131.745609 11.513639 3
53.213711 134.603293 11.696147 3
54.855397 137.471405 11.884692 3
56.569040 140.293549 12.050833 3
59.107731 142.634235 11.970095 3
63.183636 144.121023 11.437191 3
69.909914 144.194630 10.135294 3
77.004957 144.198422 8.748730 3
84.347799 144.209324 7.314782 3
92.031342 144.187026 5.808127 3
99.961615 144.190310 4.257550 3
108.190194 144.201282 2.649781 3
116.776929 144.200494 0.969655 3
125.741428 144.190159 -0.786285 3
131.754289 145.704539 -1.694950 0
141.367838 145.718621 -3.574018 0
151.220642 145.816461 -5.485318 0
-148.035233 -3.578391 29.776642 7
-145.789570 0.252034 29.999360 7
-143.169832 2.521619 29.888184 7
-140.448738 4.343253 29.682437 7
-137.649057 5.841451 29.407434 7
-134.818805 7.205438 29.104177 7
-131.961499 8.461150 28.777708 7
-129.056748 9.559375 28.415875 7
-126.159496 10.676829 28.058873 7
-123.200759 11.618631 27.660792 7
-120.225460 12.525388 27.253845 7
-117.233990 13.402993 26.839100 7
-115.219005 16.816849 27.036846 8
-113.071409 19.772457 27.132374 8
-110.941418 22.674140 27.222268 8
-108.529165 24.815698 27.130771 8
-105.770898 26.111403 26.831402 8
-102.658870 26.611406 26.331185 8
-99.470086 26.984974 25.795337 8
-96.284154 27.413433 25.269476 8
-93.030072 27.747030 24.714943 8
-89.724388 28.028307 24.142042 8
-86.421266 28.370284 23.580064 8
-83.071491 28.675646 23.003308 8
-79.703098 29.001907 22.426769 8
-76.319531 29.356042 21.852276 8
-72.859783 29.628486 21.249845 8
-69.384368 29.933296 20.650133 8
-67.709774 33.391215 20.922017 9
-64.920512 34.896232 20.654482 9
-62.199617 36.520681 20.420159 9
-59.478580 38.147892 20.186451 9
-56.700182 39.688897 19.927572 9
-53.824875 41.089575 19.626947 9
-50.792001 42.268817 19.259479 9
-47.385997 42.924404 18.733603 9
-43.717253 43.250093 18.102824 9
-39.867073 43.383376 17.405664 9
-36.044446 43.627638 16.732661 9
-32.158979 43.856138 16.045419 9
-28.200981 44.059502 15.340542 9
-24.185737 44.261718 14.624958 9
-20.062094 44.400354 13.878520 9
-15.825330 44.476073 13.100464 9
-11.844792 44.947252 12.437585 9
-7.589927 45.157181 11.679320 9
-9.256781 52.403286 13.221603 4
-8.954213 57.182915 13.977543 4
-14.186392 68.108286 16.810506 1
-12.467412 70.999140 16.981596 1
-8.159770 71.053920 16.188028 1
-3.728702 71.061320 15.363577 1
0.858638 70.993089 14.497320 1
5.277843 71.188504 13.707430 1
9.979543 71.184116 12.831101 1
40.363802 46.050340 2.894521 9
45.807313 46.011063 1.874526 9
52.356275 45.036316 0.489650 9
10.670308 88.837729 15.709353 3
12.554587 91.504458 15.813284 3
15.497843 93.219138 15.558134 3
20.605524 93.075417 14.583791 3
25.525127 93.195156 13.689528 3
29.395483 94.287867 13.156469 3
31.359701 97.002324 13.254580 3
33.014309 99.960236 13.451959 3
34.716277 102.866268 13.631865 3
36.393580 105.779394 13.817748 3
38.072391 108.679710 14.001346 3
39.729801 111.585281 14.189998 3
41.379063 114.486507 14.379603 3
43.091270 117.333493 14.548435 3
44.704915 120.242322 14.746316 3
46.371443 123.106427 14.926916 3
48.003289 125.987370 15.117014 3
49.659209 128.846201 15.299043 3
51.278704 131.723397 15.491153 3
52.935728 134.572076 15.671603 3
54.577771 137.426657 15.856023 3
56.296943 140.232287 16.017940 3
58.818196 142.569487 15.951107 3
62.827204 144.079352 15.466937 3
69.458478 144.187675 14.256768 3
76.487067 144.207720 12.958033 3
83.843594 144.190177 11.592288 3
91.436068 144.193734 10.186652 3
99.332166 144.191362 8.723964 3
107.514565 144.201318 7.210575 3
116.068069 144.191610 5.625303 3
124.953978 144.192313 3.980490 3
130.897933 145.714347 3.141845 0
140.422445 145.739485 1.383459 0
150.603520 145.664439 -0.513434 0
160.772720 145.793227 -2.372852 0
171.201610 146.011921 -4.264622 0
-127.590327 -3.623715 29.768879 7
-125.497615 0.278111 29.998836 7
-122.901691 2.543209 29.878055 7
-120.176838 4.375103 29.665610 7
-117.365569 5.929786 29.393975 7
-116.058617 11.443217 30.025388 8
-114.015038 14.814196 30.183125 8
-111.956467 18.025383 30.313345 8
-109.810450 20.914100 30.376996 8
-105.956844 19.678598 29.475145 8
-104.429216 23.925538 29.868216 8
-101.246604 24.311519 29.347116 8
-98.052348 24.719765 28.827923 8
-94.843661 25.144638 28.309240 8
-91.624124 25.594290 27.793019 8
-88.339758 25.959689 27.252111 8
-85.054178 26.374462 26.719337 8
-81.712424 26.731222 26.167632 8
-78.344696 27.092887 25.612499 8
-74.974316 27.504021 25.065272 8
-71.515058 27.808517 24.485453 8
-69.307482 30.367194 24.492225 9
-66.678883 32.162038 24.301495 9
-64.011945 33.886011 24.093046 9
-61.240672 35.436591 23.838579 9
-58.514211 37.065395 23.605224 9
-55.804101 38.723896 23.380088 9
-52.870659 40.043268 23.060966 9
-49.734415 41.077102 22.660128 9
-46.321033 41.735493 22.149792 9
-42.638796 42.055606 21.537403 9
-38.863163 42.308058 20.897890 9
-34.992476 42.497103 20.231646 9
-31.111515 42.743828 19.573335 9
-27.122114 42.917130 18.884301 9
-23.144305 43.179932 18.212253 9
-19.040708 43.354666 17.504039 9
-14.908428 43.570384 16.797817 9
-7.379204 39.711062 14.828293 9
-6.712334 44.311176 15.449052 9
-2.401801 44.539963 14.714689 9
-4.609118 52.348820 16.367418 4
-3.210282 55.871755 16.685466 4
-9.630826 67.991583 19.787045 1
-8.019521 71.017228 19.988019 1
4.243669 62.690196 16.456323 4
25.616818 45.284952 9.834382 9
30.600961 45.395172 8.964755 9
35.681599 45.504499 8.078411 9
40.882302 45.593599 7.168044 9
46.126159 45.741565 6.260162 9
52.642806 44.788469 4.948217 9
63.430196 40.029465 2.260980 9
69.935456 39.452332 1.013376 5
75.938275 39.459753 -0.049465 5
82.115598 39.432590 -1.148191 5
28.080694 90.968277 16.810921 3
29.997668 93.727702 16.921468 3
31.855784 96.527475 17.049555 3
33.753041 99.286865 17.164682 3
35.652675 102.037735 17.278548 3
37.539719 104.792689 17.395851 3
39.390293 107.570098 17.523812 3
41.295694 110.301492 17.635118 3
43.163758 113.057149 17.757528 3
45.047145 115.798767 17.875484 3
46.931134 118.538084 17.993504 3
48.842752 121.257485 18.103938 3
50.686266 124.022790 18.234442 3
52.591966 126.746742 18.347759 3
54.455937 129.499095 18.473630 3
56.354099 132.231342 18.590732 3
58.240232 134.973840 18.712182 3
60.156425 137.701591 18.826472 3
62.056360 140.443529 18.946505 3
63.953432 143.191977 19.068664 3
68.971163 144.202751 18.357132 3
76.015853 144.193736 17.122326 3
83.314809 144.186381 15.843856 3
90.821365 144.213062 14.535288 3
98.712258 144.190234 13.151875 3
106.847764 144.199834 11.731689 3
115.332278 144.198766 10.249358 3
124.151283 144.204939 8.710433 3
130.123998 145.689821 7.915461 0
139.590261 145.713521 6.267757 0
148.909962 145.984688 4.687588 0
160.021093 145.674640 2.698588 0
170.963317 145.652619 0.787887 0
182.354761 145.662929 -1.194977 0
193.030918 146.172929 -2.968808 0
-117.083722 -3.006294 31.802801 8
-115.736637 2.726007 32.404437 8
-113.243229 5.170204 32.316775 8
-111.732425 10.059841 32.766644 8
-109.959921 14.092434 33.044115 8
-107.771126 16.963637 33.076595 8
-105.215260 18.883092 32.903814 8
-102.190615 19.693711 32.484403 8
-99.615170 21.532862 32.297965 8
-96.451927 22.067082 31.814697 8
-93.231486 22.521345 31.310280 8
-90.008897 23.017343 30.812524 8
-86.748601 23.482227 30.304331 8
-83.474065 23.966379 29.797342 8
-80.107540 24.320962 29.255715 8
-76.746448 24.739898 28.725484 8
-73.423902 25.281475 28.221169 8
-69.953719 25.605820 27.659394 8
-68.147195 28.900471 27.833646 9
-65.486752 30.659477 27.629785 9
-62.837139 32.431894 27.430697 9
-60.111814 34.076229 27.200085 9
-57.468569 35.854510 27.004733 9
-54.714569 37.457100 26.764608 9
-51.756089 38.752571 26.443671 9
-48.562515 39.715652 26.032802 9
-45.039315 40.229832 25.498072 9
-41.359925 40.574436 24.911607 9
-37.566396 40.821389 24.291539 9
-33.739488 41.090489 23.669921 9
-29.851826 41.345837 23.036619 9
-25.965359 41.672791 22.415241 9
-21.975963 41.934459 21.767147 9
-17.905764 42.165443 21.101404 9
-13.819197 42.450511 20.441960 9
-9.605931 42.654436 19.749363 9
-5.363903 42.902008 19.059392 9
-1.024022 43.112460 18.347945 9
3.287613 43.435908 17.659481 9
7.833396 43.572882 16.903516 9
12.429304 43.740724 16.144663 9
17.008683 44.013080 15.405565 9
21.713198 44.236611 14.638657 9
26.541005 44.419371 13.845510 9
31.398316 44.662937 13.057665 9
36.471034 44.781162 12.215010 9
41.578199 44.962622 11.377246 9
46.860894 45.071656 10.499623 9
53.601337 43.906396 9.180008 9
64.159896 39.361984 6.694729 9
70.417051 39.007837 5.584106 5
76.239510 39.168847 4.627574 5
82.186351 39.332415 3.651586 5
88.322160 39.447895 2.637451 5
94.635217 39.532809 1.589898 5
101.374194 39.389924 0.436532 5
122.635921 27.696487 -4.950704 6
130.037626 27.530611 -6.216405 6
137.858699 27.187677 -7.578729 6
145.851858 26.872193 -8.964292 6
80.139728 141.670182 20.096983 3
82.748123 144.205031 20.073081 3
90.285959 144.193506 18.830024 3
98.087472 144.194145 17.546489 3
106.162950 144.210032 16.221333 3
114.646205 144.184810 14.823547 3
123.406587 144.193378 13.386726 3
129.295097 145.693838 12.663186 0
138.750687 145.694336 11.113121 0
148.591734 145.709608 9.503365 0
158.939112 145.700027 7.807763 0
169.816977 145.671411 6.023381 0
181.158089 145.667250 4.168373 0
193.010434 145.682743 2.234195 0
205.518947 145.678289 0.190793 0
216.937405 146.317557 -1.568150 0
-111.069388 -8.676114 33.828932 8
-110.945976 0.301977 35.033285 8
-109.702015 5.980049 35.591849 8
-107.853043 9.909874 35.806841 8
-105.490425 12.454130 35.743802 8
-102.627960 13.756661 35.424819 8
-99.598303 14.676705 35.025536 8
-96.572703 15.626663 34.632274 8
-93.501776 16.498771 34.221678 8
-90.411418 17.355289 33.806795 8
-87.286108 18.167043 33.380937 8
-84.120652 18.928548 32.942461 8
-80.933592 19.681565 32.500326 8
-78.314369 21.558592 32.312124 8
-74.992761 22.104125 31.820700 8
-71.591201 22.549936 31.303037 8
-69.369595 25.156769 31.287531 9
-66.797924 27.107316 31.122528 9
-64.230010 29.050274 30.958330 9
-61.570153 30.827185 30.756646 9
-58.936509 32.642886 30.566028 9
-56.254255 34.376280 30.356930 9
-53.493648 35.987140 30.118715 9
-50.510865 37.264169 29.797606 9
-47.237251 38.126779 29.370785 9
-43.600108 38.495786 28.814964 9
-39.851596 38.766073 28.227881 9
-36.084486 39.076564 27.644614 9
-32.259593 39.373175 27.051026 9
-28.414400 39.709767 26.460984 9
-24.518296 40.045880 25.863703 9
-20.531918 40.332991 25.245809 9
-16.517455 40.655563 24.629602 9
-12.427822 40.955480 23.999072 9
-8.264884 41.239009 23.355445 9
-1.405198 38.372422 21.820126 9
0.284528 41.767296 22.029899 9
4.654827 42.037777 21.354372 9
9.111083 42.290999 20.663665 9
13.587666 42.603495 19.979522 9
18.215748 42.832836 19.260093 9
22.856402 43.134548 18.550443 9
27.625429 43.387131 17.814246 9
32.540079 43.579164 17.047086 9
37.557025 43.761015 16.263318 9
42.543936 44.066794 15.503843 9
47.901522 44.107372 14.647431 9
62.399350 35.627076 11.078197 9
65.664745 37.977359 10.898529 5
71.427626 38.083531 9.991070 5
77.072529 38.405091 9.135650 5
82.999424 38.585228 8.215900 5
89.068447 38.756290 7.273692 5
95.311538 38.896858 6.300825 5
101.687897 39.047228 5.309804 5
122.172425 27.964237 0.414062 6
129.329217 27.967302 -0.719359 6
136.647641 27.984588 -1.874536 6
144.306423 27.886141 -3.099050 6
97.810048 139.967096 21.197260 3
99.887765 142.964116 21.341727 3
105.515142 144.204493 20.667360 3
113.895772 144.204862 19.377280 3
122.633096 144.198427 18.032687 3
128.468360 145.700095 17.371391 0
137.860614 145.701220 15.930314 0
147.732138 145.673932 14.412776 0
158.032865 145.654606 12.832272 0
166.624370 146.543417 11.658234 0
177.856426 146.525381 9.938634 0
191.803322 145.659817 7.671624 0
204.232884 145.648306 5.773541 0
217.176413 145.686692 3.806763 0
230.912258 145.690291 1.715502 0
-105.991586 -2.344791 37.684617 8
-104.218799 1.978047 37.928678 8
-101.635072 4.185810 37.769496 8
-98.889365 5.966293 37.530427 8
-96.049972 7.509644 37.247081 8
-93.143169 8.893686 36.933753 8
-90.192063 10.181813 36.602379 8
-87.194384 11.377802 36.253059 8
-84.147618 12.484716 35.885768 8
-81.063807 13.534697 35.506620 8
-77.919931 14.488283 35.106748 8
-74.765172 15.447966 34.707446 8
-71.570729 16.361176 34.297214 8
-68.340284 17.239511 33.878159 8
-67.771796 22.899403 34.514552 9
-65.259898 24.990194 34.373055 9
-62.762740 27.086387 34.236247 9
-60.200444 29.055241 34.073888 9
-57.614180 30.973009 33.902571 9
-54.979608 32.805040 33.713834 9
-52.100214 34.250865 33.436692 9
-48.964444 35.318373 33.070311 9
-45.560829 36.015575 32.613901 9
-41.944183 36.447600 32.090069 9
-38.195941 36.749737 31.529669 9
-34.471859 37.151114 30.987800 9
-30.646028 37.474690 30.421047 9
-26.778773 37.808888 29.850728 9
-22.903747 38.199975 29.288346 9
-18.944396 38.547870 28.708516 9
-14.889821 38.843804 28.108380 9
-10.784777 39.149109 27.503205 9
-6.638822 39.477544 26.896366 9
-2.419190 39.791300 26.277692 9
1.824806 40.151768 25.663179 9
6.150812 40.492825 25.034964 9
10.603270 40.768421 24.379949 9
15.098101 41.078162 23.724707 9
19.684860 41.369491 23.054472 9
24.347100 41.664071 22.374773 9
29.148478 41.898691 21.667221 9
33.997779 42.173253 20.959543 9
38.867988 42.515938 20.259791 9
43.908199 42.780001 19.525027 9
49.466467 42.638671 18.657128 9
57.526474 40.247720 17.099167 9
67.498651 36.288349 15.035176 5
72.951678 36.693434 14.264588 5
78.653077 36.976484 13.441364 5
84.318323 37.396960 12.644747 5
90.288524 37.659669 11.782076 5
96.499403 37.832258 10.872568 5
102.746556 38.092816 9.972018 5
122.508674 27.588819 5.530920 6
129.517424 27.697480 4.499144 6
136.655429 27.840462 3.455134 6
144.066646 27.912663 2.362592 6
119.321580 141.223567 22.555821 3
121.881073 144.196226 22.637721 3
127.668416 145.697085 22.036237 0
137.071449 145.665980 20.686777 0
145.538694 146.227221 19.563103 0
156.982763 145.674267 17.846542 0
167.587774 145.695584 16.339465 0
178.724929 145.705708 14.756993 0
187.771168 146.752544 13.633438 0
201.812312 146.056732 11.533888 0
215.765406 145.669292 9.496791 0
229.355542 145.683973 7.575828 0
240.864493 146.686369 6.105435 0
-83.908853 -2.515372 37.902146 8
-81.858017 0.973149 37.977644 8
-79.306254 3.336240 37.842106 8
-76.544124 5.237171 37.620316 8
-73.648618 6.860165 37.346337 8
-70.704002 8.386676 37.055086 8
-68.390123 11.091897 37.006043 9
-68.336093 17.863115 37.801011 9
-66.008917 20.355582 37.728535 9
-63.581404 22.635169 37.616762 9
-61.080094 24.761698 37.477008 9
-58.617897 26.933814 37.350795 9
-56.072712 28.950521 37.194855 9
-53.426237 30.793422 37.004107 9
-50.501130 32.197970 36.719017 9
-47.234238 33.096554 36.321608 9
-43.749584 33.707656 35.857578 9
-40.085459 34.107018 35.342066 9
-36.374904 34.500442 34.820647 9
-32.621270 34.895254 34.294762 9
-28.833427 35.305861 33.767565 9
-24.917116 35.606659 33.209291 9
-21.030073 36.014866 32.670706 9
-17.088599 36.418261 32.125301 9
-13.057845 36.775417 31.562720 9
-8.938308 37.092217 30.983804 9
-4.791539 37.448641 30.407802 9
-0.590282 37.812510 29.826654 9
3.646543 38.208265 29.246290 9
7.987087 38.558599 28.646895 9
12.408563 38.894635 28.035819 9
16.896346 39.236283 27.417790 9
21.445695 39.591366 26.794548 9
26.115426 39.899795 26.149850 9
30.851220 40.223962 25.499675 9
35.681407 40.537347 24.836540 9
40.591782 40.858161 24.164909 9
45.555198 41.216087 23.492610 9
51.414524 40.801622 22.592928 9
60.627525 37.344600 20.816435 9
69.597142 34.354628 19.138187 5
75.015044 34.814068 18.422938 5
80.641654 35.184822 17.668607 5
86.370690 35.568894 16.903853 5
92.195147 35.975867 16.131009 5
98.258283 36.288819 15.314325 5
104.379126 36.666642 14.500614 5
123.743451 26.489926 10.412231 6
130.569334 26.746190 9.488155 6
137.636122 26.944165 8.525130 6
144.728013 27.256785 7.576778 6
128.419663 136.442835 25.106281 0
130.671651 139.660215 25.275958 0
133.005761 142.852244 25.433330 0
135.565147 145.957739 25.550429 0
144.018927 146.490188 24.509980 0
156.007271 145.665741 22.803902 0
166.466953 145.716386 21.431897 0
177.535193 145.720686 19.975297 0
189.138922 145.726364 18.451020 0
201.368208 145.715117 16.844674 0
214.252392 145.695064 15.153828 0
229.359083 145.119839 13.090913 0
241.719147 145.800815 11.580370 0
-69.515074 -15.895124 38.165810 9
-68.313295 -10.431869 38.565002 9
-67.241012 -4.898031 38.994404 9
-66.857392 1.764633 39.654749 9
-67.936725 10.916388 40.812643 9
-65.258682 12.896950 40.616901 9
-63.721224 16.888164 40.817039 9
-60.992527 18.706631 40.600526 9
-59.296640 22.272936 40.734698 9
-56.884437 24.567781 40.623044 9
-54.398297 26.717447 40.486529 9
-51.543137 28.262591 40.230033 9
-48.553798 29.608068 39.933600 9
-45.121728 30.297519 39.500465 9
-41.459504 30.690647 39.002376 9
-37.799836 31.147869 38.514166 9
-34.106636 31.615820 38.024552 9
-30.377326 32.092443 37.532962 9
-26.716360 32.722911 37.071136 9
-22.864581 33.151450 36.560948 9
-18.941061 33.549416 36.039251 9
-14.964197 33.944817 35.511950 9
-10.917479 34.319374 34.974612 9
-6.867348 34.759346 34.446755 9
-2.738737 35.172103 33.906983 9
1.516445 35.504465 33.342320 9
5.773237 35.910019 32.788444 9
10.083036 36.328348 32.231073 9
14.438908 36.769323 31.672395 9
19.015147 37.042271 31.065537 9
23.569437 37.421946 30.476939 9
28.190917 37.810782 29.882655 9
32.939121 38.149473 29.267412 9
37.754691 38.504680 28.647460 9
42.640037 38.876396 28.022531 9
47.772570 39.093074 27.347638 9
54.542968 37.829439 26.272077 9
65.338623 32.923017 24.207541 9
72.325492 31.838303 23.129990 5
77.798885 32.281051 22.447490 5
83.378505 32.727350 21.753993 5
89.024788 33.215654 21.059652 5
94.806191 33.689246 20.348336 5
100.682908 34.186736 19.630258 5
107.951440 33.645594 18.599990 5
125.797922 24.730254 15.117394 6
132.509410 25.093207 14.281155 6
139.354162 25.476909 13.433232 6
146.475933 25.776699 12.541532 6
153.551829 137.427208 26.724610 0
156.131238 140.743591 26.883357 0
158.695517 144.086632 27.050648 0
163.359961 146.571729 26.842286 0
176.487943 145.681877 25.123319 0
187.911490 145.725198 23.748901 0
200.058291 145.709000 22.281565 0
212.724761 145.731591 20.760449 0
226.249807 145.685477 19.129245 0
240.284310 145.719640 17.452087 0
-62.904543 -12.573579 41.642847 9
-62.063977 -6.627171 42.099877 9
-61.797711 0.188826 42.730625 9
-60.868604 5.569684 43.124484 9
-59.145718 9.377601 43.248388 9
-57.359250 12.981652 43.345433 9
-55.451687 16.297401 43.398742 9
-53.458600 19.402394 43.421203 9
-51.333066 22.234051 43.399695 9
-48.956108 24.621027 43.299747 9
-46.224868 26.431950 43.093273 9
-43.142674 27.708752 42.785010 9
-39.645701 28.390752 42.359699 9
-36.081549 29.023520 41.922518 9
-32.492195 29.672087 41.486112 9
-27.913931 28.988261 40.775925 9
-24.126945 29.497065 40.302841 9
-20.291043 30.000419 39.825148 9
-16.399173 30.491663 39.341217 9
-12.387113 30.890957 38.833848 9
-8.366710 31.347713 38.334222 9
-4.334334 31.856568 37.841323 9
-0.309794 32.441080 37.360407 9
3.894137 32.876120 36.842075 9
8.160352 33.309869 36.318105 9
12.504091 33.727668 35.784928 9
16.914856 34.145039 35.245692 9
21.411470 34.544142 34.696011 9
25.939887 34.987412 34.149949 9
30.629065 35.338627 33.575573 9
35.359834 35.730092 33.003233 9
40.087544 36.208269 32.443998 9
44.957457 36.626194 31.862626 9
50.582801 36.389243 31.113023 9
59.814894 32.796260 29.522919 9
70.668697 27.918207 27.582273 5
75.877934 28.559747 26.995571 5
81.265365 29.128650 26.381220 5
86.770671 29.686597 25.754053 5
92.364658 30.263706 25.121328 5
98.129604 30.792641 24.464969 5
103.966456 31.363568 23.808006 5
126.083486 18.651896 19.565758 6
128.882391 22.139542 19.637483 6
135.494182 22.613934 18.884046 6
142.293264 23.063222 18.108345 6
149.088542 23.639425 17.352156 6
181.795337 138.402166 28.512944 0
184.650432 141.889227 28.685857 0
187.458125 145.421147 28.873829 0
196.362019 146.627684 28.065037 0
211.389100 145.701388 26.283976 0
224.711645 145.689007 24.823961 0
238.863644 145.638662 23.271625 0
-55.867020 -10.107277 44.984185 9
-56.377514 -1.910897 45.784771 9
-55.539968 3.611711 46.159191 9
-54.214403 8.122520 46.377348 9
-52.588629 12.004221 46.499911 9
-50.737832 15.421304 46.552161 9
-48.556983 18.233120 46.506690 9
-45.975942 20.366979 46.347140 9
-42.969308 21.826674 46.070354 9
-39.523893 22.635295 45.676666 9
-36.031770 23.418078 45.277309 9
-32.519799 24.217660 44.879919 9
-28.964177 25.000985 44.478236 9
-25.314043 25.699889 44.059084 9
-21.601781 26.365864 43.631683 9
-17.885788 27.081416 43.211649 9
-14.110201 27.772252 42.784572 9
-10.238844 28.395361 42.341629 9
-6.342810 29.046882 41.901420 9
-2.407554 29.709455 41.460425 9
2.693856 29.015424 40.739865 9
6.841341 29.572535 40.267799 9
11.077712 30.093257 39.784107 9
19.068845 26.382815 38.407176 9
19.877348 30.976686 38.769624 9
24.338059 31.463949 38.264357 9
28.829562 31.993710 37.762949 9
33.417106 32.497348 37.250394 9
38.136821 32.941824 36.718927 9
42.953491 33.369556 36.177321 9
48.090837 33.561108 35.575610 9
54.978071 32.132061 34.596041 9
67.447715 25.493853 32.399556 9
76.882849 22.080271 30.911843 5
81.459100 23.404689 30.511772 5
85.740483 25.061066 30.186030 5
91.212147 25.711885 29.615259 5
96.762924 26.387698 29.041772 5
102.565242 26.943610 28.429720 5
121.626777 16.479293 25.070946 6
126.841304 17.939003 24.634742 6
133.096441 18.636565 23.998256 6
139.642699 19.213198 23.319124 6
146.314566 19.809304 22.632131 6
213.747098 139.401903 30.528103 0
216.885034 143.108587 30.729400 0
221.327936 146.371016 30.744118 0
234.367551 146.651261 29.498564 0
-50.698296 -4.314271 48.871797 9
-50.137368 1.671469 49.274530 9
-48.803955 6.169300 49.457576 9
-46.901266 9.609538 49.482696 9
-44.485869 12.150689 49.370201 9
-41.495427 13.751190 49.108428 9
-38.189175 14.872580 48.769320 9
-34.855427 15.983512 48.429245 9
-31.456129 17.029775 48.078790 9
-27.962472 17.975135 47.711239 9
-24.447742 18.932014 47.345484 9
-20.864954 19.835977 46.970119 9
-17.241696 20.729883 46.592332 9
-13.528523 21.550004 46.200477 9
-9.783881 22.379594 45.809099 9
-5.997880 23.207474 45.416047 9
-2.096187 23.942009 45.004173 9
1.829467 24.704482 44.595476 9
5.795565 25.475574 44.186289 9
9.889404 26.153201 43.756974 9
14.012054 26.860689 43.330600 9
18.174743 27.585988 42.904798 9
22.432842 28.268461 42.467520 9
26.813890 28.882866 42.013266 9
31.210283 29.552052 41.566108 9
36.881212 28.941924 40.854957 9
41.587555 29.455243 40.364975 9
46.447875 29.891886 39.853953 9
52.599361 29.122843 39.084364 9
65.956972 21.422024 36.834652 9
78.239997 15.155274 34.849427 5
83.220591 16.126651 34.393149 5
88.298674 17.085839 33.929130 5
93.481180 18.030665 33.456482 5
98.858250 18.885292 32.957824 5
104.321643 19.753057 32.455476 5
125.008966 7.684220 28.994532 6
130.293871 9.133727 28.580019 6
135.886103 10.408207 28.119267 6
141.672489 11.612960 27.635358 6
147.627893 12.776094 27.134000 6
-33.740165 -4.686243 50.770620 9
-32.614601 0.203109 50.984028 9
-30.254773 3.059636 50.899296 9
-27.446799 5.199744 50.710413 9
-24.474405 7.089079 50.486724 9
-21.351204 8.763792 50.232587 9
-18.072768 10.231834 49.948074 9
-14.751855 11.664375 49.659751 9
-11.219628 12.834306 49.330113 9
-7.720227 14.086016 49.014691 9
-4.058213 15.159849 48.670334 9
-0.395037 16.275969 48.333204 9
3.399425 17.269671 47.975238 9
7.264826 18.224797 47.610117 9
11.159274 19.196571 47.247121 9
15.174289 20.077373 46.867201 9
19.207154 20.994568 46.492397 9
23.391307 21.795771 46.095296 9
27.636767 22.591059 45.695104 9
31.906715 23.423872 45.299589 9
36.314655 24.172176 44.886098 9
40.776838 24.932176 44.472005 9
45.807317 25.172152 43.956283 9
63.153103 12.957899 41.047575 9
81.567393 0.245150 37.986760 5
84.914949 2.895053 37.874640 5
88.836082 5.008018 37.659516 5
93.130133 6.805550 37.382170 5
97.726637 8.373074 37.057673 5
102.549918 9.795038 36.701566 5
2.811322 -5.979029 50.641163 9
3.249419 -0.269510 50.983979 9
5.729358 2.625993 50.911510 9
8.676650 4.896441 50.748834 9
11.917958 6.797612 50.532789 9
15.335091 8.498290 50.288131 9
18.990407 9.935989 50.003730 9
22.672680 11.378702 49.721464 9
26.573981 12.604121 49.404892 9
30.514790 13.831992 49.089053 9
34.617062 14.927594 48.751325 9
38.770353 16.022251 48.413015 9
43.137022 16.943258 48.044514 9
51.478233 -0.447106 -48.659310 9
48.944463 -5.937925 -49.441682 9
46.205484 -8.696214 -49.820234 9
43.325201 -9.906491 -49.971024 9
40.325311 -10.082432 -49.970375 9
37.314323 -10.209136 -49.965391 9
34.283531 -10.242454 -49.949456 9
31.244686 -10.275848 -49.936553 9
28.199887 -10.324932 -49.929029 9
25.145627 -10.371001 -49.924096 9
22.077770 -10.395996 -49.919059 9
18.992743 -10.388299 -49.912188 9
15.903537 -10.416898 -49.913837 9
12.792873 -10.401637 -49.912012 9
9.671570 -10.397674 -49.914998 9
6.535183 -10.387861 -49.920246 9
3.376546 -10.347073 -49.924014 9
0.195068 -10.279230 -49.926920 9
-2.993275 -10.248443 -49.938591 9
-6.202822 -10.202476 -49.951233 9
-9.435061 -10.140266 -49.964721 9
-12.685633 -10.080194 -49.981839 9
-15.957046 -10.016423 -50.001748 9
-19.269489 -9.889585 -50.015624 9
-22.583411 -9.825654 -50.042319 9
-25.945527 -9.686417 -50.061252 9
-29.330856 -9.550791 -50.084248 9
-32.736138 -9.429580 -50.112959 9
-36.180756 -9.272734 -50.139993 9
-39.637483 -9.155214 -50.176541 9
-43.195465 -8.854167 -50.189608 9
-47.957708 -5.716587 -49.786658 9
57.648311 -0.187111 -45.094076 9
55.089218 -6.674716 -46.088416 9
52.473298 -11.234173 -46.777799 9
49.809845 -14.511274 -47.265054 9
47.068221 -16.571921 -47.560198 9
44.243750 -17.674574 -47.704324 9
41.323332 -17.937704 -47.716156 9
38.377392 -18.036702 -47.704216 9
35.411913 -18.046689 -47.680567 9
32.441385 -18.077154 -47.662844 9
29.471224 -18.159401 -47.656108 9
26.475833 -18.147106 -47.636766 9
23.483495 -18.205697 -47.631514 9
20.469528 -18.205140 -47.619378 9
17.445066 -18.209271 -47.610671 9
14.415136 -18.242833 -47.609405 9
11.376026 -18.288624 -47.612817 9
8.306152 -18.258626 -47.606708 9
5.223823 -18.237046 -47.604695 9
2.138001 -18.259448 -47.612542 9
-0.974636 -18.237951 -47.616077 9
-4.105080 -18.211484 -47.621611 9
-7.251853 -18.187945 -47.630443 9
-10.410085 -18.185312 -47.645501 9
-13.616447 -18.087501 -47.648085 9
-16.807219 -18.101466 -47.671608 9
-20.043709 -18.036791 -47.685395 9
-23.287474 -18.013551 -47.708834 9
-26.572089 -17.936540 -47.726627 9
-29.884529 -17.847950 -47.745614 9
-33.196764 -17.824634 -47.778189 9
-36.561318 -17.729096 -47.802290 9
-39.941945 -17.659473 -47.833734 9
-43.397511 -17.473647 -47.849777 9
-47.436094 -15.988785 -47.661139 9
-55.714598 -4.938396 -45.946439 9
66.709742 5.376161 -40.680986 9
63.851988 -0.045035 -41.552398 9
61.226492 -7.517157 -42.779832 9
58.440979 -10.854698 -43.302458 9
55.734471 -14.409963 -43.865898 9
53.068164 -17.699378 -44.387020 9
50.394659 -20.340418 -44.799804 9
47.673417 -22.145710 -45.071650 9
44.887757 -23.184150 -45.214059 9
42.026992 -23.550184 -45.243012 9
39.118168 -23.578397 -45.216006 9
36.203960 -23.619453 -45.193480 9
33.280481 -23.650394 -45.171475 9
30.343749 -23.653071 -45.146856 9
27.407115 -23.708694 -45.133665 9
24.459289 -23.753119 -45.120824 9
21.494301 -23.761345 -45.104011 9
18.518997 -23.773603 -45.090193 9
15.535381 -23.801055 -45.081315 9
12.546337 -23.856715 -45.079643 9
9.536386 -23.875815 -45.073974 9
6.518181 -23.915257 -45.074175 9
3.466320 -23.878674 -45.063566 9
0.413905 -23.897942 -45.065011 9
-2.669103 -23.863624 -45.059566 9
-5.767898 -23.833950 -45.057340 9
-8.871180 -23.847707 -45.065075 9
-11.997296 -23.844719 -45.072365 9
-15.145770 -23.830284 -45.080152 9
-18.310810 -23.824831 -45.092001 9
-21.509499 -23.780656 -45.099678 9
-24.716425 -23.774141 -45.116435 9
-27.960977 -23.724726 -45.128360 9
-31.221739 -23.694409 -45.146212 9
-34.509167 -23.657047 -45.165502 9
-37.825028 -23.610965 -45.185978 9
-41.154885 -23.593763 -45.214168 9
-44.626116 -23.306543 -45.198551 9
-48.778566 -21.539926 -44.930847 9
-54.728129 -15.928018 -44.004288 9
-62.067329 -7.649587 -42.623451 9
95.116657 5.694742 -37.562331 5
91.904894 4.042230 -37.781980 5
88.748691 3.267667 -37.845685 5
85.607790 2.429648 -37.923490 5
82.485495 1.923125 -37.943703 5
79.372929 1.450384 -37.960191 5
76.268993 0.980238 -37.978588 5
73.173143 0.509037 -37.999534 5
70.079480 0.195329 -37.994095 5
67.588434 -13.826804 -40.493670 9
64.745530 -16.189140 -40.869647 9
61.876189 -17.452889 -41.047523 9
59.024350 -18.668053 -41.218940 9
56.193528 -19.900193 -41.395860 9
53.509451 -22.505719 -41.827056 9
50.847614 -24.879176 -42.218403 9
48.143532 -26.511413 -42.476209 9
45.387899 -27.509312 -42.619770 9
42.570373 -27.940572 -42.661261 9
39.696576 -27.966890 -42.630221 9
36.818292 -28.011710 -42.604509 9
33.930368 -28.043219 -42.578268 9
31.038709 -28.101282 -42.558848 9
28.127294 -28.096650 -42.529791 9
25.223433 -28.184188 -42.519676 9
22.289320 -28.166136 -42.492003 9
19.351861 -28.186952 -42.473446 9
16.410077 -28.239591 -42.462719 9
13.433878 -28.193309 -42.435659 9
10.473563 -28.269901 -42.433285 9
7.485715 -28.285660 -42.421634 9
4.486076 -28.309756 -42.413511 9
1.464357 -28.306112 -42.402251 9
-1.567415 -28.322293 -42.396669 9
-4.622045 -28.315130 -42.388788 9
-7.687720 -28.327864 -42.386630 9
-10.777757 -28.318668 -42.382467 9
-13.883076 -28.319589 -42.382250 9
-17.020608 -28.281780 -42.376952 9
-20.160725 -28.295834 -42.383371 9
-23.320141 -28.312753 -42.392453 9
-26.509316 -28.306198 -42.399345 9
-29.716822 -28.310182 -42.410368 9
-32.945556 -28.318528 -42.424403 9
-36.213170 -28.289322 -42.433721 9
-39.507885 -28.256005 -42.444542 9
-42.825709 -28.230325 -42.459068 9
-46.473066 -27.515770 -42.348620 9
-50.855400 -25.267955 -41.957436 9
-54.934039 -23.852510 -41.722725 9
-61.031827 -18.311836 -40.729561 9
-65.663406 -16.122822 -40.358172 9
-76.006355 -2.638752 -37.908265 8
-79.918507 -2.465958 -37.915906 8
-83.855971 -2.322816 -37.931862 8
-87.873886 -2.106609 -37.937285 8
-91.931562 -1.899099 -37.947286 8
-96.059951 -1.646921 -37.952124 8
-100.233275 -1.400576 -37.961146 8
-104.536452 -1.017262 -37.948250 8
137.683568 143.701730 -8.339399 0
132.851421 141.337718 -8.654488 0
128.090316 139.120867 -8.945867 0
110.538113 -0.337154 -35.425011 5
106.801589 -7.677432 -36.740938 5
103.659379 -8.990133 -36.909535 5
100.621112 -9.143614 -36.858644 5
97.586720 -9.341981 -36.818333 5
94.559952 -9.518170 -36.775733 5
91.538105 -9.715317 -36.739106 5
88.523050 -9.860989 -36.694498 5
85.511877 -10.011359 -36.652688 5
82.504275 -10.148732 -36.610245 5
79.499236 -10.254770 -36.563603 5
76.496429 -10.409125 -36.528136 5
73.496050 -10.583489 -36.498379 5
70.495140 -10.688832 -36.457071 5
67.822379 -18.331235 -37.880147 9
64.998629 -20.385898 -38.222483 9
62.212291 -22.444596 -38.568048 9
59.455150 -24.399460 -38.895812 9
56.729336 -26.318613 -39.218949 9
54.008118 -27.929831 -39.484333 9
51.259016 -29.009602 -39.648171 9
48.488493 -29.759568 -39.749555 9
45.669221 -30.040417 -39.761092 9
42.813541 -30.054810 -39.722194 9
39.953709 -30.089094 -39.688783 9
37.083308 -30.100805 -39.652548 9
34.207626 -30.130100 -39.621351 9
31.318229 -30.128211 -39.585633 9
28.431080 -30.190895 -39.564174 9
25.530270 -30.228336 -39.539365 9
22.607601 -30.206709 -39.504555 9
19.689908 -30.263298 -39.486709 9
16.749432 -30.265622 -39.459806 9
13.806265 -30.309503 -39.442684 9
10.842970 -30.320645 -39.420738 9
7.861737 -30.314121 -39.396934 9
4.876785 -30.348167 -39.382744 9
1.863620 -30.331455 -39.360194 9
-1.150340 -30.367902 -39.349760 9
-4.197329 -30.345251 -39.329332 9
-7.244169 -30.380016 -39.321888 9
-10.315652 -30.390524 -39.311337 9
-13.410975 -30.383758 -39.299067 9
-16.479565 -30.512670 -39.315265 9
-19.622210 -30.478746 -39.301056 9
-22.771530 -30.485538 -39.296610 9
-25.945790 -30.482440 -39.291959 9
-29.157212 -30.440499 -39.281407 9
-32.371950 -30.450923 -39.282972 9
-35.592284 -30.505814 -39.295115 9
-38.863291 -30.495499 -39.296212 9
-42.164719 -30.474502 -39.297047 9
-45.468780 -30.508870 -39.310674 9
-48.971466 -30.162530 -39.251089 9
-52.975426 -28.813529 -38.995687 9
-57.567634 -26.356234 -38.523805 9
-62.708740 -22.955979 -37.868262 9
-68.256879 -18.968939 -37.099497 9
-75.184168 -12.541231 -35.852482 8
-78.959199 -12.499167 -35.866167 8
-82.770016 -12.461143 -35.882885 8
-86.627443 -12.409456 -35.899191 8
-90.518259 -12.370884 -35.920396 8
-94.458404 -12.319143 -35.941372 8
-98.435343 -12.278799 -35.966995 8
-102.503460 -12.160920 -35.979844 8
-107.377267 -10.808573 -35.752975 8
193.881693 143.501310 -4.793366 0
188.534704 140.983775 -5.130089 0
183.260451 138.469938 -5.470767 0
178.148684 136.385120 -5.730774 0
173.417799 135.869537 -5.682607 0
168.781378 135.699223 -5.568704 0
164.201870 135.732281 -5.417020 0
159.675804 135.989499 -5.223163 0
155.230940 136.687183 -4.943552 0
150.676876 136.678500 -4.807856 0
146.142557 136.718973 -4.664867 0
141.613494 136.717802 -4.532779 0
137.090525 136.678677 -4.410850 0
132.584108 136.691022 -4.281036 0
113.610443 -2.516501 -32.285805 5
109.601356 -12.024559 -34.124730 5
106.351855 -14.803212 -34.606934 5
103.315355 -15.513485 -34.672570 5
100.333845 -15.647409 -34.623057 5
97.361114 -15.728654 -34.564434 5
94.389919 -15.871834 -34.519980 5
91.425158 -15.973764 -34.468690 5
88.462962 -16.118105 -34.427592 5
85.506085 -16.172370 -34.369630 5
82.550574 -16.272374 -34.322508 5
79.597015 -16.364754 -34.275317 5
76.644832 -16.462671 -34.230735 5
73.693794 -16.572107 -34.189982 5
70.741982 -16.641812 -34.142526 5
68.010157 -21.794712 -35.141533 9
65.205614 -23.729768 -35.481778 9
62.433879 -25.631048 -35.817167 9
59.682481 -27.347650 -36.116536 9
56.955687 -29.002542 -36.405126 9
54.252964 -30.614593 -36.686769 9
51.517834 -31.650106 -36.851104 9
48.750623 -32.268397 -36.930769 9
45.955394 -32.608070 -36.954233 9
43.120985 -32.651505 -36.917700 9
40.284089 -32.722281 -36.888116 9
37.426889 -32.701700 -36.840860 9
34.573858 -32.760674 -36.811376 9
31.707591 -32.787664 -36.776521 9
28.829876 -32.800828 -36.740056 9
25.955667 -32.882847 -36.719175 9
23.062728 -32.916694 -36.689542 9
20.150887 -32.911198 -36.652978 9
17.233297 -32.933281 -36.623417 9
14.306116 -32.965457 -36.597224 9
11.356550 -32.956555 -36.563727 9
8.402463 -32.984216 -36.539124 9
5.427970 -32.986590 -36.510512 9
2.441384 -32.999078 -36.485284 9
-0.541080 -33.079525 -36.475541 9
-3.567583 -33.060604 -36.446311 9
-6.600994 -33.075632 -36.425466 9
-9.657977 -33.071008 -36.401803 9
-12.713864 -33.125809 -36.391883 9
-15.808769 -33.118451 -36.370259 9
-18.910558 -33.148443 -36.357777 9
-22.037133 -33.165010 -36.343811 9
-25.189337 -33.169156 -36.328580 9
-28.365210 -33.169144 -36.313824 9
-31.559407 -33.180909 -36.302899 9
-34.780947 -33.183352 -36.291390 9
-38.013205 -33.219050 -36.288245 9
-41.298458 -33.188964 -36.272696 9
-44.590495 -33.205057 -36.268253 9
-47.989739 -33.044077 -36.228075 9
-51.716063 -32.248367 -36.056100 9
-58.977899 -24.135290 -34.349473 9
-60.871138 -27.471545 -35.047806 9
-65.904508 -24.439418 -34.410763 9
-72.528469 -18.515434 -33.168211 8
-76.205051 -18.546940 -33.177546 8
-79.953313 -18.511513 -33.174482 8
-83.718515 -18.515431 -33.181356 8
-87.529115 -18.507765 -33.187504 8
-91.361616 -18.532362 -33.202155 8
-95.282737 -18.476105 -33.201606 8
-99.215411 -18.474593 -33.214338 8
-103.211891 -18.441757 -33.222330 8
-108.222232 -16.871167 -32.909810 8
-121.606948 -2.405868 -29.896920 7
-125.998483 -2.327682 -29.902218 7
-130.454540 -2.236332 -29.906851 7
-134.954982 -2.164769 -29.917767 7
-139.549607 -2.043251 -29.920413 7
-144.193340 -1.940824 -29.929295 7
-148.899256 -1.841243 -29.941064 7
230.868937 136.003448 -2.168689 0
225.890611 135.728299 -2.057141 0
221.028480 135.717757 -1.893649 0
216.274994 135.978821 -1.676412 0
211.674830 136.700454 -1.365746 0
206.868568 136.643480 -1.219564 0
202.114088 136.685636 -1.055269 0
197.377630 136.711534 -0.896857 0
192.651121 136.690450 -0.750738 0
187.959365 136.725668 -0.595235 0
183.278863 136.725102 -0.449608 0
148.469888 -3.359927 -29.798258 6
145.195532 -3.667256 -29.765457 6
141.938462 -3.978921 -29.735319 6
138.708456 -4.239003 -29.695996 6
135.500965 -4.460776 -29.650221 6
132.300666 -4.726381 -29.615351 6
129.121457 -4.950229 -29.573224 6
125.953523 -5.187216 -29.535449 6
122.796056 -5.441642 -29.502929 6
119.655167 -5.663626 -29.465020 6
116.266166 -8.151948 -29.912284 5
112.725918 -12.620241 -30.785302 5
109.220145 -17.720353 -31.797136 5
106.079887 -19.756549 -32.156563 5
103.103794 -20.195093 -32.175633 5
100.161967 -20.297754 -32.124022 5
97.225787 -20.393531 -32.072180 5
94.295246 -20.466137 -32.016582 5
91.369029 -20.518157 -31.957753 5
88.444855 -20.594014 -31.905242 5
85.522630 -20.710532 -31.862685 5
82.603691 -20.753683 -31.805454 5
79.685785 -20.835970 -31.757823 5
76.768980 -20.917181 -31.711097 5
73.852167 -20.974148 -31.660243 5
70.936878 -21.090028 -31.623275 5
68.180713 -24.876604 -32.384591 9
65.388279 -26.625962 -32.705663 9
62.348481 -23.952533 -32.066195 9
59.866422 -29.703356 -33.261226 9
57.161850 -31.443366 -33.585295 9
54.459783 -32.888613 -33.846712 9
51.740856 -33.940271 -34.023713 9
48.995502 -34.621692 -34.121164 9
46.204286 -34.868487 -34.124769 9
43.388220 -34.941174 -34.091306 9
40.563820 -34.995937 -34.054888 9
37.726043 -35.006832 -34.009812 9
34.887568 -35.063286 -33.975669 9
32.040931 -35.117344 -33.941950 9
29.178785 -35.132308 -33.900587 9
26.305962 -35.142305 -33.859060 9
23.423582 -35.156440 -33.819367 9
20.538854 -35.210604 -33.789408 9
16.835151 -31.655040 -32.965199 9
13.877753 -31.652002 -32.923980 9
10.917520 -31.691458 -32.893056 9
8.836154 -35.227105 -33.634692 9
5.882125 -35.252005 -33.602883 9
2.908724 -35.258856 -33.568003 9
-0.069372 -35.303134 -33.542311 9
-3.067807 -35.330467 -33.513794 9
-6.071263 -35.394545 -33.494329 9
-9.125171 -35.351338 -33.452035 9
-12.185109 -35.348289 -33.419547 9
-15.239924 -35.416460 -33.403765 9
-18.325144 -35.450242 -33.381293 9
-21.434494 -35.472150 -33.357120 9
-24.576025 -35.463768 -33.327158 9
-27.735018 -35.468038 -33.300938 9
-30.927611 -35.445219 -33.269641 9
-34.119617 -35.483507 -33.252867 9
-37.337221 -35.517469 -33.236089 9
-40.579479 -35.551671 -33.220329 9
-43.856493 -35.565279 -33.200957 9
-47.156434 -35.587972 -33.184583 9
-50.771025 -34.994867 -33.032083 9
-54.792779 -33.640557 -32.710953 9
-59.433830 -31.150605 -32.137638 9
-64.317986 -28.359922 -31.498014 9
-69.283870 -25.607608 -30.867656 9
-74.018886 -23.488502 -30.379241 8
-77.692675 -23.502561 -30.367423 8
-81.409226 -23.506216 -30.354390 8
-85.149963 -23.535297 -30.348150 8
-88.954780 -23.521273 -30.333428 8
-92.766662 -23.565802 -30.332924 8
-96.671254 -23.525504 -30.314656 8
-100.569026 -23.569457 -30.316380 8
-104.614533 -23.449556 -30.282730 8
-116.894830 -10.626815 -27.413975 7
-120.452808 -11.670297 -27.642378 7
-124.775546 -11.610708 -27.625804 7
-129.065403 -11.680424 -27.639448 7
-133.485124 -11.641901 -27.630292 7
-137.924505 -11.658445 -27.634830 7
-142.442314 -11.648957 -27.634980 7
-146.992546 -11.679515 -27.645527 7
236.593031 136.655565 3.338781 0
231.659407 136.685057 3.500202 0
226.745678 136.685396 3.653032 0
221.865208 136.700324 3.806895 0
217.008451 136.703355 3.956026 0
212.174077 136.692431 4.100004 0
207.370232 136.699127 4.245825 0
202.594640 136.721048 4.393018 0
197.838370 136.729453 4.535281 0
193.093904 136.696384 4.666449 0
188.387813 136.732922 4.811158 0
183.672417 136.642426 4.925838 0
147.043869 -11.233004 -27.825784 6
143.873711 -11.377409 -27.769467 6
140.716850 -11.528557 -27.715904 6
137.583208 -11.630547 -27.652599 6
134.448529 -11.809551 -27.607687 6
131.348295 -11.861123 -27.535459 6
128.242624 -12.013500 -27.486925 6
125.150508 -12.152517 -27.436538 6
122.073626 -12.258274 -27.379795 6
119.003154 -12.388554 -27.329644 6
115.708471 -14.549421 -27.737660 5
112.165573 -19.541311 -28.785754 5
108.814031 -23.623844 -29.632152 5
105.771465 -25.089130 -29.890377 5
102.843583 -25.474350 -29.906017 5
99.950042 -25.508476 -29.843257 5
97.058319 -25.579943 -29.789841 5
94.170687 -25.651471 -29.737326 5
91.287725 -25.692038 -29.678652 5
88.406669 -25.752465 -29.625337 5
85.527802 -25.818777 -29.574200 5
82.651167 -25.826685 -29.510592 5
79.775061 -25.925735 -29.468552 5
76.899523 -25.958713 -29.412254 5
74.024517 -26.030022 -29.365489 5
71.148716 -26.081543 -29.314984 5
68.327897 -27.431000 -29.562224 9
65.539500 -28.937649 -29.846759 9
