ply
format ascii 1.0
element vertex 1389
property float x
property float y
property float z
property int scalar_Label
end_header
10.616254 -50.685020 -3.260860 9
7.994403 -50.723037 -3.266949 9
5.347212 -50.695674 -3.265878 9
2.690467 -50.678658 -3.269014 9
0.034038 -50.712057 -3.282379 9
-2.641080 -50.719677 -3.294577 9
-5.338508 -50.693253 -3.304394 9
-8.045538 -50.683440 -3.319440 9
-10.760461 -50.696305 -3.340645 9
-13.487463 -50.717726 -3.365917 9
-16.247330 -50.682748 -3.385579 9
-19.018243 -50.665867 -3.410797 9
-21.791147 -50.694208 -3.445644 9
-24.600162 -50.667107 -3.475131 9
-27.409529 -50.691408 -3.515225 9
-30.253345 -50.671925 -3.551781 9
-33.105144 -50.684003 -3.596051 9
-35.989662 -50.663493 -3.638540 9
-38.899420 -50.633535 -3.682736 9
-41.818088 -50.636268 -3.734926 9
-44.775470 -50.600686 -3.784642 9
-47.842719 -50.368337 -3.808571 9
-51.118968 -49.734610 -3.776755 9
-54.785890 -48.335993 -3.636083 9
-58.891021 -46.130711 -3.381101 9
-63.100572 -43.872633 -3.123079 9
-67.428816 -41.539966 -2.859023 9
-71.481428 -39.920213 -2.704108 8
-74.744572 -39.957953 -2.795402 8
-78.078025 -39.921268 -2.879712 8
-81.428784 -39.914778 -2.972354 8
-84.827615 -39.883058 -3.065358 8
-88.262320 -39.851257 -3.162461 8
-91.720436 -39.842860 -3.267124 8
-95.230954 -39.809569 -3.372481 8
-98.741112 -39.841996 -3.491612 8
-102.335372 -39.801815 -3.604805 8
-106.281981 -39.272121 -3.653002 8
-114.820549 -31.730945 -2.713157 8
-119.766188 -30.008504 -2.606849 7
-123.662864 -29.981931 -2.745827 7
-127.625439 -29.931558 -2.886658 7
-131.638826 -29.882661 -3.033034 7
-135.644833 -29.918749 -3.196697 7
-139.756091 -29.883197 -3.355957 7
-143.840943 -29.959142 -3.536325 7
-148.070915 -29.917163 -3.706267 7
147.246457 -31.980244 -0.880307 6
144.344746 -31.959707 -0.736236 6
141.446144 -31.980733 -0.601636 6
138.564137 -31.994361 -0.469185 6
135.703140 -31.979673 -0.335677 6
132.865666 -31.920136 -0.198536 6
130.019482 -31.946710 -0.077462 6
127.197913 -31.917840 0.048942 6
124.383034 -31.907810 0.169490 6
121.579808 -31.891933 0.287961 6
118.769762 -31.963174 0.390186 6
116.313564 -30.138038 0.780164 5
112.993739 -33.208296 0.416332 5
109.863807 -35.530535 0.162583 5
107.016401 -36.338757 0.138150 5
104.273213 -36.573557 0.199158 5
101.567909 -36.606792 0.288570 5
98.873296 -36.609142 0.380088 5
96.182269 -36.631619 0.465821 5
93.500044 -36.623905 0.553630 5
90.821315 -36.628667 0.636892 5
88.149542 -36.602335 0.722446 5
85.478142 -36.616415 0.799114 5
82.814603 -36.562796 0.883881 5
80.147293 -36.614286 0.949599 5
77.487722 -36.565125 1.028669 5
74.825617 -36.619164 1.088965 5
72.168298 -36.576504 1.162069 5
69.510478 -36.577083 1.225879 5
66.828154 -42.022851 0.422810 9
64.231022 -43.474892 0.249830 9
61.661787 -44.940830 0.071661 9
59.113716 -46.147842 -0.068177 9
56.592330 -47.490540 -0.232456 9
54.095956 -48.850788 -0.402339 9
51.596865 -49.710055 -0.494875 9
49.102457 -50.422492 -0.566470 9
46.587685 -50.710110 -0.572489 9
44.052280 -50.724925 -0.537104 9
41.512453 -50.733049 -0.502909 9
38.966965 -50.728862 -0.468996 9
36.414920 -50.711771 -0.435267 9
33.860454 -50.722618 -0.408288 9
31.301365 -50.742083 -0.384962 9
28.729207 -50.712179 -0.355955 9
26.158151 -50.739163 -0.338380 9
23.573039 -50.721818 -0.315940 9
20.990405 -50.767092 -0.305880 9
18.379108 -50.695936 -0.279331 9
15.784160 -50.764121 -0.277564 9
13.162834 -50.741566 -0.263464 9
10.546160 -50.790158 -0.263171 9
7.909061 -50.789567 -0.257271 9
5.261343 -50.790795 -0.254011 9
2.595409 -50.764514 -0.248668 9
-0.075130 -50.770146 -0.250856 9
-2.772498 -50.721584 -0.246686 9
-5.453699 -50.784367 -0.262908 9
-8.155529 -50.818658 -0.276959 9
-10.891084 -50.784993 -0.282491 9
-13.624403 -50.810353 -0.300023 9
-16.382142 -50.806268 -0.315301 9
-19.152828 -50.812729 -0.334801 9
-21.948199 -50.795799 -0.353080 9
-24.732485 -50.862432 -0.387394 9
-27.557132 -50.863430 -0.413738 9
-30.414823 -50.826256 -0.436578 9
-33.276697 -50.831925 -0.468980 9
-36.157602 -50.840747 -0.504589 9
-39.053752 -50.863686 -0.545199 9
-41.987908 -50.846450 -0.582137 9
-44.971982 -50.766069 -0.611786 9
-48.047108 -50.535183 -0.620247 9
-51.380497 -49.794384 -0.550234 9
-55.096061 -48.314977 -0.365613 9
-59.222231 -46.094116 -0.066464 9
-63.425968 -43.877704 0.227928 9
-67.813346 -41.454660 0.550974 9
-71.749981 -40.092807 0.701252 8
-75.027631 -40.121755 0.627222 8
-78.346332 -40.132299 0.552723 8
-81.695556 -40.146984 0.474119 8
-85.107497 -40.109706 0.400185 8
-88.536839 -40.105472 0.317440 8
-92.010418 -40.088075 0.233091 8
-95.474491 -40.150681 0.132462 8
-99.047388 -40.095741 0.046421 8
-102.631442 -40.089892 -0.051214 8
-106.795829 -39.236011 -0.020984 8
-115.334695 -31.740197 1.034610 8
-120.250326 -30.091997 1.175355 7
-124.119019 -30.129552 1.050256 7
-128.050124 -30.146419 0.923841 7
-132.064157 -30.117060 0.799890 7
-136.086312 -30.150680 0.661528 7
-140.198253 -30.134649 0.525889 7
-144.334554 -30.161785 0.378678 7
-148.582852 -30.117280 0.237207 7
147.560382 -31.967534 2.409974 6
144.648566 -31.949443 2.545587 6
141.748874 -31.940383 2.676807 6
138.878017 -31.875454 2.814151 6
136.004557 -31.869840 2.939078 6
133.144218 -31.863709 3.061270 6
130.297255 -31.853309 3.181379 6
127.471122 -31.801794 3.305466 6
124.643004 -31.808281 3.417395 6
121.835020 -31.768979 3.534161 6
119.026157 -31.783405 3.639485 6
116.619737 -29.635999 4.098539 5
113.300759 -32.610442 3.710464 5
110.127529 -35.103146 3.397454 5
107.231415 -36.148026 3.320407 5
104.466078 -36.468665 3.360600 5
101.754808 -36.479412 3.449785 5
99.057393 -36.430320 3.546562 5
96.359504 -36.428877 3.633038 5
93.672884 -36.369200 3.726928 5
90.981912 -36.396186 3.803989 5
88.306178 -36.297957 3.899784 5
85.626397 -36.281672 3.979555 5
82.949255 -36.271910 4.055972 5
80.274871 -36.260911 4.130357 5
77.602977 -36.242944 4.203698 5
74.931116 -36.270091 4.267190 5
72.261777 -36.274292 4.332363 5
69.593949 -36.246242 4.400828 5
66.899033 -41.791924 3.518872 9
64.292053 -43.255245 3.327769 9
61.711798 -44.631841 3.148739 9
59.157086 -45.995829 2.969222 9
56.494092 -43.441876 3.456876 9
54.122361 -48.715986 2.603779 9
51.623795 -49.744704 2.474028 9
49.116653 -50.364245 2.412077 9
46.593944 -50.648887 2.405402 9
43.761231 -47.169272 3.043330 9
41.177231 -47.154195 3.084579 9
38.962226 -50.787885 2.495925 9
36.400708 -50.745644 2.537346 9
33.840446 -50.765742 2.566046 9
31.266679 -50.726071 2.603058 9
28.698960 -50.780261 2.621889 9
26.112204 -50.747996 2.653641 9
23.523428 -50.753381 2.676896 9
20.923331 -50.738650 2.701624 9
18.317114 -50.738502 2.721823 9
15.707615 -50.768094 2.734862 9
13.067743 -50.691448 2.764258 9
10.437615 -50.715319 2.774231 9
7.793332 -50.720858 2.785334 9
5.146823 -50.764093 2.787856 9
2.484824 -50.787876 2.791681 9
-0.214739 -50.709578 2.811115 9
-2.900180 -50.739515 2.809709 9
-5.607862 -50.734758 2.812209 9
-8.336386 -50.706107 2.816730 9
-11.066237 -50.724324 2.810992 9
-13.813442 -50.734100 2.804563 9
-16.584152 -50.718790 2.800305 9
-19.366057 -50.720471 2.790909 9
-22.165367 -50.721050 2.779487 9
-24.983024 -50.719838 2.766136 9
-27.819644 -50.717172 2.750772 9
-30.680626 -50.700480 2.735545 9
-33.543312 -50.732259 2.709619 9
-36.445443 -50.714097 2.689983 9
-39.364216 -50.708470 2.665805 9
-42.299136 -50.717397 2.636708 9
-45.253020 -50.734952 2.603685 9
-48.354930 -50.467583 2.617298 9
-51.713450 -49.697570 2.714885 9
-55.577263 -47.925874 2.982049 9
-59.793979 -45.551855 3.349611 9
-63.947376 -43.481263 3.661625 9
-68.422871 -40.919802 4.054407 9
-72.260962 -39.791089 4.197903 8
-75.566142 -39.797505 4.143772 8
-78.904259 -39.802356 4.086978 8
-82.267071 -39.822828 4.024533 8
-85.714040 -39.753398 3.974386 8
-89.148848 -39.770687 3.906336 8
-92.628430 -39.773578 3.837581 8
-96.123426 -39.814233 3.759188 8
-99.665190 -39.840909 3.679893 8
-103.248835 -39.864413 3.597786 8
-107.656575 -38.658970 3.719839 8
-117.202086 -29.672862 5.149405 7
-121.079633 -29.659161 5.059713 7
-124.952526 -29.723763 4.953049 7
-128.912805 -29.731290 4.852093 7
-132.903493 -29.768162 4.742241 7
-136.954860 -29.793046 4.630324 7
-141.081582 -29.789140 4.519023 7
-145.243978 -29.813494 4.398726 7
-149.453001 -29.852684 4.271580 7
148.054478 -31.348823 5.817952 6
145.121389 -31.349885 5.942353 6
142.208646 -31.331982 6.067405 6
139.310229 -31.313259 6.190028 6
136.430376 -31.274443 6.313613 6
133.552797 -31.277432 6.427443 6
130.701687 -31.221311 6.549118 6
127.850158 -31.215979 6.659521 6
125.018545 -31.170345 6.774593 6
122.192810 -31.144843 6.883799 6
119.370155 -31.154248 6.984543 6
117.056170 -28.428330 7.565523 5
113.666947 -31.678911 7.089719 5
110.430847 -34.440155 6.696089 5
107.498189 -35.623937 6.578304 5
104.726268 -35.896782 6.619514 5
102.004450 -35.884609 6.709176 5
99.283437 -35.916176 6.788938 5
96.581364 -35.837596 6.886280 5
93.876267 -35.825752 6.969664 5
91.172992 -35.844380 7.045550 5
88.476014 -35.844531 7.122722 5
85.782077 -35.856381 7.195788 5
83.096688 -35.791071 7.280759 5
80.411322 -35.755736 7.358390 5
77.726658 -35.743868 7.429847 5
75.040934 -35.812560 7.484803 5
72.361838 -35.725607 7.565988 5
69.680419 -35.746397 7.625766 5
66.971352 -41.354419 6.669266 9
64.351983 -42.725876 6.478516 9
61.760758 -44.226691 6.261810 9
59.196102 -45.653871 6.056088 9
56.655549 -47.011494 5.860688 9
54.138881 -48.351300 5.666242 9
51.631791 -49.423484 5.518445 9
49.114361 -50.044061 5.451130 9
46.589755 -50.443984 5.422265 9
44.035630 -50.437295 5.466056 9
41.477730 -50.435994 5.507136 9
38.918046 -50.462569 5.541377 9
36.347472 -50.432874 5.584229 9
33.778839 -50.469392 5.613197 9
31.192010 -50.408576 5.658345 9
28.609737 -50.434318 5.685855 9
26.017221 -50.435586 5.716148 9
23.413573 -50.414467 5.748846 9
20.805544 -50.417021 5.775460 9
18.193806 -50.445830 5.795501 9
15.564688 -50.428322 5.822357 9
12.920961 -50.387712 5.851747 9
10.283443 -50.427759 5.864497 9
7.622302 -50.405890 5.886938 9
4.947332 -50.374631 5.909363 9
2.281084 -50.430148 5.913974 9
-0.406794 -50.444406 5.924440 9
-3.120800 -50.407374 5.942613 9
-5.839697 -50.404401 5.952689 9
-8.563524 -50.433688 5.954985 9
-11.332418 -50.358020 5.974894 9
-14.081714 -50.401532 5.970900 9
-16.861997 -50.394546 5.974408 9
-19.665211 -50.368555 5.979571 9
-22.467985 -50.396400 5.972880 9
-25.311026 -50.358427 5.976478 9
-28.148514 -50.389735 5.965327 9
-31.029703 -50.353383 5.964763 9
-33.917572 -50.353956 5.955400 9
-36.811017 -50.393015 5.936931 9
-39.749134 -50.372601 5.927460 9
-42.688119 -50.404699 5.906242 9
-45.687621 -50.347430 5.899489 9
-48.809268 -50.069283 5.931457 9
-52.274546 -49.097722 6.089342 9
-58.808426 -41.593640 7.450921 9
-60.454452 -44.828113 6.827354 9
-64.841209 -42.323639 7.260522 9
-69.691346 -39.067850 7.829271 8
-72.971480 -39.103003 7.788761 8
-76.323526 -39.059242 7.760357 8
-79.651534 -39.123393 7.709631 8
-83.071504 -39.078185 7.676506 8
-86.502676 -39.077198 7.632693 8
-89.955359 -39.101548 7.581627 8
-93.470939 -39.080959 7.536148 8
-96.980588 -39.135383 7.474224 8
-100.551825 -39.151750 7.416518 8
-104.192934 -39.121331 7.364542 8
-109.604337 -36.387177 7.802826 8
-118.350876 -28.722772 9.135002 7
-122.231208 -28.749109 9.061303 7
-126.169650 -28.760458 8.987147 7
-130.143447 -28.792855 8.905912 7
-134.180163 -28.808521 8.824381 7
-138.267013 -28.828562 8.738642 7
-142.405761 -28.852797 8.648650 7
-149.101575 -25.556703 9.153415 7
145.665065 -30.511470 9.411344 6
142.754767 -30.419116 9.542536 6
139.837828 -30.399831 9.658016 6
136.942770 -30.348063 9.777315 6
134.068256 -30.262621 9.900726 6
131.189462 -30.242601 10.009863 6
128.337170 -30.156721 10.129186 6
125.484850 -30.117048 10.237842 6
122.643867 -30.071791 10.345513 6
119.811908 -30.029081 10.450708 6
117.595855 -26.671821 11.177194 5
114.181152 -29.904906 10.662509 5
110.822140 -33.248251 10.122943 5
107.842884 -34.600347 9.955700 5
105.030571 -35.026886 9.960971 5
102.300987 -34.948372 10.059910 5
99.569910 -34.921936 10.147186 5
96.845114 -34.888121 10.234083 5
94.126101 -34.844692 10.321052 5
91.408158 -34.833570 10.400122 5
88.696879 -34.793356 10.483015 5
85.984882 -34.805540 10.554182 5
83.272325 -34.884016 10.610934 5
80.570300 -34.851216 10.687303 5
77.870213 -34.815731 10.762529 5
75.170791 -34.797731 10.832748 5
72.473120 -34.754740 10.906141 5
69.774818 -34.763197 10.968000 5
67.046584 -40.469691 9.928403 9
64.411619 -42.016170 9.688574 9
61.805847 -43.521225 9.454533 9
59.229808 -45.077303 9.208440 9
56.682334 -46.618810 8.963016 9
54.151908 -47.901306 8.765737 9
51.632580 -48.964104 8.609149 9
49.104806 -49.607046 8.532317 9
46.563270 -49.932788 8.515515 9
43.998123 -49.940858 8.559013 9
41.426923 -49.926944 8.605339 9
38.849802 -49.903320 8.652112 9
36.274332 -49.944160 8.684858 9
33.687017 -49.927461 8.727390 9
31.092667 -49.906215 8.769373 9
28.495685 -49.915774 8.803892 9
25.897003 -49.959487 8.830280 9
23.273723 -49.893012 8.876809 9
20.657272 -49.920900 8.903411 9
18.022284 -49.891321 8.939840 9
15.384635 -49.898462 8.967622 9
12.736930 -49.902945 8.994479 9
10.074258 -49.884597 9.024373 9
7.404144 -49.882705 9.049581 9
4.725411 -49.892426 9.071048 9
2.037642 -49.912873 9.088939 9
-0.675991 -49.878739 9.116102 9
-3.389878 -49.895465 9.131779 9
-6.122475 -49.892294 9.149890 9
-8.879194 -49.854562 9.173321 9
-11.619020 -49.926544 9.173628 9
-14.407458 -49.885349 9.194733 9
-17.200763 -49.882170 9.206823 9
-20.016167 -49.862779 9.220579 9
-22.838322 -49.875942 9.226369 9
-25.688522 -49.859728 9.236397 9
-28.546314 -49.875389 9.238563 9
-31.431127 -49.869773 9.243341 9
-34.327922 -49.885872 9.242231 9
-37.260842 -49.862502 9.247290 9
-40.214811 -49.841993 9.250147 9
-43.179627 -49.850459 9.245630 9
-46.193325 -49.798697 9.251321 9
-49.373053 -49.427127 9.318411 9
-52.930202 -48.294466 9.533901 9
-57.018620 -46.128814 9.951304 9
-61.349027 -43.618642 10.434674 9
-65.791780 -41.058664 10.925791 9
-70.688090 -37.772813 11.557806 8
-74.003853 -37.792681 11.536200 8
-77.338390 -37.836750 11.507867 8
-80.741813 -37.811899 11.491111 8
-86.170339 -34.160764 12.185900 8
-89.678671 -34.156802 12.160589 8
-91.098494 -37.853575 11.405645 8
-94.617753 -37.877681 11.370922 8
-98.192345 -37.873435 11.339590 8
-101.820523 -37.847631 11.310262 8
-114.243142 -23.864037 14.015706 8
-115.632380 -27.762819 13.210754 8
-120.007426 -27.006274 13.316011 7
-123.925787 -27.035919 13.264709 7
-127.904152 -27.048760 13.214135 7
-131.909536 -27.095567 13.154306 7
-135.961887 -27.148636 13.090588 7
-140.073956 -27.192459 13.025944 7
-144.241566 -27.235709 12.958615 7
-148.469909 -27.274075 12.889371 7
146.443966 -28.864318 13.073934 6
143.496710 -28.809516 13.191184 6
140.565112 -28.747351 13.307995 6
137.652280 -28.662275 13.427475 6
134.746715 -28.595743 13.541482 6
131.863661 -28.482692 13.662914 6
128.966211 -28.478406 13.761039 6
126.097214 -28.395805 13.872953 6
123.233040 -28.336002 13.978632 6
120.376362 -28.285841 14.080705 6
117.940489 -25.996083 14.628394 6
114.788159 -27.617365 14.393524 5
111.322331 -31.406958 13.721596 5
108.258911 -33.127186 13.460944 5
105.413265 -33.624958 13.443323 5
102.647072 -33.656059 13.517765 5
99.888862 -33.680729 13.591953 5
97.150771 -33.586116 13.688687 5
94.417439 -33.480863 13.786131 5
91.678464 -33.466780 13.863709 5
88.948724 -33.393258 13.951879 5
86.215969 -33.394577 14.023463 5
83.487765 -33.379979 14.096854 5
80.765873 -33.299519 14.182237 5
78.042014 -33.283327 14.253177 5
75.319406 -33.279407 14.320241 5
72.599051 -33.242802 14.392609 5
69.877925 -33.275045 14.449571 5
67.123268 -39.463482 13.246012 9
64.470714 -41.032590 12.984237 9
61.848856 -42.629128 12.714874 9
59.254948 -44.123339 12.464562 9
56.692091 -45.710744 12.193238 9
54.152982 -47.170228 11.946335 9
51.617874 -48.210050 11.783992 9
49.078926 -48.909118 11.690225 9
46.521346 -49.208747 11.677345 9
43.944617 -49.250891 11.716296 9
41.367875 -49.329319 11.746555 9
38.772945 -49.261046 11.805931 9
36.181256 -49.279593 11.846199 9
33.579342 -49.257866 11.893629 9
30.974073 -49.260532 11.934849 9
28.353211 -49.200051 11.987999 9
25.150343 -45.376900 12.820733 9
23.117276 -49.272270 12.050769 9
20.475866 -49.235779 12.095490 9
17.837011 -49.264877 12.125431 9
15.177941 -49.233889 12.166712 9
12.506332 -49.192270 12.209062 9
9.830837 -49.184673 12.243182 9
7.146784 -49.187979 12.273878 9
4.455162 -49.207368 12.300063 9
1.739494 -49.175628 12.335754 9
-0.979355 -49.183227 12.362079 9
-3.726200 -49.134117 12.399084 9
-6.468615 -49.154605 12.420387 9
-9.231856 -49.150868 12.445579 9
-12.011565 -49.142258 12.470614 9
-14.804765 -49.141027 12.492924 9
-17.616563 -49.132392 12.515596 9
-20.436550 -49.150729 12.531426 9
-23.274670 -49.166159 12.546659 9
-26.150019 -49.126467 12.572229 9
-29.029828 -49.129181 12.587696 9
-31.934403 -49.118010 12.604845 9
-34.853004 -49.124039 12.617149 9
-37.797100 -49.118698 12.630587 9
-40.770387 -49.095741 12.646460 9
-43.757270 -49.095806 12.656229 9
-48.686870 -44.628116 13.602250 9
-50.131753 -48.349372 12.828575 9
-53.806263 -47.011632 13.115255 9
-58.072195 -44.525313 13.641748 9
-62.616287 -41.636559 14.251424 9
-67.263483 -38.736888 14.862042 9
-72.017419 -35.823678 15.474089 8
-75.394143 -35.794916 15.479123 8
-78.784953 -35.802419 15.475047 8
-82.203564 -35.820219 15.467291 8
-85.664403 -35.823450 15.461050 8
-89.164480 -35.820467 15.454547 8
-92.693637 -35.831418 15.443527 8
-96.278580 -35.812145 15.437227 8
-99.875564 -35.839414 15.419515 8
-103.480880 -35.918405 15.389279 8
-108.644401 -33.583289 15.863439 8
-118.345075 -24.352702 17.780711 7
-122.252040 -24.407938 17.749444 7
-126.263821 -24.377028 17.734336 7
-130.265506 -24.435598 17.698560 7
-134.351686 -24.445213 17.671067 7
-138.464961 -24.491787 17.633832 7
-142.658627 -24.502366 17.602071 7
-146.913194 -24.507883 17.569263 7
147.417733 -26.558163 16.929069 6
144.442801 -26.481553 17.043908 6
141.489230 -26.375416 17.163369 6
138.535618 -26.317083 17.271328 6
135.604905 -26.216854 17.386564 6
132.700742 -26.051087 17.514107 6
129.783516 -25.983786 17.619569 6
126.881258 -25.896045 17.727914 6
123.993082 -25.786230 17.839528 6
121.104106 -25.724268 17.939691 6
118.195149 -25.818822 18.005405 6
115.720469 -23.491279 18.582555 5
113.418403 -19.883676 19.431131 5
108.779682 -30.994489 17.155414 5
105.853558 -31.842696 17.053957 5
103.089813 -31.662559 17.169680 5
100.315650 -31.590844 17.261153 5
97.540625 -31.567822 17.341050 5
94.771386 -31.538798 17.421038 5
92.011368 -31.460092 17.510482 5
89.251224 -31.418517 17.590842 5
86.491453 -31.415305 17.661840 5
83.738445 -31.361721 17.742514 5
80.984347 -31.364036 17.810072 5
78.238786 -31.234796 17.904826 5
75.487919 -31.241094 17.969344 5
72.741876 -31.123466 18.059499 5
69.992271 -31.150786 18.117342 5
67.227608 -33.912291 17.583240 9
64.529746 -39.841726 16.361567 9
61.887439 -41.370179 16.089292 9
59.277006 -43.014953 15.790158 9
56.695595 -44.601931 15.501893 9
54.139249 -46.089533 15.233590 9
51.589434 -47.192701 15.047301 9
49.036259 -47.941989 14.936630 9
46.463221 -48.260999 14.918441 9
43.867355 -48.273605 14.965997 9
41.264702 -48.256150 15.019200 9
38.657289 -48.241827 15.070824 9
36.043533 -48.220099 15.123178 9
33.427713 -48.231718 15.167358 9
30.800145 -48.199851 15.220169 9
28.172688 -48.220361 15.260640 9
25.536903 -48.230949 15.302406 9
22.887685 -48.205231 15.351263 9
20.219573 -48.120979 15.412115 9
17.557456 -48.126830 15.452336 9
14.888931 -48.147122 15.488523 9
12.207631 -48.151025 15.527453 9
9.511881 -48.135600 15.569784 9
6.801051 -48.103176 15.615012 9
4.091463 -48.128090 15.646761 9
1.347051 -48.057980 15.698614 9
-1.392712 -48.061518 15.733384 9
-4.142991 -48.075139 15.765078 9
-6.921862 -48.034410 15.807931 9
-9.708130 -48.021413 15.843816 9
-12.513162 -47.997066 15.881366 9
-15.318264 -48.025315 15.906430 9
-18.144040 -48.038260 15.934026 9
-21.015336 -47.964047 15.980075 9
-23.882497 -47.958830 16.009991 9
-26.775085 -47.934073 16.043383 9
-29.669456 -47.958730 16.064953 9
-32.586128 -47.975447 16.087414 9
-35.534439 -47.962578 16.115572 9
-38.515962 -47.920594 16.149326 9
-41.506551 -47.913089 16.174543 9
-44.521524 -47.902625 16.199533 9
-47.636705 -47.715267 16.262978 9
-51.064498 -46.886633 16.468242 9
-54.999411 -45.040064 16.899300 9
-59.582841 -41.952088 17.606114 9
-64.190729 -39.025092 18.276566 9
-70.414948 -33.001346 19.636373 8
-73.808699 -32.968082 19.660960 8
-77.213647 -32.976727 19.675203 8
-80.666978 -32.955796 19.695021 8
-84.132470 -32.976603 19.704503 8
-87.645665 -32.973978 19.718166 8
-91.210993 -32.943760 19.736929 8
-94.815494 -32.912372 19.754883 8
-98.469592 -32.864412 19.775451 8
-102.144439 -32.850943 19.787220 8
-106.389000 -31.982412 19.988753 8
-117.813982 -19.833318 22.707725 7
-121.804181 -19.808252 22.718918 7
-125.837935 -19.791284 22.727069 7
-129.927176 -19.766595 22.735690 7
-134.063476 -19.749421 22.741355 7
-138.228038 -19.768647 22.737587 7
-142.466278 -19.761107 22.738469 7
-146.733920 -19.791643 22.729493 7
145.778356 -22.778532 21.272653 6
142.780076 -22.658828 21.389311 6
139.786451 -22.568558 21.498294 6
136.816159 -22.433272 21.616090 6
133.850711 -22.322484 21.727343 6
130.893241 -22.222987 21.834987 6
127.954115 -22.085591 21.949974 6
125.048388 -21.828568 22.090555 6
122.119490 -21.719338 22.197230 6
119.199176 -21.607922 22.303374 6
116.977238 -17.555637 23.289353 6
113.017573 -23.583023 22.020813 5
109.494172 -27.637881 21.189936 5
106.451131 -28.998538 20.960272 5
103.621968 -29.031829 21.027036 5
100.813823 -28.956631 21.117233 5
98.026878 -28.738413 21.238737 5
95.226527 -28.660813 21.327751 5
92.430385 -28.577306 21.417242 5
89.635890 -28.509771 21.502287 5
86.843989 -28.445031 21.585867 5
84.056809 -28.343926 21.676858 5
81.267485 -28.301411 21.753784 5
78.481684 -28.220085 21.838709 5
75.695295 -28.168471 21.916114 5
72.910443 -28.078668 22.001424 5
70.124840 -27.991110 22.085478 5
67.288690 -35.914717 20.344416 9
64.587002 -37.934861 19.944783 9
61.919487 -39.570633 19.631237 9
59.286283 -41.333917 19.287147 9
56.689848 -43.199167 18.918294 9
54.113601 -44.722847 18.626124 9
51.546059 -45.887771 18.414808 9
48.970576 -46.605738 18.304808 9
46.381995 -46.994397 18.269423 9
43.775073 -47.114371 18.294942 9
41.151997 -47.080723 18.355094 9
38.524526 -47.057385 18.412269 9
35.897645 -47.090258 18.455901 9
33.256794 -47.051000 18.515536 9
30.604214 -46.976622 18.582689 9
27.958442 -47.007978 18.624877 9
25.289139 -46.929027 18.691949 9
22.620595 -46.912547 18.744033 9
19.942532 -46.891247 18.796667 9
17.259272 -46.892426 18.843541 9
14.565771 -46.889252 18.890863 9
11.852370 -46.837633 18.948867 9
9.129905 -46.797787 19.003608 9
6.402285 -46.788042 19.050830 9
3.659563 -46.764476 19.100729 9
0.903975 -46.740346 19.150234 9
-1.869768 -46.697345 19.203608 9
-4.655970 -46.661381 19.254832 9
-7.436271 -46.700240 19.288111 9
-10.250843 -46.667979 19.337444 9
-13.074625 -46.658452 19.380968 9
-15.929042 -46.602004 19.434941 9
-18.799188 -46.552112 19.486891 9
-21.673607 -46.544874 19.528378 9
-24.566789 -46.535784 19.569799 9
-27.486436 -46.505162 19.615762 9
-30.410769 -46.516886 19.651318 9
-33.384245 -46.450480 19.704686 9
-36.358755 -46.439400 19.744604 9
-39.362778 -46.409202 19.788518 9
-42.385245 -46.390518 19.829246 9
-45.437970 -46.356238 19.873152 9
-48.688553 -45.921304 20.010762 9
-52.305165 -44.740026 20.323544 9
-56.579873 -42.230855 20.948648 9
-61.404918 -38.728588 21.807746 9
-68.083524 -31.590676 23.523767 9
-72.930767 -28.593456 24.265026 8
-76.417439 -28.507035 24.320018 8
-79.924552 -28.448511 24.367925 8
-83.456742 -28.409300 24.410760 8
-90.911539 -21.181071 26.151106 8
-90.654696 -28.286616 24.505333 8
-94.298701 -28.247889 24.546497 8
-98.024210 -28.136929 24.604222 8
-101.784311 -28.039973 24.658119 8
-106.041120 -27.195186 24.888550 8
148.814397 -13.027789 27.015625 6
145.769804 -12.662085 27.185359 6
142.735699 -12.285515 27.356920 6
139.700852 -11.939435 27.520681 6
136.705055 -11.457808 27.715446 6
133.710504 -10.985703 27.907393 6
130.725289 -10.484474 28.105587 6
127.784982 -9.774824 28.352121 6
124.853857 -9.003076 28.612816 6
122.161431 -6.923612 29.180560 6
110.639981 -21.549242 25.964827 5
107.315924 -24.353058 25.375623 5
104.349690 -24.990867 25.296304 5
101.500775 -24.852052 25.399780 5
98.653185 -24.733019 25.498013 5
95.808248 -24.621726 25.593859 5
92.970764 -24.464813 25.699990 5
90.132913 -24.331426 25.800024 5
87.294428 -24.227396 25.892573 5
84.458084 -24.115835 25.986407 5
81.624383 -23.974377 26.086875 5
78.796764 -23.697532 26.219171 5
75.958293 -23.628558 26.301451 5
73.120429 -23.545796 26.386553 5
70.283377 -23.379623 26.491152 5
67.379296 -33.216351 24.200519 9
64.643446 -35.436021 23.730358 9
61.947321 -37.377191 23.325575 9
59.289179 -39.341307 22.914005 9
56.666277 -41.239226 22.517074 9
54.072506 -42.985366 22.155426 9
51.487457 -44.288010 21.899401 9
48.888984 -45.012020 21.781862 9
46.278187 -45.415464 21.740959 9
43.644736 -45.494793 21.777763 9
40.998381 -45.464756 21.840612 9
38.345454 -45.423718 21.905802 9
35.684587 -45.366912 21.974502 9
33.017455 -45.316015 22.041480 9
30.345476 -45.284212 22.103546 9
27.665655 -45.250142 22.165879 9
24.980291 -45.232706 22.223900 9
22.279373 -45.170683 22.292484 9
19.575224 -45.146100 22.351718 9
16.856461 -45.093660 22.417480 9
14.131493 -45.064000 22.477461 9
11.393513 -45.023070 22.539956 9
8.643968 -44.981873 22.602296 9
5.885734 -44.955811 22.660728 9
3.104050 -44.882570 22.730480 9
0.320073 -44.856739 22.788452 9
-2.476612 -44.834190 22.845427 9
-5.289375 -44.804196 22.904038 9
-8.115720 -44.778859 22.961330 9
-10.958911 -44.748532 23.019677 9
-13.821912 -44.705998 23.080860 9
-16.709561 -44.639035 23.147898 9
-19.610973 -44.586234 23.211322 9
-24.104928 -39.780527 24.444378 9
-27.089580 -39.748232 24.503397 9
-28.381686 -44.565142 23.367007 9
-31.350406 -44.540433 23.423008 9
-34.350237 -44.488757 23.485558 9
-37.370458 -44.442192 23.546756 9
-40.406497 -44.413789 23.603379 9
-43.465805 -44.385825 23.659812 9
-46.579889 -44.285426 23.734105 9
-49.978786 -43.588818 23.956097 9
-53.927134 -41.749781 24.461580 9
-58.801952 -38.033237 25.433614 9
-64.174985 -33.500470 26.609679 9
-72.202382 -23.727453 29.089758 8
-75.716387 -23.664430 29.158338 8
-79.257642 -23.614696 29.223606 8
-82.827170 -23.577510 29.285748 8
-86.443007 -23.520115 29.352931 8
-90.095559 -23.463823 29.419860 8
-93.810272 -23.364931 29.497453 8
-97.531814 -23.326052 29.560111 8
-101.311316 -23.257412 29.630252 8
-105.215306 -23.051252 29.734867 8
139.974859 135.673823 68.234255 0
135.607017 136.690799 68.592233 0
107.915169 -21.571063 29.456809 5
104.930818 -22.070510 29.400858 5
102.028251 -22.057828 29.471573 5
99.131645 -22.047684 29.541353 5
96.238459 -22.059512 29.605373 5
93.353135 -22.048248 29.674856 5
90.475792 -21.998146 29.753759 5
87.598111 -21.995967 29.820467 5
84.722874 -22.013252 29.882070 5
81.852980 -21.999248 29.951256 5
78.986459 -21.964823 30.025340 5
76.119902 -21.972186 30.088765 5
73.252493 -22.078927 30.127076 5
70.389416 -22.119123 30.181856 5
67.480418 -29.221981 28.462597 9
64.697479 -31.708302 27.900519 9
61.965522 -34.356671 27.296417 9
59.273915 -36.518031 26.813648 9
56.627262 -38.785915 26.302951 9
54.011057 -40.759149 25.865473 9
51.393104 -42.003330 25.611110 9
48.776351 -42.918964 25.439142 9
46.123393 -43.133351 25.444070 9
43.475792 -43.407940 25.433602 9
40.794311 -43.305611 25.518467 9
38.114800 -43.290123 25.581315 9
35.424847 -43.232859 25.654747 9
32.731668 -43.206989 25.720212 9
30.023042 -43.117388 25.801886 9
27.315182 -43.094560 25.866612 9
24.596139 -43.050749 25.936709 9
21.864783 -42.986251 26.012126 9
19.124978 -42.930101 26.085479 9
16.375985 -42.879904 26.157385 9
13.618264 -42.839971 26.226751 9
10.843612 -42.771390 26.303535 9
8.070087 -42.765084 26.364488 9
5.261635 -42.654874 26.452162 9
2.462169 -42.643506 26.514643 9
-0.362957 -42.580012 26.590626 9
-3.202858 -42.515612 26.667001 9
-6.051023 -42.477142 26.736878 9
-8.924204 -42.403619 26.815948 9
-11.805993 -42.358068 26.888012 9
-14.711142 -42.290405 26.965977 9
-17.618736 -42.272577 27.031304 9
-20.561592 -42.199426 27.111133 9
-23.509321 -42.170099 27.179884 9
-26.490709 -42.098544 27.259806 9
-29.482390 -42.056807 27.332284 9
-32.506492 -41.983633 27.413188 9
-35.572031 -41.859932 27.507506 9
-38.619064 -41.846809 27.573459 9
-41.726436 -41.739299 27.664249 9
-44.827517 -41.709619 27.735163 9
-48.132909 -41.254530 27.917180 9
-51.834707 -39.967551 28.316544 9
-66.125980 -15.040171 34.882967 8
-62.905110 -29.748366 31.114161 9
-73.563558 -14.202877 35.244275 8
-77.436393 -13.592637 35.476022 8
-81.373174 -12.949073 35.717270 8
-85.480204 -12.067141 36.021798 8
-89.822822 -10.840595 36.417675 8
149.454035 135.823647 73.406789 0
145.037812 136.691708 73.730543 0
140.476039 136.708695 73.833827 0
135.927384 136.723994 73.936630 0
131.389374 136.726555 74.036099 0
106.127881 -14.687414 34.754614 5
102.989995 -15.874965 34.510850 5
100.055516 -15.583171 34.651984 5
97.131794 -15.193125 34.818894 5
94.205193 -14.809582 34.984319 5
91.277549 -14.407328 35.154853 5
88.350192 -13.954621 35.338817 5
85.419897 -13.469059 35.531655 5
82.496942 -12.742614 35.787873 5
79.564205 -11.975867 36.055077 5
76.644042 -10.514200 36.505012 5
67.603529 -22.440007 33.570287 9
64.750083 -26.772946 32.494645 9
61.966206 -29.856204 31.746411 9
59.241854 -32.902701 31.006655 9
56.558725 -35.402867 30.409867 9
53.911007 -37.613068 29.888720 9
51.267672 -39.118178 29.553148 9
48.619366 -40.112625 29.352206 9
45.941422 -40.474067 29.318646 9
43.239134 -40.501835 29.373589 9
40.519846 -40.388592 29.466174 9
37.798641 -40.327356 29.545269 9
35.068975 -40.250888 29.628717 9
32.337137 -40.218375 29.700800 9
29.590414 -40.128271 29.788531 9
26.841111 -40.082463 29.864818 9
24.089516 -40.077585 29.930541 9
21.310299 -39.954484 30.028162 9
18.527792 -39.877203 30.113958 9
15.735493 -39.805843 30.198578 9
12.935767 -39.754582 30.278237 9
10.122473 -39.693216 30.361027 9
7.294594 -39.621216 30.447111 9
4.448846 -39.528137 30.539315 9
1.604595 -39.501430 30.614182 9
-1.281065 -39.361071 30.720077 9
-4.161383 -39.305355 30.803740 9
-7.073903 -39.186397 30.904958 9
-9.980217 -39.151796 30.984001 9
-12.925624 -39.037791 31.085017 9
-15.876054 -38.968815 31.174471 9
-18.849318 -38.885090 31.268510 9
-21.837028 -38.816402 31.359102 9
-24.847998 -38.736946 31.453247 9
-27.868094 -38.691045 31.538951 9
-30.951503 -38.524945 31.657949 9
-34.028547 -38.442182 31.755049 9
-37.149426 -38.304373 31.867847 9
-40.269018 -38.234565 31.962904 9
-43.423237 -38.139276 32.065668 9
-46.662892 -37.899270 32.208722 9
-50.293096 -36.807533 32.585349 9
-55.048361 -33.246030 33.638785 9
159.281204 137.033586 78.936351 0
154.586914 136.705365 78.936986 0
149.977414 136.702556 79.026115 0
145.390664 136.738997 79.126334 0
140.807774 136.715023 79.210627 0
136.244572 136.724963 79.304597 0
131.689638 136.704700 79.390848 0
127.152742 136.725077 79.488651 0
122.627641 136.753801 79.589254 0
118.100773 136.684982 79.663826 0
113.592156 136.685815 79.757911 0
109.092440 136.690729 79.853676 0
104.600368 136.696570 79.950278 0
100.083464 136.293885 79.935824 0
61.921589 -21.612878 37.352885 9
59.154027 -26.757193 36.001711 9
56.439089 -30.415600 35.058434 9
53.765981 -33.389065 34.303014 9
51.094727 -35.316837 33.835575 9
48.404210 -36.369921 33.609578 9
45.683373 -36.764214 33.565911 9
42.920123 -36.599073 33.677540 9
40.156690 -36.516923 33.766809 9
37.388149 -36.450684 33.852283 9
34.607500 -36.338867 33.951039 9
31.820463 -36.243562 34.045870 9
29.026257 -36.159244 34.138315 9
26.221670 -36.065022 34.234199 9
23.404273 -35.950691 34.336389 9
20.581887 -35.871196 34.429592 9
17.745505 -35.771949 34.529038 9
14.895124 -35.659369 34.632967 9
12.041416 -35.593418 34.724633 9
9.168265 -35.491353 34.827187 9
6.262632 -35.300693 34.955385 9
3.356662 -35.178743 35.065187 9
0.432583 -35.043890 35.179477 9
-2.490239 -34.978791 35.275050 9
-5.447296 -34.839580 35.392351 9
-8.415146 -34.724940 35.503668 9
-11.409033 -34.579820 35.624525 9
-14.426949 -34.416934 35.751384 9
-17.462304 -34.262495 35.876877 9
-20.499783 -34.167142 35.986697 9
-23.581491 -33.996531 36.118858 9
-26.681037 -33.839537 36.248260 9
-29.793950 -33.710092 36.370966 9
-35.927671 -25.149898 38.889959 9
-36.097568 -33.429749 36.625900 9
-39.291869 -33.274961 36.759308 9
-42.512934 -33.118482 36.894434 9
-57.166703 -4.518036 45.148591 9
-49.635461 -31.354981 37.582983 9
170.251377 142.403157 85.744646 0
164.117301 136.063091 84.031534 0
159.599034 136.694224 84.288605 0
154.969344 136.744439 84.382476 0
150.346471 136.747586 84.464009 0
145.735856 136.731203 84.540992 0
141.142546 136.727171 84.622462 0
136.565175 136.735115 84.708333 0
132.000102 136.739163 84.794114 0
127.448039 136.750134 84.882890 0
122.899151 136.699912 84.955312 0
118.364013 136.669887 85.034510 0
113.849608 136.738693 85.142895 0
109.332596 136.707110 85.223786 0
56.141529 -19.899434 41.437177 9
53.515298 -26.650149 39.562514 9
50.802618 -29.230627 38.887358 9
48.091264 -31.054593 38.430022 9
45.312052 -31.489880 38.373567 9
42.494761 -31.409021 38.466914 9
39.676557 -31.386273 38.544391 9
36.848607 -31.323980 38.634236 9
34.015137 -31.274984 38.721188 9
31.171836 -31.205488 38.815055 9
28.327018 -31.186697 38.895201 9
25.465033 -31.102723 38.995274 9
22.607431 -31.110383 39.069742 9
19.723978 -31.011696 39.176177 9
16.841094 -30.980365 39.264078 9
13.937633 -30.893792 39.369163 9
11.042955 -30.914396 39.444085 9
8.109685 -30.798229 39.560060 9
5.170363 -30.718707 39.666504 9
2.236968 -30.726460 39.748582 9
-0.732758 -30.634142 39.861154 9
-3.695759 -30.631173 39.948754 9
-6.701416 -30.517732 40.070021 9
-9.713282 -30.445075 40.180606 9
-12.729820 -30.416481 40.279533 9
-15.769014 -30.367484 40.385785 9
-18.836031 -30.285475 40.503131 9
-21.920123 -30.210683 40.619751 9
-25.011884 -30.173797 40.726593 9
-28.133692 -30.106349 40.843920 9
-31.283332 -30.019939 40.968359 9
-34.444284 -29.964932 41.085015 9
-37.633375 -29.894898 41.207688 9
-40.844169 -29.830354 41.330323 9
-44.264423 -29.292119 41.595700 9
-49.372817 -24.644357 43.088877 9
173.827300 135.718935 89.280573 0
169.348262 136.673291 89.626926 0
164.661631 136.691078 89.698880 0
159.996626 136.723720 89.776734 0
155.342274 136.723729 89.846482 0
150.706032 136.730057 89.919617 0
146.084431 136.729841 89.992347 0
141.477071 136.725099 90.065271 0
136.882537 136.711941 90.137243 0
132.303964 136.715851 90.215809 0
127.737690 136.720808 90.296243 0
123.176795 136.680311 90.364769 0
118.635137 136.707115 90.454814 0
114.011117 135.891207 90.296368 0
50.321919 -19.522560 45.194421 9
47.710787 -24.644901 43.728563 9
44.980030 -26.749393 43.168988 9
42.155152 -27.253649 43.091266 9
39.269964 -27.049795 43.227864 9
36.367163 -26.766715 43.389718 9
33.457988 -26.530138 43.538962 9
30.536063 -26.281544 43.693261 9
27.598390 -26.005596 43.857285 9
24.647691 -25.731204 44.022332 9
21.683328 -25.457819 44.188590 9
18.695390 -25.128631 44.373314 9
15.688648 -24.784419 44.564201 9
12.651505 -24.368437 44.778538 9
9.609419 -24.025789 44.972280 9
6.528960 -23.586092 45.197273 9
3.448551 -23.244258 45.394226 9
0.302830 -22.701456 45.654270 9
-2.857686 -22.200353 45.903504 9
-6.064675 -21.610794 46.181730 9
-9.295006 -21.036077 46.457449 9
-12.636781 -20.150160 46.830632 9
-16.007676 -19.285750 47.199546 9
-19.505566 -18.106954 47.667423 9
183.783448 135.811039 94.746289 0
179.258693 136.734126 95.078761 0
174.508049 136.719213 95.125557 0
169.779265 136.706410 95.175083 0
165.074605 136.710827 95.231978 0
160.392404 136.731923 95.296080 0
155.724128 136.734859 95.356681 0
151.071109 136.728750 95.416577 0
146.432948 136.715184 95.476255 0
141.820897 136.764443 95.557354 0
137.205091 136.707960 95.607973 0
132.605913 136.666242 95.665211 0
128.029369 136.692199 95.745398 0
123.332497 135.703674 95.514644 0
194.145301 136.753722 100.586694 0
189.295076 136.689399 100.596964 0
184.493254 136.710071 100.637073 0
179.700331 136.675865 100.662351 0
174.942758 136.692180 100.706445 0
170.222732 136.779798 100.776000 0
165.494785 136.749803 100.810634 0
160.793535 136.752202 100.858275 0
156.108348 136.744421 100.905306 0
151.441633 136.742502 100.956853 0
146.780059 136.679365 100.991437 0
142.149734 136.702066 101.056131 0
137.530212 136.705940 101.117431 0
132.787136 135.800565 100.889906 0
206.540666 143.565125 108.509668 0
199.411288 136.369815 106.131550 0
194.642746 136.721080 106.261104 0
189.787400 136.694413 106.268578 0
184.959668 136.676779 106.282370 0
180.171270 136.719374 106.319458 0
175.402413 136.753813 106.357124 0
170.643480 136.742515 106.382868 0
165.900033 136.708430 106.404289 0
161.196311 136.766445 106.459545 0
156.479871 136.677685 106.469247 0
151.806075 136.710673 106.522624 0
147.147247 136.739894 106.577959 0
142.378238 136.042184 106.394646 0
204.944677 136.670812 111.980893 0
200.037818 136.702694 111.985549 0
195.143993 136.688396 111.978293 0
190.279584 136.685396 111.978907 0
185.452522 136.728884 111.999490 0
180.643985 136.755796 112.018277 0
175.858787 136.787895 112.042745 0
171.054323 136.649675 112.012355 0
166.313149 136.688379 112.046811 0
161.582156 136.687538 112.071457 0
156.877826 136.726782 112.113737 0
152.172561 136.675209 112.128479 0
210.459484 136.688418 117.819451 0
205.489605 136.662262 117.782889 0
200.551258 136.644207 117.753927 0
195.660693 136.695154 117.754296 0
190.808834 136.794880 117.776720 0
185.919394 136.669868 117.723361 0
181.083624 136.649620 117.712003 0
176.278999 136.661257 117.716555 0
171.491240 136.653339 117.718592 0
166.732359 136.680912 117.737769 0
161.982797 136.663287 117.745207 0
215.865851 136.178970 123.550495 0
211.036840 136.713847 123.699225 0
206.043507 136.667940 123.637922 0
201.068126 136.583040 123.567540 0
196.494113 137.772377 123.974739 0
191.273501 136.659037 123.533785 0
186.407593 136.675642 123.516824 0
181.563361 136.684239 123.502071 0
176.743394 136.698635 123.494601 0
171.933417 136.664130 123.474113 0
166.966937 135.845153 123.168113 0
211.594710 136.664434 129.601217 0
206.605759 136.685092 129.547549 0
201.638979 136.684855 129.491899 0
196.704351 136.699508 129.447946 0
191.783425 136.669568 129.392807 0
186.897601 136.672817 129.356273 0
182.038169 136.684322 129.328724 0
176.961965 135.734920 128.938506 0
207.161133 136.664827 135.494919 0
202.188926 136.701795 135.437146 0
197.260743 136.795959 135.408731 0
192.300289 136.688797 135.306990 0
187.135941 135.729869 134.873888 0
-144.686657 17.833466 -24.139880 7
-139.393777 16.687246 -24.937034 7
-134.259353 15.493481 -25.684640 7
-129.270222 14.256400 -26.387934 7
-124.438140 12.960853 -27.035921 7
-119.714517 11.640226 -27.657837 7
-107.603590 16.567614 -33.365839 8
-102.378007 15.927727 -34.487987 8
-98.026755 14.609314 -35.054342 8
-93.799128 13.235584 -35.574234 8
-89.616549 11.872246 -36.101008 8
-85.607129 10.399014 -36.540778 8
-81.682182 8.890934 -36.954267 8
-77.922566 7.265857 -37.279237 8
-74.259164 5.582860 -37.563319 8
-70.714785 3.813775 -37.786540 8
-61.917878 7.466924 -42.092606 9
-53.482834 10.993597 -46.246042 9
-47.273446 12.384610 -48.763190 9
-43.225761 11.569373 -49.630589 9
-39.875687 10.037230 -49.972181 9
-36.578909 8.474261 -50.296545 9
-33.419999 6.778922 -50.531631 9
-30.337992 5.013888 -50.724506 9
-27.299807 3.213690 -50.900931 9
-24.386783 1.274435 -50.988924 9
-21.599360 -0.814301 -50.983727 9
-18.935473 -3.060287 -50.882609 9
-16.368113 -5.438734 -50.705237 9
-14.031152 -8.139046 -50.325348 9
-11.894902 -11.141774 -49.761329 9
-10.194424 -14.797455 -48.783937 9
-9.264391 -19.630219 -47.056246 9
-147.083899 22.605457 -20.002859 7
-141.397984 21.670474 -21.044762 7
-135.949276 20.643317 -21.990605 7
-130.568731 19.644232 -22.947679 7
-125.465765 18.507469 -23.773608 7
-120.551920 17.291789 -24.522309 7
-116.901405 15.111878 -24.447403 7
-103.213959 21.326030 -31.419005 8
-98.565086 20.222022 -32.193286 8
-94.091026 19.031187 -32.888816 8
-89.694835 17.831427 -33.571678 8
-85.430491 16.570854 -34.200482 8
-81.285704 15.254642 -34.781110 8
-77.221158 13.914156 -35.340167 8
-73.239715 12.543005 -35.873508 8
-68.423057 12.039851 -37.087943 9
-60.203994 15.032810 -41.014889 9
-52.400324 17.827070 -44.733903 9
-46.694737 18.643526 -46.885993 9
-42.636054 17.832975 -47.775421 9
-39.106955 16.506643 -48.270865 9
-35.705467 15.077091 -48.690799 9
-32.305525 13.679433 -49.137693 9
-29.050680 12.147645 -49.488977 9
-25.798722 10.640240 -49.863110 9
-22.654899 9.030089 -50.167762 9
-19.570201 7.369876 -50.442845 9
-16.551645 5.646337 -50.679978 9
-13.611482 3.838452 -50.865579 9
-10.807184 1.863923 -50.943486 9
-8.059093 -0.181780 -50.983183 9
-5.417944 -2.373953 -50.933988 9
-2.913433 -4.764784 -50.762699 9
-0.565366 -7.396578 -50.443946 9
1.586397 -10.344532 -49.931044 9
3.418607 -13.815650 -49.090672 9
4.620170 -18.324354 -47.589807 9
-145.109886 25.482778 -16.057067 7
-139.220903 24.676073 -17.275902 7
-133.456721 23.868990 -18.474646 7
-127.845183 23.036271 -19.631790 7
-122.617632 21.992086 -20.584337 7
-120.239787 18.756464 -19.599526 7
-115.726498 17.239593 -20.131706 8
-100.847752 24.381034 -28.132134 8
-95.841504 23.574036 -29.199525 8
-90.928102 22.764993 -30.252267 8
-86.324871 21.758654 -31.126843 8
-81.926764 20.634309 -31.894269 8
-77.643916 19.464595 -32.617715 8
-73.432319 18.285565 -33.328256 8
-67.173612 19.127847 -35.679194 9
-60.127968 20.881425 -38.734530 9
-52.912164 22.981797 -42.025238 9
-47.038205 23.900095 -44.331706 9
-42.794620 23.254398 -45.377209 9
-39.136699 22.054104 -45.981075 9
-35.549894 20.821278 -46.558828 9
-32.038745 19.546993 -47.104582 9
-28.597416 18.233489 -47.621165 9
-25.205435 16.900323 -48.124417 9
-21.892982 15.508924 -48.586075 9
-18.660763 14.053146 -49.002918 9
-15.479453 12.563616 -49.398989 9
-12.340140 11.048044 -49.780795 9
-9.287987 9.445175 -50.104558 9
-6.299135 7.779481 -50.389676 9
-3.390799 6.022473 -50.617103 9
-0.534754 4.205903 -50.811134 9
2.226040 2.264327 -50.926957 9
4.909829 0.214707 -50.978712 9
7.499097 -1.976844 -50.944936 9
9.990194 -4.326184 -50.817273 9
12.311029 -6.955847 -50.515051 9
14.441107 -9.918057 -50.007748 9
16.311177 -13.348112 -49.210277 9
17.631158 -17.758564 -47.789746 9
16.499427 -26.438212 -43.594458 9
-143.968841 27.760425 -11.573830 7
-137.711626 27.187674 -13.082028 7
-131.790176 26.470081 -14.429468 7
-126.009687 25.741718 -15.744383 7
-120.468770 24.921314 -16.954085 7
-115.246210 23.936599 -17.996579 8
-103.161898 28.582011 -24.066956 8
-98.274770 27.598150 -25.036825 8
-93.629407 26.483365 -25.878711 8
-89.010475 25.411835 -26.748361 8
-84.247502 24.533563 -27.775278 8
-79.466307 23.745027 -28.867069 8
-74.726319 22.994463 -29.978462 8
-70.244247 22.078215 -30.937600 8
-61.415628 25.389398 -35.422356 9
-54.256523 27.314769 -38.689930 9
-48.361555 28.162589 -41.024207 9
-43.571659 28.020159 -42.519694 9
-39.741356 26.971056 -43.264960 9
-36.044289 25.832613 -43.934392 9
-32.381945 24.704024 -44.609110 9
-28.797407 23.536221 -45.250613 9
-25.295171 22.319696 -45.852616 9
-21.835621 21.095365 -46.448180 9
-18.470685 19.799591 -46.988818 9
-15.160945 18.473689 -47.507756 9
-11.861137 17.170035 -48.045538 9
-8.699813 15.726351 -48.480150 9
-5.520670 14.333508 -48.956669 9
-2.466410 12.805400 -49.336894 9
0.578833 11.287826 -49.730404 9
3.547594 9.687313 -50.069284 9
6.426548 7.978265 -50.336775 9
9.302953 6.278007 -50.618938 9
12.064379 4.420360 -50.797898 9
14.748545 2.450371 -50.908282 9
17.389836 0.412506 -50.983239 9
19.928442 -1.793234 -50.954842 9
22.373630 -4.164400 -50.827771 9
24.676721 -6.793984 -50.541595 9
26.793663 -9.775803 -50.037366 9
28.673248 -13.224783 -49.244014 9
30.058680 -17.632938 -47.842322 9
29.242599 -26.190689 -43.745146 9
-143.782130 29.363866 -6.428823 7
-137.228249 28.955277 -8.180200 7
-130.948184 28.458453 -9.814971 7
-124.887548 27.903795 -11.365743 7
-119.004551 27.315179 -12.857788 7
-106.064153 32.387871 -19.588255 8
-100.518207 31.849091 -21.030079 8
-95.686534 30.817661 -21.999313 8
-90.867545 29.847347 -23.010165 8
-86.206347 28.814529 -23.951112 8
-81.603941 27.798929 -24.895331 8
-77.174679 26.696417 -25.751383 8
-72.878000 25.535698 -26.547070 8
-63.718168 28.976687 -31.321716 9
-56.316996 30.995073 -34.798856 9
-50.387215 31.770777 -37.164871 9
-45.762296 31.383117 -38.515093 9
-41.443323 30.768144 -39.659230 9
-37.225779 30.120548 -40.764428 9
-33.247411 29.289349 -41.707664 9
-29.534487 28.231557 -42.458197 9
-25.891844 27.146273 -43.182367 9
-22.331620 26.015973 -43.867097 9
-18.846079 24.844737 -44.516950 9
-15.399974 23.669700 -45.162456 9
-12.025591 22.449877 -45.771960 9
-8.690814 21.220234 -46.373849 9
-5.438311 19.924658 -46.925417 9
-2.225115 18.612572 -47.466008 9
0.916207 17.238430 -47.961720 9
4.038196 15.867443 -48.463021 9
7.083720 14.419673 -48.910532 9
10.082445 12.930369 -49.331991 9
13.031424 11.391167 -49.722271 9
15.894805 9.744467 -50.040610 9
18.724237 8.059680 -50.339234 9
21.522156 6.336898 -50.619093 9
24.218408 4.461339 -50.799593 9
26.857122 2.492689 -50.925608 9
29.418659 0.390814 -50.970905 9
31.938596 -1.794145 -50.972659 9
34.319172 -4.239395 -50.810747 9
36.597117 -6.899222 -50.520863 9
38.708879 -9.906616 -50.016922 9
40.580466 -13.427422 -49.193768 9
41.952320 -18.002095 -47.701044 9
-144.811415 30.122252 -0.390394 7
-137.846151 29.938520 -2.465549 7
-131.028463 29.773256 -4.518826 7
-124.604903 29.437089 -6.366979 7
-118.449775 29.009901 -8.093471 7
-103.885051 35.284845 -16.198392 8
-98.497954 34.605873 -17.567515 8
-93.464523 33.727258 -18.726612 8
-88.587492 32.797220 -19.819777 8
-83.781760 31.881789 -20.910151 8
-79.131427 30.905330 -21.929165 8
-74.566281 29.923407 -22.929491 8
-67.198839 31.563811 -26.271095 9
-59.617410 33.584437 -29.897770 9
-52.629650 35.235450 -33.140860 9
-47.572181 35.187359 -34.847864 9
-43.397870 34.363113 -35.858796 9
-39.463450 33.360959 -36.706059 9
-35.664656 32.274795 -37.474215 9
-31.676821 31.440663 -38.449582 9
-27.560122 30.807862 -39.584785 9
-23.512336 30.168564 -40.703457 9
-19.661677 29.374883 -41.684494 9
-16.101593 28.306181 -42.433104 9
-12.618091 27.194550 -43.143422 9
-9.188721 26.062330 -43.834683 9
-5.837950 24.876151 -44.481116 9
-2.509822 23.701219 -45.135683 9
0.754743 22.483861 -45.756468 9
3.975106 21.245089 -46.360972 9
7.134858 19.959737 -46.930543 9
10.251397 18.647092 -47.481126 9
13.276190 17.235289 -47.959069 9
16.309999 15.861605 -48.469702 9
19.274054 14.410970 -48.926800 9
22.184632 12.901273 -49.345269 9
25.040797 11.325641 -49.721397 9
27.855611 9.698932 -50.067415 9
30.605961 7.978805 -50.353925 9
33.318482 6.201776 -50.608922 9
35.958264 4.303147 -50.787717 9
38.562036 2.337245 -50.930852 9
41.098263 0.241689 -50.996152 9
