ply
format ascii 1.0
element vertex 1402
property float x
property float y
property float z
property int scalar_Label
end_header
129.950975 136.044279 197.623382 0
125.512833 136.673016 191.416246 0
121.901815 136.656954 186.394566 0
118.034853 136.670012 181.011452 0
113.970663 136.665906 175.351000 0
109.647975 136.667719 169.326243 0
105.080841 136.654783 162.957540 0
100.188889 136.655155 156.130944 0
94.950204 136.662767 148.815782 0
89.367734 136.658496 141.016686 0
83.345905 136.667879 132.598444 0
76.964346 136.634117 123.674503 0
69.887839 136.678020 113.770072 0
55.978713 139.197367 94.192351 3
47.458660 139.202727 82.257955 3
38.201621 139.193595 69.285887 3
29.256148 138.772089 56.759916 3
27.540720 135.694503 54.460475 3
26.381065 132.401782 52.941730 3
25.229642 129.082115 51.429147 3
24.041933 125.747522 49.859794 3
22.886216 122.377837 48.330074 3
21.715214 118.985430 46.773164 3
20.509557 115.573194 45.161701 3
19.335069 112.125012 43.588515 3
18.137117 108.652194 41.976468 3
16.945219 105.147712 40.367135 3
15.735053 101.614985 38.726159 3
14.518583 98.050689 37.070345 3
13.276899 94.456122 35.372976 3
11.751495 90.857090 33.269780 3
3.769450 87.800342 22.064873 3
-0.183476 84.183891 16.530979 1
-2.660100 80.355076 13.070474 1
-2.719639 76.347561 13.007620 1
-2.737851 72.339287 12.995968 1
0.167778 68.307594 17.094939 1
0.318060 64.349608 17.306580 4
0.286325 60.391636 17.254978 4
0.271851 56.432005 17.220770 4
0.375619 52.476529 17.346177 4
2.804343 48.694402 20.739563 9
6.855336 45.136381 26.412037 9
9.933783 41.603334 30.708808 9
12.401522 38.091128 34.139480 9
14.390291 34.587204 36.889538 9
16.703504 31.193510 40.091283 9
18.637708 27.803102 42.753353 9
20.116366 24.381727 44.767619 9
21.380225 20.955837 46.473326 9
22.418612 17.511526 47.855260 9
23.318348 14.057659 49.035747 9
23.967497 10.557556 49.856618 9
24.485570 7.030630 50.486328 9
24.824769 3.455421 50.857155 9
24.993791 -0.175368 50.981093 9
24.987709 -3.872968 50.850854 9
24.739329 -7.670467 50.371026 9
24.349584 -11.544939 49.683909 9
23.661159 -15.564413 48.566399 9
22.658242 -19.751946 46.995354 9
21.275610 -24.152369 44.877498 9
19.394685 -28.838392 42.043631 9
16.139613 -34.231981 37.249704 9
13.048657 -39.689479 32.675674 9
7.284000 -46.582406 24.290547 9
130.393030 145.272789 201.496291 0
130.267198 143.208740 201.451491 0
130.113241 141.179053 201.363524 0
130.012132 139.127728 201.345563 0
129.874004 137.115052 201.272173 0
128.774818 135.715906 199.855912 0
123.716195 136.693298 192.924647 0
120.033721 136.689972 187.914329 0
116.110520 136.704137 182.572286 0
111.998281 136.694944 176.970701 0
107.620830 136.693526 171.003964 0
102.978743 136.686098 164.673218 0
97.977943 136.706025 157.848261 0
92.715850 136.688434 150.664618 0
87.036095 136.692462 142.905822 0
80.944146 136.694591 134.579930 0
74.408022 136.687795 125.643083 0
67.335618 136.687505 115.968257 0
53.254716 139.195420 96.605981 3
44.611310 139.202315 84.771577 3
35.219494 139.194874 71.907748 3
25.997134 138.824745 59.282716 3
24.208739 135.762021 56.924745 3
23.058706 132.459543 55.443609 3
21.883601 129.140373 53.923039 3
20.699388 125.798258 52.385047 3
19.511805 122.430623 50.837514 3
18.322909 119.036150 49.283232 3
17.124058 115.616017 47.710245 3
15.940166 112.163953 46.152835 3
14.731455 108.687505 44.556145 3
13.458806 105.191466 42.866269 3
12.254344 101.651465 41.265112 3
11.032402 98.082050 39.634630 3
9.798760 94.480932 37.982723 3
8.233733 90.880701 35.869356 3
-1.327454 87.951788 22.746995 3
-21.434245 68.455394 -4.823923 1
-6.241153 64.324307 16.077802 4
-6.250188 60.316302 16.059206 4
-6.233863 56.307722 16.069327 4
-6.276432 52.294126 15.992242 4
-2.645376 48.545546 20.963832 9
1.507205 44.958406 26.647813 9
4.683780 41.398821 30.983677 9
7.184987 37.855059 34.385015 9
9.226557 34.323223 37.148624 9
11.567025 30.897787 40.318762 9
13.530868 27.476870 42.965507 9
15.031018 24.024842 44.968764 9
16.314624 20.568687 46.668728 9
17.338590 17.087434 48.005878 9
18.230676 13.597858 49.156098 9
18.885690 10.065861 49.974239 9
19.407021 6.506876 50.602629 9
19.687062 2.882382 50.892636 9
19.845140 -0.784213 51.008596 9
19.770705 -4.535557 50.797673 9
19.481606 -8.378347 50.284107 9
18.981700 -12.323163 49.472806 9
18.229121 -16.397515 48.305447 9
17.102944 -20.662820 46.614236 9
15.586650 -25.146454 44.375471 9
13.395940 -29.991130 41.194690 9
10.036247 -35.452943 36.385388 9
6.408337 -41.180585 31.192791 9
-1.863410 -49.284057 19.549998 9
125.445162 145.370242 198.685046 0
125.241377 143.317586 198.520910 0
125.010021 141.294657 198.315996 0
124.806628 139.264057 198.145966 0
124.563184 137.268648 197.918337 0
122.978707 136.082615 195.865896 0
119.141735 136.159157 190.754617 0
115.007167 136.279153 185.242366 0
110.417583 136.512788 179.116099 0
-19.116213 68.407025 6.539595 1
-36.041314 50.816598 -16.246092 9
-8.127021 48.398032 21.257549 9
-3.940396 44.775998 26.859716 9
-0.728102 41.182389 31.147496 9
-1.360468 37.222981 30.260780 9
3.933637 34.048036 37.339346 9
6.384820 30.602339 40.590583 9
8.318264 27.140771 43.141152 9
9.859675 23.660811 45.159970 9
11.155824 20.172298 46.844359 9
12.217762 16.664966 48.209058 9
13.072007 13.132851 49.289609 9
13.722328 9.565956 50.090919 9
14.173952 5.954865 50.619835 9
14.481414 2.304446 50.949618 9
14.556283 -1.419885 50.960888 9
14.427994 -5.221258 50.693012 9
14.121760 -9.102348 50.179676 9
13.543851 -13.105998 49.294106 9
12.651902 -17.262594 47.978635 9
11.395620 -21.608612 46.164766 9
9.704123 -26.192436 43.756027 9
6.967392 -31.293633 39.927165 9
3.612285 -36.781520 35.253207 9
-0.736432 -42.860560 29.225187 9
-20.242848 51.906522 12.966033 9
-13.728685 48.245570 21.504811 9
-9.413359 44.595864 27.151235 9
-6.196829 40.965433 31.350272 9
-3.634454 37.354146 34.685991 9
-1.425548 33.770693 37.553419 9
1.138479 30.304477 40.883832 9
3.073528 26.807620 43.383911 9
4.631670 23.295418 45.384798 9
5.873429 19.761129 46.965914 9
6.984535 16.228784 48.371362 9
7.813883 12.656416 49.402312 9
8.452991 9.052296 50.178974 9
8.898052 5.405419 50.696183 9
9.147368 1.705055 50.951521 9
9.199314 -2.059686 50.942639 9
9.051982 -5.899973 50.666788 9
8.637189 -9.849031 50.033878 9
7.980194 -13.912366 49.076825 9
6.962779 -18.145996 47.639417 9
5.572673 -22.573785 45.704910 9
3.641061 -27.282692 43.049990 9
0.357494 -32.636558 38.604295 9
-2.973124 -38.144347 34.088174 9
-8.226343 -44.649746 27.024447 9
-25.922938 51.791423 13.419138 9
-19.392272 48.092500 21.787976 9
-15.001861 44.410214 27.405787 9
-11.743413 40.745907 31.566985 9
-9.119255 37.104113 34.910497 9
-6.821402 33.495312 37.831768 9
-4.199011 30.000378 41.166727 9
-2.305758 26.460540 43.562085 9
-0.727937 22.915312 45.549088 9
0.573858 19.356816 47.178262 9
1.617052 15.774953 48.471890 9
2.465132 12.171188 49.511444 9
3.095558 8.529974 50.267838 9
3.509575 4.840452 50.742527 9
3.749550 1.103136 50.989829 9
3.754195 -2.709117 50.930748 9
3.534362 -6.605229 50.579022 9
3.037906 -10.613989 49.867297 9
2.289377 -14.741525 48.826858 9
1.177507 -19.041087 47.314114 9
-0.359343 -23.554836 45.249201 9
-2.531159 -28.387214 42.361009 9
-6.229369 -33.934656 37.499855 9
-9.828082 -39.585581 32.759688 9
-16.393312 -46.689698 24.186567 9
-31.705811 51.673591 13.854750 9
-25.153167 47.936441 22.064972 9
-20.714251 44.218624 27.620027 9
-17.398169 40.520944 31.763324 9
-14.688216 36.850505 35.143270 9
-12.316698 33.213663 38.095822 9
-9.641495 29.688362 41.427041 9
-7.739728 26.113181 43.784819 9
-6.148136 22.533856 45.750601 9
-4.829465 18.942442 47.371090 9
-3.808678 15.320247 48.614846 9
-2.967792 11.679131 49.629944 9
-2.364893 7.995909 50.343332 9
-1.936952 4.274765 50.834074 9
-1.778240 0.480928 50.983594 9
-1.820578 -3.379567 50.877398 9
-2.118702 -7.333860 50.446515 9
-2.651125 -11.388256 49.717745 9
-3.527592 -15.591977 48.552846 9
-4.781645 -19.974583 46.909292 9
-6.516382 -24.593669 44.656977 9
-8.921216 -29.547055 41.557011 9
-12.874825 -35.222330 36.502602 9
-17.003960 -41.123188 31.221147 9
-26.606333 -49.565307 19.040102 9
-37.626466 51.551314 14.235877 9
-30.988575 47.779127 22.369016 9
-26.499180 44.025691 27.864457 9
-23.089981 40.297876 32.032683 9
-20.367551 36.590550 35.356307 9
-17.879779 32.930191 38.390008 9
-15.193694 29.368165 41.665081 9
-13.272031 25.758670 44.000199 9
-11.677177 22.142748 45.932266 9
-10.355562 18.514906 47.526966 9
-9.307415 14.861795 48.783953 9
-8.502095 11.176849 49.740759 9
-7.900620 7.457331 50.445157 9
-7.535451 3.684773 50.857207 9
-7.396715 -0.150000 50.988920 9
-7.471549 -4.054775 50.855973 9
-7.846209 -8.066389 50.352281 9
-8.482354 -12.187824 49.524756 9
-9.459364 -16.458861 48.275669 9
-10.869390 -20.928919 46.491513 9
-12.777541 -25.643655 44.091921 9
-15.780549 -30.855317 40.342837 9
-19.721065 -36.556107 35.436887 9
-24.717375 -42.842347 29.227767 9
-36.945058 47.617510 22.647415 9
-32.384085 43.829266 28.109100 9
-28.925750 40.066254 32.246861 9
-26.119693 36.328821 35.600825 9
-23.582896 32.635821 38.630387 9
-20.840875 29.042320 41.904726 9
-18.895760 25.398499 44.221736 9
-17.297864 21.745478 46.120784 9
-15.985822 18.078376 47.675444 9
-14.918388 14.391893 48.935157 9
-14.122904 10.668165 49.867065 9
-13.550412 6.905489 50.529850 9
-13.227218 3.086292 50.891877 9
-13.133651 -0.796486 50.976676 9
-13.282499 -4.757886 50.768806 9
-13.706372 -8.819706 50.229020 9
-14.453701 -13.010814 49.299045 9
-15.566859 -17.361251 47.927843 9
-17.121882 -21.915432 46.023915 9
-19.281420 -26.753887 43.391667 9
-22.889902 -32.223509 39.016426 9
-26.827033 -37.956902 34.243302 9
-32.901962 -44.708418 26.898254 9
-38.401080 43.626925 28.321329 9
-34.860860 39.830790 32.466822 9
-32.009315 36.058271 35.803846 9
-29.335344 32.342527 38.931771 9
-26.593891 28.709622 42.138004 9
-24.630551 25.029937 44.430847 9
-23.021636 21.340455 46.307158 9
-21.721531 17.633099 47.820409 9
-20.630585 13.913355 49.087456 9
-19.885071 10.141621 49.948424 9
-19.309512 6.342173 50.609108 9
-19.026120 2.476414 50.926109 9
-18.974478 -1.453908 50.970251 9
-19.188095 -5.469488 50.702168 9
-19.723134 -9.599784 50.055896 9
-20.522059 -13.842799 49.098867 9
-21.790933 -18.278377 47.589188 9
-23.515788 -22.924691 45.543115 9
-25.898969 -27.875961 42.723018 9
-35.209329 -35.485452 31.770659 9
-34.267775 -39.450726 32.849496 9
-41.085076 39.573631 32.479740 9
-37.956142 35.788151 36.065257 9
-35.177172 32.045374 39.249200 9
-32.445168 28.371500 42.379011 9
-30.482899 24.652425 44.625896 9
-28.838375 20.929818 46.508138 9
-27.544605 17.182878 47.987876 9
-26.489398 13.417645 49.193752 9
-25.709751 9.614910 50.083330 9
-25.201430 5.762628 50.661453 9
-24.934284 1.855250 50.962683 9
-24.947329 -2.128922 50.942259 9
-25.216044 -6.196624 50.628284 9
-25.850716 -10.392140 49.894253 9
-26.785164 -14.712907 48.816037 9
-28.153053 -19.216273 47.240303 9
-30.123720 -23.979844 44.972791 9
-32.809101 -29.071753 41.885050 9
-37.292324 -34.922242 36.734657 9
-66.801327 37.489309 10.772727 8
-46.317511 35.262564 33.743216 9
-41.168280 31.737235 39.519535 9
-38.437931 28.022318 42.583898 9
-36.423571 24.270877 44.845731 9
-34.800175 20.505221 46.669482 9
-33.460087 16.727133 48.175868 9
-32.423166 12.919631 49.342631 9
-31.694334 9.067666 50.164264 9
-31.211557 5.170947 50.710334 9
-30.975293 1.217748 50.980339 9
-31.042982 -2.818297 50.909898 9
-31.421864 -6.953486 50.490916 9
-32.083391 -11.194445 49.755420 9
-33.163495 -15.595570 48.551048 9
-34.720402 -20.195062 46.812564 9
-36.877922 -25.056476 44.401220 9
-40.060280 -30.354886 40.841528 9
-73.091396 37.261323 11.464990 8
-66.411378 33.491798 18.797101 8
-56.934125 30.248165 29.197026 9
-44.678385 27.648162 42.643884 9
-42.475107 23.882179 45.069293 9
-40.827199 20.080481 46.886631 9
-39.495242 16.261330 48.358431 9
-38.499583 12.406444 49.462417 9
-37.760017 8.517246 50.286553 9
-37.338235 4.568139 50.763251 9
-37.148149 0.564957 50.986924 9
-37.288982 -3.528229 50.848861 9
-37.714275 -7.714377 50.400049 9
-38.515993 -12.032788 49.539766 9
-39.719239 -16.508493 48.240593 9
-41.441888 -21.197030 46.373470 9
-43.952145 -26.210162 43.644662 9
-79.690575 37.010669 11.947112 8
-72.905835 33.205062 19.234952 8
-68.645865 29.282619 23.816701 8
-65.911489 25.269591 26.763981 8
-50.475268 23.213742 43.331345 9
-47.820126 19.509120 46.195721 9
-46.075310 15.710696 48.085474 9
-44.861749 11.851422 49.407120 9
-44.077933 7.928736 50.269573 9
-43.622869 3.945694 50.781175 9
-43.505098 -0.114607 50.932859 9
-43.720985 -4.266617 50.728621 9
-44.284267 -8.529247 50.153854 9
-45.347895 -12.961027 49.044812 9
-47.133757 -17.649722 47.163979 9
-50.753984 -22.969920 43.320346 9
-77.323973 -35.804719 14.898739 8
-86.087092 36.784655 12.775243 8
-79.554605 32.909348 19.643254 8
-75.184290 28.954556 24.245570 8
-71.874867 24.975006 27.737287 8
-68.232969 21.129953 31.579528 8
-66.050089 17.144795 33.893879 8
-57.488205 14.328399 42.897608 9
-55.193962 10.559689 45.332003 9
-53.693528 6.684767 46.936215 9
-52.906937 2.686668 47.794285 9
-52.884083 -1.477270 47.854172 9
-53.699585 -5.858811 47.037987 9
-55.691809 -10.582852 44.991616 9
-66.666918 -17.845242 33.538789 8
-70.350519 -23.330818 29.728387 8
-76.268281 -29.617248 23.582182 8
-92.859643 36.530653 13.338987 8
-86.345017 32.606393 20.042885 8
-81.886213 28.615547 24.640555 8
-78.574718 24.591338 28.064029 8
-74.920259 20.701566 31.841651 8
-72.716300 16.675038 34.134392 8
-71.086343 12.602120 35.841232 8
-69.954264 8.472407 37.040367 8
-69.305332 4.267333 37.747066 8
-69.117708 -0.029410 37.983901 8
-69.409565 -4.442163 37.732469 8
-70.249818 -9.008737 36.922417 8
-71.793909 -13.793222 35.394847 8
-74.211024 -18.872426 32.976935 8
-79.218341 -24.775118 27.911025 8
-85.095661 -31.097708 21.959793 8
-99.743977 36.273141 13.926565 8
-93.254803 32.298836 20.462912 8
-88.835801 28.256352 24.925520 8
-85.489751 24.189415 28.314949 8
-81.716447 20.268318 32.135858 8
-79.552399 16.190389 34.346000 8
-77.905942 12.075125 36.040372 8
-76.843688 7.888226 37.152375 8
-76.221755 3.633391 37.826459 8
-76.128252 -0.727057 37.974544 8
-76.511698 -5.204217 37.648502 8
-77.500879 -9.849723 36.719630 8
-79.244501 -14.727596 35.039422 8
-82.025741 -19.946424 32.324907 8
-87.445091 -26.002658 26.974764 8
-94.670859 -32.762845 19.823411 8
-100.237942 31.991598 20.953515 8
-95.858735 27.897761 25.285019 8
-92.398939 23.798316 28.718186 8
-88.684430 19.821625 32.404706 8
-86.489949 15.702159 34.604083 8
-84.901780 11.531617 36.212732 8
-83.869752 7.293778 37.280077 8
-83.329970 2.977757 37.869008 8
-83.311381 -1.443403 37.951439 8
-83.800330 -5.988833 37.541083 8
-85.001485 -10.728829 36.437856 8
-86.964549 -15.706216 34.593659 8
-90.080761 -21.057244 31.626158 8
-96.060550 -27.307949 25.862472 8
-103.074355 27.526378 25.606311 8
-99.404281 23.404897 29.172491 8
-95.815389 19.363345 32.664862 8
-93.594681 15.200562 34.849155 8
-92.078874 10.971521 36.361896 8
-91.065691 6.683630 37.397315 8
-90.597166 2.307765 37.915401 8
-90.659698 -2.176027 37.929535 8
-91.320623 -6.804948 37.375605 8
-92.660526 -11.623089 36.176936 8
-94.902868 -16.714538 34.120210 8
-98.459209 -22.225044 30.812409 8
-106.433990 -29.065197 23.284593 8
-130.772072 29.765423 6.813410 7
-120.142417 26.062083 16.835336 7
-116.142240 21.803895 20.641057 7
-103.096548 18.895806 32.935672 8
-100.902972 14.680718 35.054738 8
-99.412263 10.399715 36.519692 8
-98.437651 6.057436 37.505975 8
-98.048844 1.619248 37.948575 8
-98.193248 -2.928234 37.897184 8
-99.019551 -7.639634 37.212980 8
-100.550399 -12.548477 35.875381 8
-103.079167 -17.756067 33.610499 8
-126.708013 -28.505616 11.609609 7
-137.719202 29.503061 8.100135 7
-127.428845 25.713886 17.596319 7
-121.595812 21.635922 23.006823 7
-119.949786 17.130922 24.581453 7
-117.252755 12.818855 27.125823 7
-107.730124 9.681799 35.933429 8
-106.348383 5.352053 37.281352 8
-105.911241 0.870233 37.769437 8
-106.314679 -3.780669 37.493702 8
-107.970386 -8.723624 36.077881 8
-119.816307 -16.057088 25.340887 7
-122.229053 -21.431961 23.250834 7
-145.163809 29.199587 9.067142 7
-135.039605 25.339128 18.211183 7
-129.223626 21.207045 23.494211 7
-127.672259 16.641781 24.957281 7
-125.056521 12.266771 27.381395 7
-123.371240 7.801334 28.977422 7
-122.550237 3.220126 29.805258 7
-122.506277 -1.494941 29.943706 7
-123.311350 -6.389425 29.328964 7
-125.275850 -11.563670 27.683960 7
-128.893886 -17.176110 24.567716 7
-132.235412 -22.830470 21.708897 7
-142.862106 24.951017 18.795547 7
-137.047668 20.765321 23.967740 7
-135.612092 16.135943 25.305161 7
-133.077942 11.696708 27.613113 7
-131.460661 7.168095 29.124073 7
-130.710932 2.522657 29.881879 7
-130.810536 -2.270394 29.903189 7
-131.839933 -7.260586 29.118344 7
-134.114106 -12.551249 27.252618 7
-137.471595 -18.155549 24.448740 7
-143.310827 -24.448156 19.485084 7
-150.888274 24.551011 19.366005 7
-144.974692 20.322494 24.516041 7
-143.775189 15.613370 25.629787 7
-141.268826 11.116451 27.871929 7
-139.748912 6.519441 29.275992 7
-139.100323 1.803751 29.941330 7
-139.348859 -3.069275 29.846602 7
-140.649218 -8.164986 28.860277 7
-143.288030 -13.584333 26.738278 7
-145.364174 -18.958721 25.108373 7
-149.705212 10.515653 28.100699 7
-148.245693 5.854604 29.433229 7
-147.755688 1.058089 29.962199 7
-148.198959 -3.904604 29.718847 7
-149.714897 -9.096515 28.587528 7
-149.482096 22.378064 -22.174094 7
-149.494352 5.274707 -26.488837 7
-147.085779 8.492755 -25.630832 7
-151.016458 27.447816 -14.202322 7
-147.221941 26.610811 -16.007641 7
-143.240781 25.463399 -18.055812 7
-138.944251 23.741952 -20.532631 7
-134.125657 21.040383 -23.727368 7
-149.092672 -4.280169 -26.659619 7
-145.984558 -2.625693 -26.868576 7
-142.948811 -0.802548 -26.977750 7
-151.319645 29.393580 -8.497088 7
-147.719161 28.955188 -9.992262 7
-144.069011 28.504404 -11.522659 7
-140.268074 27.815251 -13.240323 7
-136.365628 27.020153 -15.060129 7
-132.289017 25.975091 -17.082104 7
-127.974847 24.571464 -19.384947 7
-123.140864 22.267390 -22.347765 7
-111.141053 13.763487 -31.146535 8
-110.073468 19.241860 -28.812604 8
-107.744825 22.220119 -28.223197 8
-104.961463 24.324995 -28.256555 8
-149.906242 -10.852911 -24.726813 7
-146.563662 -9.683142 -25.250680 7
-143.268652 -8.375152 -25.700930 7
-140.016087 -6.952755 -26.091302 7
-151.172472 30.192028 -3.640959 7
-147.727997 30.092067 -4.883232 7
-144.218692 29.924087 -6.192760 7
-140.634661 29.674323 -7.580050 7
-136.899990 29.185238 -9.150429 7
-133.117856 28.700816 -10.746400 7
-129.251182 28.146584 -12.418340 7
-125.255002 27.440131 -14.223419 7
-121.020271 26.381349 -16.300108 7
-116.166774 24.269398 -19.132219 7
-112.548062 24.665099 -20.292349 8
-110.581868 28.147011 -19.342598 8
-108.501084 31.337182 -18.589109 8
-105.537700 32.921703 -18.959349 8
-100.820614 31.540205 -21.442952 8
-93.438112 25.899094 -27.013770 8
-150.786562 -17.506453 -22.717731 7
-147.279042 -16.652593 -23.435318 7
-143.731444 -15.874830 -24.215113 7
-140.293653 -14.769716 -24.809880 7
-137.583483 -11.792216 -24.258083 7
-150.769259 30.338025 0.731693 7
-147.433672 30.480457 -0.331992 7
-143.983513 30.425063 -1.541153 7
-140.492942 30.358945 -2.779730 7
-136.908088 30.167452 -4.122011 7
-133.259198 29.928335 -5.520105 7
-129.587027 29.733094 -6.915832 7
-125.803222 29.402460 -8.426769 7
-121.892687 28.920316 -10.066246 7
-117.921928 28.429160 -11.742543 7
-111.697030 23.829648 -16.203015 8
-111.745612 30.983398 -12.804193 8
-109.580977 33.932665 -12.220108 8
-106.882506 35.895910 -12.309836 8
-103.383108 36.492992 -13.351923 8
-98.856508 35.449487 -15.560349 8
-94.004996 34.017143 -18.084743 8
-88.468798 31.660826 -21.311953 8
-79.936953 24.894830 -27.747629 8
-59.628851 14.530604 -40.493990 9
-56.973010 17.345677 -40.277836 9
-54.485434 20.367066 -39.913161 9
-51.799417 23.090051 -39.775426 9
-49.302725 26.043385 -39.469688 9
-46.976418 29.188428 -39.020894 9
-43.931133 31.397580 -39.296550 9
-149.209708 -20.410302 -19.589182 7
-145.629107 -19.687257 -20.384194 7
-142.003297 -19.044737 -21.243486 7
-138.413693 -18.259632 -22.034363 7
-134.837483 -17.400251 -22.796864 7
-150.201329 30.064754 4.795338 7
-146.879896 30.234110 3.768533 7
-143.476234 30.279645 2.645887 7
-140.044527 30.336455 1.509239 7
-136.585482 30.407814 0.360224 7
-133.107675 30.513460 -0.789110 7
-129.482116 30.386050 -2.108554 7
-125.804450 30.239676 -3.465091 7
-122.048309 30.026909 -4.890227 7
-118.235941 29.798374 -6.352809 7
-112.825444 26.682105 -9.730828 8
-110.423939 29.276771 -9.405745 8
-109.899507 35.157075 -6.901793 8
-83.247927 -4.376717 -34.736988 8
-104.109971 38.316651 -7.592878 8
-100.048190 37.985011 -9.255309 8
-95.729671 37.340383 -11.165759 8
-91.168443 36.430092 -13.297869 8
-86.442067 35.395371 -15.559073 8
-81.342266 33.936357 -18.163467 8
-75.446727 31.467172 -21.535026 8
-66.288246 24.526021 -28.166658 8
-57.731325 18.832610 -34.023259 9
-58.060294 25.659042 -30.891059 9
-56.716879 30.044469 -29.501460 9
-54.091455 32.657757 -29.406743 9
-45.591300 27.731178 -34.951249 9
-48.729376 37.702974 -29.374958 9
-45.834587 39.950610 -29.581252 9
-41.853481 40.900049 -30.798288 9
-11.480096 92.193280 -22.703028 3
-151.321414 -23.740033 -15.481204 7
-147.764112 -22.926424 -16.205410 7
-144.118355 -22.323731 -17.066261 7
-140.451007 -21.729488 -17.948686 7
-136.757523 -21.152040 -18.858082 7
-133.121834 -20.375291 -19.667671 7
-149.443497 29.316114 8.537785 7
-146.167398 29.600339 7.597374 7
-142.826859 29.795679 6.585605 7
-139.465322 30.009572 5.565980 7
-136.015706 30.096654 4.449540 7
-132.564100 30.252505 3.354278 7
-129.083443 30.418347 2.244154 7
-125.467884 30.383125 0.987164 7
-121.838779 30.402813 -0.259333 7
-118.124115 30.338551 -1.583087 7
-114.807203 31.098659 -2.407076 8
-112.271710 33.320426 -2.310755 8
-109.932651 35.863036 -2.011223 8
-107.397460 38.026190 -1.960484 8
-102.299338 35.849772 -4.767715 8
-100.330919 39.008134 -4.090998 8
-96.278667 38.755579 -5.688141 8
-92.143593 38.469690 -7.340325 8
-87.819870 37.993843 -9.155497 8
-83.328469 37.375823 -11.105272 8
-78.540168 36.439783 -13.314789 8
-73.460532 35.218973 -15.767884 8
-65.757081 30.474471 -20.747316 8
-58.502468 26.647616 -25.171959 9
-56.993514 30.769924 -23.997610 9
-57.426711 37.350747 -21.035177 9
-54.513844 39.462083 -21.282228 9
-51.637588 41.625688 -21.503583 9
-48.681033 43.696337 -21.806404 9
-41.208276 40.365783 -26.171645 9
-41.744608 46.670153 -23.338862 9
-35.629724 45.176137 -26.419326 9
-25.859395 39.743584 -32.611356 9
-16.240826 86.956824 -17.775537 3
-16.905524 92.189984 -15.469120 3
-11.552167 92.200504 -17.778924 3
-9.845219 95.354835 -17.316438 3
-150.241126 -25.232600 -11.508464 7
-146.543022 -24.794034 -12.436873 7
-142.822037 -24.359538 -13.384495 7
-139.082161 -23.915207 -14.343911 7
-135.323969 -23.457636 -15.313502 7
-151.305347 26.682336 12.245057 7
-148.581547 28.307441 12.106743 7
-145.303152 28.600506 11.186272 7
-141.998470 28.892362 10.247849 7
-138.651231 29.149152 9.271009 7
-135.302058 29.464540 8.310538 7
-131.883978 29.694559 7.280457 7
-128.413580 29.882621 6.205339 7
-124.902597 30.058072 5.101915 7
-121.305710 30.135941 3.917425 7
-117.762098 30.391210 2.819498 7
-113.107911 28.653528 0.461465 8
-112.040249 33.573725 2.230349 8
-109.728462 36.139438 2.535605 8
-107.105607 38.127308 2.472692 8
-103.968975 39.238506 1.841346 8
-100.160589 39.277011 0.501223 8
-96.297021 39.308499 -0.870998 8
-92.292484 39.202027 -2.362263 8
-88.196630 39.046026 -3.917177 8
-83.947050 38.753717 -5.595487 8
-79.654888 38.499992 -7.282801 8
-75.125175 38.007193 -9.168157 8
-70.392485 37.343049 -11.210592 8
-58.502032 27.024570 -19.969171 9
-58.503349 33.136526 -17.433490 9
-57.440473 37.689172 -15.956495 9
-56.158743 41.861675 -14.729750 9
-53.243486 43.908445 -15.011602 9
-47.258369 42.208553 -18.018014 9
-47.252883 47.838871 -15.734061 9
-44.000687 49.525057 -16.323663 9
-39.715140 50.054574 -17.794949 9
-33.691355 48.711986 -20.713077 9
-26.804844 46.581481 -24.298275 9
-18.425113 43.040906 -29.049619 9
-19.033817 75.103800 -16.300442 1
-18.104059 79.105867 -15.153414 1
-21.991221 87.414989 -10.376070 3
-21.739258 91.811046 -8.817383 3
-17.139203 92.354903 -10.541285 3
-15.202266 95.248489 -10.274146 3
-9.897181 95.330282 -12.487544 3
-8.775108 98.925504 -11.634445 2
-8.701945 103.316975 -10.051110 2
-3.407556 103.569606 -12.226593 2
-149.241516 -26.490532 -7.415753 7
-145.482260 -26.204721 -8.415461 7
-141.683003 -25.959998 -9.455149 7
-137.894805 -25.613532 -10.456802 7
-134.100382 -25.216384 -11.448152 7
-150.727114 26.370639 16.195979 7
-147.542251 26.864240 15.416891 7
-144.285895 27.236109 14.553985 7
-141.015555 27.630699 13.687968 7
-137.726399 28.037696 12.812749 7
-134.361291 28.334597 11.857059 7
-131.006843 28.715280 10.932213 7
-127.577306 28.999493 9.932827 7
-124.102325 29.256435 8.898128 7
-120.597931 29.521914 7.848579 7
-117.061761 29.793308 6.782150 7
-113.968628 30.951544 6.231711 8
-111.586869 33.417872 6.466001 8
-109.310539 36.031189 6.789283 8
-106.591748 37.839806 6.613913 8
-101.664515 35.938830 4.113694 8
-99.639208 38.963667 4.669333 8
-95.880588 39.157851 3.431977 8
-92.051314 39.316469 2.146043 8
-88.079067 39.334300 0.742255 8
-84.011372 39.294723 -0.728288 8
-79.893688 39.270975 -2.219424 8
-75.599169 39.084239 -3.850255 8
-71.154547 38.785846 -5.590384 8
-66.611383 38.456933 -7.388292 8
-58.558790 33.553040 -12.334626 9
-57.703696 38.348666 -10.725019 9
-57.007356 43.235968 -9.029267 9
-54.110377 45.260221 -9.309255 9
-51.037599 47.079028 -9.746608 9
-48.158973 49.149468 -10.020485 9
-45.037844 50.945896 -10.504182 9
-41.337787 52.101663 -11.470265 9
-36.190463 51.685329 -13.616517 9
-30.567981 50.866335 -16.112740 9
-24.284874 49.475373 -19.096866 9
-17.572664 47.797324 -22.369175 9
-9.717884 45.121571 -26.482561 9
2.838643 37.929328 -34.183653 9
-19.835162 65.926239 -14.575718 1
-18.116732 69.296712 -13.992039 1
-16.751293 72.968951 -13.163501 1
-16.860621 82.757244 -9.480108 1
-19.486371 89.789897 -5.818997 3
-18.585521 93.573338 -4.799266 3
-15.375630 95.343937 -5.470038 3
-9.977661 95.330299 -7.698425 3
-11.264139 100.870565 -5.168640 2
-10.089663 104.328343 -4.416943 2
-4.594719 104.386009 -6.687957 2
1.115158 104.394052 -9.075808 2
1.568042 108.440785 -7.841474 2
-151.317735 -30.057878 -3.426877 7
-148.433001 -27.193985 -3.043185 7
-144.623647 -27.046388 -4.100273 7
-140.781773 -26.910328 -5.181296 7
-136.913809 -26.764635 -6.275440 7
-133.030533 -26.579456 -7.366905 7
-149.566841 24.598523 19.317612 7
-146.361696 25.079191 18.539546 7
-143.155162 25.604422 17.771724 7
-139.882904 26.025750 16.931667 7
-136.597937 26.471784 16.089832 7
-133.284865 26.909555 15.227484 7
-129.934387 27.322474 14.334659 7
-126.544111 27.709928 13.410246 7
-123.132083 28.112221 12.476689 7
-119.700776 28.535394 11.537187 7
-116.203472 28.891797 10.540192 7
-113.254627 30.323241 10.157713 8
-110.933307 32.895272 10.442739 8
-108.637203 35.467994 10.728025 8
-105.783794 37.042883 10.410810 8
-102.508264 37.917823 9.657956 8
-98.839988 38.191554 8.519444 8
-95.117178 38.448156 7.346898 8
-91.400646 38.786332 6.200858 8
-87.521506 38.945727 4.918167 8
-83.615704 39.143710 3.633002 8
-79.604980 39.266576 2.272427 8
-75.539710 39.393987 0.885677 8
-71.259796 39.305709 -0.671393 8
-66.959094 39.283084 -2.218877 8
-58.546016 33.873842 -7.367078 9
-58.485694 39.679287 -5.121575 9
-57.366662 43.980019 -3.855899 9
-54.405674 45.892965 -4.198417 9
-51.483492 47.866950 -4.512136 9
-48.540560 49.828366 -4.847402 9
-45.490459 51.678349 -5.274202 9
-41.918854 52.951036 -6.124901 9
-37.399193 53.206545 -7.726636 9
-32.229069 52.838040 -9.818719 9
-26.634341 52.131147 -12.208330 9
-20.790982 51.296757 -14.749779 9
-14.545433 50.189901 -17.556250 9
-7.754629 48.688938 -20.728291 9
-20.462407 66.602824 -9.207222 1
-19.745626 70.910926 -7.906096 1
-14.480902 70.845729 -9.986660 1
-9.338406 71.005657 -11.946727 1
-15.985313 81.956186 -5.372249 1
-18.387510 88.792517 -1.965552 3
-18.159920 93.166918 -0.493178 3
-15.826842 95.676261 -0.533159 3
-12.698528 97.527867 -1.133253 2
-13.521800 102.629765 0.990987 2
-10.163007 104.294633 0.214878 2
-7.799372 106.777391 0.118043 2
-6.412223 110.013193 0.670351 2
-0.314856 109.711530 -1.927049 2
-151.290026 -28.410401 2.138719 7
-147.824775 -27.323943 1.596774 7
-143.948499 -27.379270 0.454560 7
-140.077579 -27.330066 -0.651789 7
-136.148758 -27.349954 -1.812541 7
-151.285530 21.525449 22.773819 7
-148.227474 22.384530 22.215488 7
-145.050864 22.982936 21.507056 7
-141.824680 23.506581 20.745339 7
-138.618689 24.122732 20.019740 7
-135.341082 24.622762 19.217142 7
-132.059930 25.164840 18.422705 7
-128.751619 25.698365 17.608517 7
-125.359183 26.109990 16.710877 7
-121.992302 26.629440 15.856832 7
-118.545400 27.046304 14.928228 7
-114.933708 27.210514 13.837751 8
-112.447919 29.520264 13.958806 8
-110.153810 32.142190 14.258297 8
-107.709841 34.455640 14.378392 8
-104.824553 35.984462 14.034956 8
-101.403393 36.627065 13.156687 8
-97.814023 37.046975 12.126874 8
-94.184410 37.465896 11.075177 8
-90.449925 37.785748 9.941376 8
-86.637835 38.057327 8.754362 8
-82.820367 38.394015 7.582626 8
-78.957406 38.735870 6.389075 8
-74.957371 38.955064 5.092704 8
-70.879579 39.144995 3.749801 8
-66.708490 39.289418 2.348558 8
-58.572390 34.242312 -2.431145 9
-58.521976 40.032621 -0.251612 9
-57.339985 44.227664 0.914446 9
-54.377109 46.117827 0.568435 9
-51.503114 48.130679 0.291789 9
-48.621957 50.145186 0.004630 9
-45.639814 52.052942 -0.367399 9
-42.102520 53.342451 -1.179246 9
-37.845184 53.869599 -2.544484 9
-32.850128 53.665339 -4.458368 9
-27.726351 53.432754 -6.438901 9
-22.397168 53.097300 -8.541976 9
-16.804464 52.610062 -10.807295 9
-12.716235 53.766658 -11.924697 4
-21.493716 67.677037 -3.627326 1
-19.776665 70.980781 -3.098600 1
-14.650189 71.029776 -5.031346 1
-12.891372 74.303149 -4.546772 1
-15.096493 81.142916 -1.296111 1
-14.786722 85.575120 0.134589 1
-16.466215 91.659277 2.901268 3
-14.666517 94.639126 3.233100 3
-10.134392 95.329281 1.702264 3
-11.718525 101.083630 4.292693 2
-10.020771 104.090194 4.648496 2
-6.486224 105.648926 3.780656 2
-5.480240 109.185149 4.572232 2
-1.290888 110.308665 3.281689 2
4.529976 110.310164 0.958138 2
-151.326405 -26.604197 7.691758 7
-147.474894 -26.720112 6.561537 7
-143.589883 -26.837127 5.413035 7
-139.591419 -27.168870 4.137736 7
-135.642744 -27.263022 2.963320 7
-149.869503 19.073158 25.572762 7
-146.725657 19.775253 24.933567 7
-143.582922 20.514738 24.302193 7
-140.384474 21.157912 23.608762 7
-137.157509 21.776599 22.889742 7
-133.912613 22.398307 22.159109 7
-130.659371 23.045511 21.428547 7
-127.348107 23.614547 20.642154 7
-124.047281 24.252980 19.878654 7
-120.690009 24.825075 19.064295 7
-117.251318 25.289799 18.175253 7
-113.762389 25.716180 17.248023 8
-111.462030 28.385259 17.556511 8
-109.211064 31.093590 17.888202 8
-106.611391 33.142438 17.846999 8
-103.556284 34.397067 17.346965 8
-100.067456 34.950755 16.430849 8
-96.532105 35.484723 15.484494 8
-92.949782 36.001966 14.508788 8
-89.277320 36.438919 13.465314 8
-85.583625 36.908173 12.419321 8
-81.801855 37.310830 11.311176 8
-77.968687 37.707173 10.175666 8
-74.035110 38.030700 8.971268 8
-70.058257 38.368284 7.749577 8
-66.009090 38.682415 6.486620 8
-58.520495 34.502375 2.374890 9
-58.210896 39.930216 4.268649 9
-57.010280 44.086196 5.378727 9
-54.088058 46.015083 5.066983 9
-51.211449 48.011941 4.787895 9
-48.330871 50.014711 4.501484 9
-45.335408 51.894845 4.122080 9
-41.919969 53.312639 3.419065 9
-37.697848 53.865882 2.110267 9
-32.946445 53.915014 0.423669 9
-28.044510 53.901271 -1.347699 9
-22.936932 53.774619 -3.241716 9
-17.671046 53.594937 -5.220333 9
-16.846558 58.003095 -3.976987 4
-21.953699 68.186617 1.449175 1
-19.739662 70.984453 1.604153 1
-14.559262 70.967463 -0.319810 1
-13.155123 74.555123 0.391426 1
-11.985601 78.315497 1.241061 1
-13.730253 84.615251 4.039499 1
-14.246676 89.694711 5.954045 3
-13.350435 93.469622 6.886993 3
-11.257404 96.199598 7.007551 3
-9.489681 99.190488 7.331081 2
-8.774646 103.006377 8.322820 2
-4.792436 104.223513 7.195400 2
11.066125 96.434965 -1.469415 2
6.843035 104.102738 2.664199 2
-151.365738 -24.822998 13.139491 7
-147.524887 -24.984557 12.015331 7
-143.526043 -25.492143 10.704869 7
-139.490029 -25.983494 9.382427 7
-149.991275 11.700349 26.940299 7
-147.201607 13.451069 26.823105 7
-144.105416 14.419641 26.309382 7
-140.975033 15.326924 25.755138 7
-137.838154 16.244444 25.195860 7
-135.521158 19.041326 25.589373 7
-132.317731 19.813709 24.940843 7
-129.078128 20.544440 24.258628 7
-125.769935 21.171335 23.509346 7
-122.464571 21.849478 22.773249 7
-119.129334 22.512446 22.015238 7
-114.993169 21.677787 20.440890 8
-112.573554 24.189653 20.645198 8
-110.360636 27.037549 21.032153 8
-108.033403 29.623580 21.278375 8
-105.261731 31.390729 21.072949 8
-101.993561 32.309061 20.388452 8
-98.556614 32.984831 19.553435 8
-95.056549 33.608648 18.671940 8
-91.508905 34.211007 17.760094 8
-87.910890 34.791350 16.816699 8
-84.254546 35.341462 15.836071 8
-80.531145 35.852848 14.812160 8
-76.737903 36.326540 13.744323 8
-72.875248 36.768202 12.634634 8
-68.986531 37.242712 11.520758 8
-58.481059 28.808449 4.990309 9
-58.501040 34.801530 7.148714 9
-57.312435 39.061979 8.273594 9
-56.400746 43.586461 9.578317 9
-53.501943 45.540301 9.288496 9
-50.677122 47.595460 9.052129 9
-47.891157 49.705025 8.840629 9
-44.846300 51.519380 8.428776 9
-41.377788 52.870096 7.700688 9
-37.164159 53.428274 6.430101 9
-32.584670 53.661126 4.911310 9
-27.847377 53.815320 3.302277 9
-22.941663 53.888293 1.598176 9
-17.930281 53.953526 -0.153851 9
-17.296080 58.529706 1.179168 4
-21.282420 67.579867 5.671385 1
-19.697208 70.982427 6.251077 1
-14.538590 70.971326 4.389079 1
-12.102175 73.588015 4.382606 1
-9.674631 76.213082 4.374336 1
-12.044625 83.097044 7.517975 1
-11.283374 87.083618 8.552755 1
-11.248226 91.631403 10.030742 3
-10.323696 95.358481 10.905272 3
-4.869522 95.347627 8.881700 3
-6.516309 101.115115 11.355625 2
-4.023717 103.520114 11.197843 2
0.538946 104.355720 9.756212 2
6.408936 104.295035 7.531126 2
-151.269567 -23.476239 18.293560 7
-148.206177 -21.468835 18.219071 7
-144.014765 -22.638847 16.633524 7
-149.992273 3.697507 28.169156 7
-147.927401 7.536952 29.036085 7
-144.928430 8.861554 28.694761 7
-141.869170 10.037536 28.274268 7
-138.785490 11.164915 27.822015 7
-135.689027 12.276540 27.353511 7
-132.577053 13.369382 26.866836 7
-129.418214 14.378058 26.328718 7
-126.235871 15.360970 25.767485 7
-123.026093 16.313867 25.180387 7
-120.709230 19.102919 25.523895 7
-117.386652 19.846435 24.813062 7
-113.446173 19.444500 23.492587 8
-111.309179 22.522587 23.974857 8
-109.121017 25.437301 24.375418 8
-106.606884 27.710359 24.437540 8
-103.631199 29.151895 24.051274 8
-100.220992 29.867580 23.263070 8
-96.823626 30.652698 22.497008 8
-93.358144 31.373283 21.679844 8
-89.835593 32.053419 20.823559 8
-86.282381 32.738996 19.952716 8
-82.651264 33.360401 19.027582 8
-78.991232 33.996780 18.091640 8
-75.264097 34.594276 17.113594 8
-71.471449 35.160148 16.096407 8
-67.667584 35.774196 15.085455 8
-58.487741 29.166217 9.801431 9
-58.521111 35.149173 11.895896 9
-56.356839 38.118582 12.217875 9
-55.554652 42.784630 13.567322 9
-52.732575 44.836125 13.341103 9
-49.916656 46.902234 13.114780 9
-47.125764 49.005773 12.902438 9
-44.086648 50.827017 12.503537 9
-37.871055 49.041590 9.803754 9
-36.275569 52.592820 10.463643 9
-31.867908 53.017456 9.107978 9
-27.164355 53.207302 7.565301 9
-22.454170 53.484039 6.042011 9
-17.632804 53.738609 4.465649 9
-16.202782 57.502107 5.216133 4
-15.706672 62.137871 6.570894 4
-15.258923 66.736261 7.922767 1
-14.476258 70.935552 9.019582 1
-10.113121 71.754285 7.751084 1
-8.256414 74.919894 8.119466 1
-6.616039 78.256473 8.612196 1
-8.661886 84.769118 11.426986 1
-8.997404 89.666431 13.108421 3
-7.782103 93.178219 13.786984 3
-5.653428 95.909361 13.883258 3
0.574649 95.366081 11.463328 3
1.590068 99.032409 12.241113 2
4.166324 101.466555 12.060914 2
7.844278 103.090753 11.220972 2
-150.522350 -13.331753 26.402950 7
-149.996869 -4.639795 29.425170 7
-147.613397 -1.384272 29.964204 7
-144.847290 0.758341 29.989190 7
-141.986490 2.613187 29.877647 7
-139.070246 4.302560 29.684607 7
-136.096372 5.836769 29.413211 7
-133.078105 7.260855 29.083371 7
-130.022201 8.600611 28.706249 7
-126.949797 9.910647 28.307374 7
-123.833902 11.137591 27.859993 7
-120.656831 12.253009 27.348895 7
-117.483118 13.397449 26.842622 7
-113.952896 13.862964 25.985768 8
-111.901593 17.220698 26.576804 8
-109.869410 20.529501 27.149653 8
-107.609070 23.341874 27.473990 8
-104.852049 25.215651 27.315062 8
-101.619267 26.254542 26.715504 8
-98.284571 27.152964 26.029926 8
-94.849167 27.924609 25.263411 8
-91.407676 28.733464 24.501527 8
-87.951479 29.565513 23.736720 8
-84.418038 30.324629 22.916574 8
-79.062284 28.379707 20.598000 8
-77.187410 31.752409 21.175068 8
-73.507186 32.454091 20.270116 8
-69.776363 33.141132 19.337736 8
-65.958024 33.765850 18.350025 8
-58.501942 29.529940 14.560206 9
-58.547691 35.501544 16.590668 9
-57.312290 39.651266 17.592722 9
-54.618314 41.867338 17.472325 9
-51.787480 43.912647 17.244088 9
-49.000455 46.018667 17.043499 9
-46.194210 48.107837 16.824342 9
-40.767305 47.151133 14.736649 9
-39.406509 50.969562 15.547133 9
-35.163718 51.507391 14.326022 9
-30.743809 51.927427 13.001061 9
-23.176622 49.057865 9.553678 9
-21.612302 52.707201 10.213926 9
-16.930637 53.107060 8.774397 9
-14.537300 55.898527 8.866030 4
-13.749428 60.264185 9.996487 4
-12.899946 64.498111 11.057023 4
-11.203379 67.864653 11.547044 1
-9.238697 70.952432 11.850436 1
-6.086170 72.944964 11.395048 1
-4.287738 76.167313 11.783899 1
-5.028817 81.574961 13.724306 1
-3.869272 85.252305 14.461951 1
-6.012064 91.640232 17.178936 3
-1.390602 92.355659 15.783656 3
4.251133 92.339474 13.800353 3
9.932748 92.408553 11.822174 3
15.678390 92.544450 9.834748 3
21.455493 92.772797 7.857061 3
-136.718524 -19.031621 25.192392 7
-136.454002 -10.097302 28.246641 7
-134.783402 -5.024641 29.566696 7
-132.309198 -2.061792 29.927058 7
-129.597329 0.269145 29.996528 7
-126.759617 2.270871 29.910981 7
-123.838632 4.063633 29.723883 7
-120.841039 5.679333 29.448140 7
-117.794195 7.189624 29.116129 7
-114.053673 7.307623 28.103806 8
-112.568501 11.923273 29.267270 8
-111.047781 16.322560 30.340363 8
-108.964993 19.538454 30.842272 8
-106.313050 21.643356 30.795794 8
-103.013181 22.577337 30.157859 8
-99.538107 23.244290 29.372411 8
-96.032497 23.909922 28.571542 8
-92.632364 24.801522 27.871807 8
-89.234526 25.739025 27.182093 8
-85.766217 26.606448 26.441831 8
-82.250621 27.446375 25.672122 8
-78.718884 28.309799 24.899242 8
-75.095459 29.085859 24.063486 8
-71.517264 29.980166 23.274414 8
-67.820754 30.756381 22.404057 8
-58.536422 23.868630 17.293409 9
-58.539458 29.921090 19.280170 9
-56.776043 33.471452 19.896031 9
-56.035335 38.287657 21.235749 9
-53.327623 40.500326 21.109572 9
-50.576071 42.658192 20.945601 9
-47.878478 44.884559 20.814407 9
-45.063741 46.972821 20.595461 9
-41.815727 48.564604 20.073562 9
-37.972564 49.507547 19.148438 9
-33.661594 49.986016 17.919446 9
-29.298049 50.485507 16.673826 9
-24.962272 51.094016 15.465152 9
-20.467583 51.612325 14.170118 9
-15.728971 51.961965 12.736335 9
-12.074041 53.492523 12.018466 4
-11.007437 57.617518 12.949101 4
-9.891027 61.633042 13.822823 4
-8.677323 65.500012 14.612012 4
-6.756652 68.662391 14.943893 1
-3.901238 70.956668 14.692750 1
0.264890 72.103247 13.647909 1
3.017328 74.543590 13.462481 1
0.006680 81.902617 16.693187 1
-3.716261 89.663792 20.278633 3
-2.531232 93.209481 20.934967 3
3.793109 92.614033 18.605994 3
9.492660 92.646848 16.669794 3
15.232161 92.765496 14.738783 3
21.082803 92.916708 12.772651 3
-120.632628 -19.260373 25.394996 7
-117.018102 -18.479077 24.684031 7
-118.859141 -5.810850 29.420360 7
-114.544858 -6.736110 27.937033 8
-114.911933 2.107719 30.983495 8
-113.296056 6.604837 32.033442 8
-111.478198 10.562430 32.842756 8
-109.483322 14.067408 33.447304 8
-107.032343 16.633311 33.608575 8
-104.090709 18.265388 33.318687 8
-100.798376 19.279174 32.720903 8
-97.499839 20.315906 32.123211 8
-94.131613 21.268610 31.472474 8
-90.668274 22.103052 30.750192 8
-87.070943 22.766631 29.927998 8
-83.473599 23.484313 29.117607 8
-79.841168 24.200711 28.290821 8
-76.357808 25.195718 27.591714 8
-72.809055 26.137174 26.850349 8
-69.145924 26.960094 26.031359 8
-58.512460 18.006907 20.012826 9
-58.568841 24.277849 22.027328 9
-58.339590 29.987749 23.771945 9
-57.251390 34.412111 24.844991 9
-54.545575 36.649158 24.732722 9
-51.937925 39.008295 24.682769 9
-49.302977 41.327378 24.606034 9
-46.610888 43.573637 24.483146 9
-43.623134 45.469201 24.154213 9
-40.181663 46.853097 23.520460 9
-36.215742 47.677998 22.545288 9
-32.005630 48.293362 21.423580 9
-27.773591 48.957833 20.304129 9
-23.389939 49.532663 19.103662 9
-18.848910 50.020456 17.821032 9
-14.292015 50.575203 16.547614 9
-9.668268 51.145022 15.251384 9
-7.339638 54.059432 15.386722 4
-6.062486 57.977631 16.153364 4
-4.371028 61.453085 16.648457 4
9.952546 53.202869 9.577382 9
-0.072644 67.478190 17.049585 1
2.231173 70.334969 17.144735 1
7.093921 70.961847 15.745203 1
15.780485 68.421442 12.163447 1
5.279950 82.100540 19.590249 1
-0.731723 91.664668 24.340937 3
3.393254 92.843296 23.319856 3
9.022535 92.909995 21.475382 3
14.723419 93.035943 19.618157 3
20.607904 93.138854 17.687218 3
26.437466 93.400698 15.813592 3
-113.075805 -8.912314 31.333181 8
-112.511206 -1.963702 33.416541 8
-111.158416 3.138045 34.689623 8
-109.415190 7.304971 35.552326 8
-107.175836 10.404007 35.933587 8
-104.439353 12.510811 35.857383 8
-101.262329 13.799785 35.394792 8
-98.049243 15.045515 34.903217 8
-94.760523 16.184424 34.351537 8
-91.467142 17.345400 33.800193 8
-88.110913 18.432897 33.202767 8
-84.726694 19.509907 32.588815 8
-81.314744 20.579478 31.959323 8
-77.822788 21.563634 31.275034 8
-74.152712 22.322432 30.464298 8
-70.434924 23.064719 29.629335 8
-66.659980 23.780313 28.764200 8
-58.505449 18.386617 24.739466 9
-58.543755 24.603631 26.665831 9
-58.207502 30.142719 28.269056 9
-55.623586 32.572223 28.255977 9
-53.025284 34.972199 28.224154 9
-50.369071 37.290314 28.144815 9
-47.811108 39.725963 28.124791 9
-45.035362 41.889615 27.952159 9
-41.949109 43.689000 27.571386 9
-38.199223 44.737351 26.760252 9
-34.189783 45.542878 25.792680 9
-30.059099 46.277293 24.761677 9
-25.846158 46.990372 23.693785 9
-21.545032 47.680049 22.586475 9
-17.133310 48.327343 21.427172 9
-12.646397 48.974382 20.239024 9
-8.040065 49.580034 18.996216 9
-3.297667 50.133862 17.690422 9
-0.033469 52.200035 17.277655 4
2.911403 54.594215 17.053564 4
11.506296 51.772650 13.551927 9
16.809450 52.165000 12.000883 9
6.967615 66.106785 19.089888 4
7.711480 70.387436 20.075338 1
8.415544 74.640737 21.059840 1
9.126638 78.828077 22.017700 1
1.564863 89.713615 27.493422 3
3.049212 93.029046 27.948073 3
8.571147 93.159807 26.213076 3
14.210400 93.311200 24.440599 3
19.084273 94.149134 23.099520 3
22.669450 96.019141 22.454162 3
25.366272 98.571652 22.278588 3
28.144941 101.083478 22.059591 3
30.902883 103.629377 21.850919 3
33.706377 106.164295 21.618667 3
-109.385094 -15.751467 32.728825 8
-109.590733 -7.083107 35.471051 8
-108.416679 -1.521923 36.883544 8
-106.468788 2.339510 37.561452 8
-103.892233 4.900574 37.666607 8
-100.891383 6.634118 37.399064 8
-97.848964 8.292040 37.092187 8
-94.727186 9.814404 36.717447 8
-91.549187 11.252031 36.296624 8
-88.311352 12.606268 35.829132 8
-85.042998 13.932693 35.339851 8
-81.720844 15.197486 34.812115 8
-78.369094 16.444582 34.265853 8
-74.922740 17.577125 33.653819 8
-71.491695 18.769670 33.059054 8
-67.965503 19.857970 32.401385 8
-58.569371 12.550657 27.580182 9
-58.552011 18.837402 29.451866 9
-57.026086 22.871585 30.221346 9
-56.258517 27.847508 31.480421 9
-53.735462 30.390711 31.514047 9
-51.205222 32.909501 31.533314 9
-48.684938 35.427820 31.550209 9
-46.164127 37.933513 31.558163 9
-43.168679 39.853828 31.252441 9
-39.863469 41.421522 30.748826 9
-35.964057 42.329408 29.875057 9
-31.935198 43.148922 28.932688 9
-27.834676 43.952544 27.959544 9
-23.665239 44.747053 26.958292 9
-19.390841 45.497351 25.908102 9
-15.034238 46.232966 24.824071 9
-10.635997 46.999540 23.731186 9
-6.076185 47.677839 22.559623 9
-1.408531 48.329449 21.342809 9
3.303386 49.020821 20.118494 9
8.152999 49.664859 18.833869 9
13.178828 50.232501 17.469000 9
18.226404 50.872364 16.112133 9
23.535643 51.371050 14.630698 9
10.178987 68.204161 23.372443 1
34.548642 52.328510 11.519079 9
40.417335 52.660398 9.802980 9
57.036060 44.324669 2.393064 9
4.560216 91.732087 31.546390 3
7.451668 93.934066 31.244787 3
11.200855 95.501791 30.499774 3
13.805377 97.979879 30.351906 3
16.467588 100.430121 30.173421 3
19.114858 102.907958 30.001877 3
21.789279 105.383570 29.816080 3
24.471507 107.871982 29.626076 3
27.169180 110.368856 29.428274 3
29.884515 112.873860 29.221851 3
32.646912 115.369282 28.992804 3
35.417368 117.882097 28.760531 3
38.172129 120.427636 28.536541 3
-100.183712 -9.085683 36.896312 8
-98.346667 -4.863552 37.674136 8
-95.923045 -1.844117 37.937956 8
-93.258928 0.682281 37.988326 8
-90.410894 2.850535 37.879979 8
-87.474052 4.850025 37.693818 8
-84.411297 6.631156 37.405454 8
-81.292512 8.324796 37.071856 8
-78.108317 9.923218 36.688254 8
-74.845093 11.412929 36.247044 8
-71.517435 12.825117 35.761221 8
-68.152487 14.207288 35.251902 8
-64.698273 15.486918 34.683929 8
-58.584975 12.984076 32.293173 9
-56.646360 16.542184 32.787371 9
-56.552631 22.576181 34.495505 9
-54.170491 25.368033 34.638062 9
-51.753574 28.088098 34.745754 9
-49.334326 30.783250 34.840994 9
-46.845657 33.370964 34.881627 9
-44.131935 35.666207 34.771634 9
-41.001165 37.455508 34.396724 9
-37.308365 38.599381 33.676682 9
-30.526536 36.205479 31.083370 9
-29.370008 40.403440 31.930044 9
-25.386589 41.380092 31.066428 9
-21.198438 42.192986 30.093886 9
-16.931925 42.989925 29.089625 9
-12.670286 43.862008 28.102723 9
-8.251878 44.641908 27.040247 9
-3.770462 45.432538 25.957560 9
0.778462 46.232083 24.852753 9
5.435219 47.004458 23.704106 9
10.253690 47.703857 22.483282 9
15.136173 48.428760 21.245538 9
20.190206 49.083904 19.933358 9
25.312086 49.769562 18.604227 9
30.606326 50.397057 17.203276 9
36.113013 50.940043 15.711420 9
42.348411 50.977409 13.862632 9
68.561396 34.815813 1.745001 5
6.890796 89.779100 34.737107 3
7.504528 93.791572 35.607416 3
8.145903 97.730739 36.445541 3
8.748573 101.649851 37.285504 3
10.565062 104.628559 37.508816 3
13.125219 107.064077 37.361130 3
15.727015 109.485963 37.192677 3
18.341373 111.916619 37.018059 3
20.977703 114.350714 36.833006 3
