ply
format ascii 1.0
element vertex 1378
property float x
property float y
property float z
property int scalar_Label
end_header
127.048579 -20.735016 -20.291904 6
123.993001 -20.724456 -20.282930 6
120.944485 -20.731063 -20.276960 6
117.913085 -20.693129 -20.250354 6
114.515060 -23.088375 -21.153243 5
111.108589 -25.948681 -22.231279 5
107.973427 -27.277075 -22.718608 5
104.981476 -27.721445 -22.863521 5
102.056494 -27.709333 -22.829895 5
99.134939 -27.718178 -22.800893 5
96.216491 -27.752200 -22.778144 5
93.303665 -27.783022 -22.750760 5
90.399428 -27.759568 -22.699110 5
87.493759 -27.809325 -22.672186 5
84.592209 -27.856143 -22.640727 5
81.694474 -27.891268 -22.601362 5
78.800238 -27.894676 -22.546367 5
75.905588 -27.985160 -22.521482 5
73.013932 -28.030086 -22.475626 5
70.123339 -28.090973 -22.432489 5
67.233156 -28.113286 -22.371021 5
64.342738 -28.149520 -22.311456 5
61.683805 -35.629211 -25.125408 9
58.932728 -37.237101 -25.668900 9
56.208907 -38.783958 -26.186279 9
53.521672 -40.458625 -26.750686 9
50.855010 -41.991748 -27.257843 9
48.185913 -43.163489 -27.622338 9
45.513984 -44.095066 -27.890906 9
42.805277 -44.534587 -27.965377 9
40.055132 -44.580019 -27.883326 9
37.303626 -44.657747 -27.810377 9
34.541867 -44.698258 -27.719433 9
31.772996 -44.735120 -27.623518 9
29.002739 -44.809583 -27.538713 9
26.219383 -44.847321 -27.435952 9
23.427445 -44.883793 -27.329039 9
20.621439 -44.893002 -27.207735 9
17.824480 -44.999332 -27.120796 9
15.005647 -45.042295 -27.005227 9
12.182930 -45.116095 -26.897971 9
9.351378 -45.197542 -26.789886 9
6.505060 -45.263533 -26.671817 9
3.641249 -45.307736 -26.541183 9
0.767849 -45.365471 -26.411873 9
-2.118477 -45.425311 -26.279324 9
-5.010618 -45.514391 -26.154253 9
-7.927872 -45.566374 -26.010271 9
-10.851572 -45.648481 -25.874021 9
-13.797225 -45.710932 -25.725631 9
-16.745816 -45.815762 -25.589785 9
-19.718314 -45.899264 -25.440993 9
-22.718150 -45.955881 -25.276908 9
-25.729785 -46.033074 -25.116460 9
-28.755326 -46.125421 -24.957432 9
-31.798180 -46.224817 -24.796503 9
-34.873970 -46.293458 -24.618328 9
-37.944599 -46.428988 -24.462274 9
-41.075469 -46.472768 -24.264055 9
-44.310211 -46.333885 -23.986387 9
-47.855271 -45.566478 -23.447072 9
-51.935841 -43.731690 -22.465173 9
-56.353479 -41.337797 -21.245594 9
-60.891217 -38.880574 -19.989844 9
-67.496844 -32.438872 -17.085850 8
-70.970489 -32.544171 -16.860415 8
-74.463169 -32.674070 -16.638902 8
-78.014419 -32.754944 -16.390767 8
-81.561789 -32.906624 -16.165442 8
-85.165207 -33.019394 -15.917348 8
-88.833397 -33.082966 -15.641910 8
-92.519749 -33.182356 -15.374360 8
-96.260745 -33.256715 -15.089121 8
-100.028080 -33.356085 -14.806974 8
-103.833508 -33.462453 -14.520221 8
-112.283881 -26.411447 -11.198058 8
-115.632330 -27.504897 -11.305432 8
-118.309246 -29.627413 -11.844902 7
-122.330343 -29.777850 -11.539291 7
-126.490094 -29.801766 -11.170886 7
-130.642345 -29.913713 -10.831096 7
-134.795340 -30.099589 -10.513953 7
-139.045832 -30.227944 -10.162668 7
-143.357331 -30.352807 -9.800162 7
-147.716507 -30.494242 -9.434870 7
148.435277 -23.233124 -17.401049 6
145.318606 -23.176764 -17.408345 6
142.205708 -23.160391 -17.427388 6
139.109584 -23.132261 -17.437685 6
136.041042 -23.040475 -17.418697 6
132.956995 -23.069969 -17.443760 6
129.895025 -23.055196 -17.447274 6
126.840698 -23.058874 -17.454125 6
123.803032 -23.032264 -17.445017 6
120.761454 -23.083246 -17.462725 6
117.737052 -23.095202 -17.461052 6
114.392820 -25.233299 -18.298209 5
111.016977 -27.958523 -19.364439 5
107.891563 -29.295776 -19.876869 5
104.931235 -29.578655 -19.967590 5
102.018964 -29.545377 -19.929190 5
99.105076 -29.577887 -19.913126 5
96.197621 -29.604858 -19.891115 5
93.295908 -29.625584 -19.862880 5
90.395311 -29.693820 -19.849770 5
87.503054 -29.706608 -19.810900 5
84.612934 -29.740548 -19.776690 5
81.728528 -29.710324 -19.713222 5
78.843019 -29.755583 -19.676009 5
75.960933 -29.740413 -19.610992 5
73.078759 -29.773194 -19.561285 5
70.197397 -29.785803 -19.499764 5
67.315930 -29.803531 -19.436487 5
64.434875 -29.870613 -19.389093 5
61.777733 -37.157110 -22.220666 9
59.031538 -38.711891 -22.762247 9
56.319326 -40.355060 -23.336352 9
53.637147 -41.986768 -23.903144 9
50.973573 -43.460432 -24.403943 9
48.317944 -44.712069 -24.812977 9
45.641954 -45.516414 -25.039647 9
42.938987 -45.948797 -25.113731 9
40.208915 -46.114511 -25.077127 9
37.461907 -46.166858 -24.991193 9
34.711681 -46.238233 -24.909095 9
31.945323 -46.239349 -24.794814 9
29.176768 -46.277653 -24.691601 9
26.406894 -46.354821 -24.600145 9
23.627543 -46.420987 -24.500280 9
20.833585 -46.453735 -24.382866 9
18.035411 -46.513946 -24.272506 9
15.224996 -46.561825 -24.153031 9
12.403081 -46.605334 -24.027609 9
9.586423 -46.720593 -23.927187 9
6.725014 -46.692996 -23.764297 9
3.871616 -46.753067 -23.632797 9
1.002545 -46.802249 -23.492466 9
-1.870966 -46.885298 -23.361558 9
-4.764322 -46.946541 -23.217227 9
-7.661054 -47.046392 -23.084198 9
-10.592857 -47.079689 -22.919182 9
-13.530754 -47.146722 -22.763330 9
-16.485634 -47.213209 -22.602474 9
-19.460798 -47.271692 -22.433447 9
-22.453744 -47.332199 -22.260307 9
-25.462529 -47.402004 -22.085994 9
-28.483022 -47.493356 -21.915540 9
-31.542527 -47.535896 -21.719565 9
-34.602583 -47.632387 -21.540789 9
-37.696477 -47.699241 -21.344252 9
-40.800415 -47.797280 -21.155293 9
-44.011889 -47.701863 -20.879438 9
-49.492444 -42.597458 -18.486952 9
-51.553955 -45.266971 -19.361845 9
-55.960362 -42.888946 -18.099193 9
-60.456613 -40.510010 -16.825157 9
-67.235315 -33.722381 -13.664899 8
-70.679817 -33.879105 -13.444335 8
-74.180739 -33.986510 -13.196014 8
-77.737476 -34.051471 -12.922573 8
-81.340755 -34.096138 -12.633223 8
-84.940804 -34.212762 -12.367461 8
-88.605966 -34.279825 -12.072878 8
-92.308099 -34.350786 -11.772270 8
-96.059015 -34.408093 -11.457836 8
-99.809992 -34.534026 -11.165166 8
-103.628143 -34.619947 -10.846858 8
-107.938608 -34.011522 -10.215811 8
-115.424834 -28.685817 -7.500676 8
-118.087858 -30.823930 -8.052696 7
-122.132420 -30.941164 -7.707204 7
-126.231588 -31.053509 -7.350068 7
-130.409096 -31.130819 -6.967576 7
-134.647775 -31.201302 -6.571899 7
-138.951740 -31.262591 -6.161649 7
-143.293868 -31.353441 -5.753918 7
-147.700016 -31.441750 -5.334033 7
151.410872 -25.001111 -14.266768 6
148.269313 -25.013081 -14.314913 6
145.152019 -24.993677 -14.345642 6
142.054690 -24.953040 -14.363163 6
138.963393 -24.943244 -14.388853 6
135.883074 -24.944108 -14.414469 6
132.818586 -24.931941 -14.430342 6
129.765014 -24.925057 -14.444003 6
126.717965 -24.943168 -14.463548 6
123.686702 -24.937537 -14.469049 6
120.663376 -24.944665 -14.475475 6
117.654660 -24.922949 -14.465815 6
114.309669 -27.118609 -15.359641 5
110.973569 -29.628687 -16.378094 5
107.866666 -30.883469 -16.878598 5
104.911415 -31.184506 -16.984536 5
102.001557 -31.198163 -16.968694 5
99.098128 -31.208955 -16.947578 5
96.201246 -31.208366 -16.917703 5
93.304805 -31.259040 -16.904750 5
90.418546 -31.240203 -16.859218 5
87.534669 -31.233771 -16.814681 5
84.652562 -31.248038 -16.774544 5
81.773792 -31.246836 -16.723969 5
78.894918 -31.307625 -16.694756 5
76.019693 -31.314152 -16.639163 5
73.144942 -31.356743 -16.594286 5
70.271222 -31.335263 -16.518942 5
67.397840 -31.429795 -16.487206 5
64.524030 -31.456087 -16.423255 5
61.866044 -38.506598 -19.250631 9
59.127515 -40.119751 -19.835043 9
56.416550 -41.671620 -20.391059 9
53.730342 -43.155549 -20.915920 9
51.076333 -44.710607 -21.467107 9
48.143665 -42.551133 -20.478018 9
45.760128 -46.832296 -22.151110 9
43.065192 -47.290175 -22.238148 9
40.335169 -47.406574 -22.179691 9
37.591256 -47.442504 -22.083729 9
34.841210 -47.478414 -21.983584 9
32.084657 -47.515610 -21.879762 9
29.320820 -47.552504 -21.771564 9
26.559643 -47.652387 -21.685359 9
23.779807 -47.686736 -21.567501 9
20.987781 -47.704296 -21.438236 9
18.179354 -47.689546 -21.290987 9
15.380115 -47.772815 -21.180309 9
12.567456 -47.839631 -21.058239 9
9.736417 -47.873471 -20.917743 9
6.888264 -47.886632 -20.763884 9
4.045399 -47.973127 -20.636218 9
1.180488 -48.022473 -20.488145 9
-1.690091 -48.101250 -20.347698 9
-4.584634 -48.144293 -20.187252 9
-7.494660 -48.186530 -20.021486 9
-10.403895 -48.283214 -19.873819 9
-13.331574 -48.370529 -19.717108 9
-16.291231 -48.410663 -19.535118 9
-19.266811 -48.457476 -19.350680 9
-22.249437 -48.537605 -19.175129 9
-25.253306 -48.611121 -18.991318 9
-28.284740 -48.663944 -18.793083 9
-31.308252 -48.791442 -18.621359 9
-34.372418 -48.867681 -18.421872 9
-37.470371 -48.915808 -18.204392 9
-40.585436 -48.979604 -17.987710 9
-43.805818 -48.857610 -17.684217 9
-47.344469 -48.092155 -17.093925 9
-51.269374 -46.589516 -16.173838 9
-55.667904 -44.225802 -14.867272 9
-60.191969 -41.787610 -13.516236 9
-67.057233 -34.838610 -10.169562 8
-70.566960 -34.866068 -9.875408 8
-74.089094 -34.934951 -9.592035 8
-77.670159 -34.957878 -9.280696 8
-81.242346 -35.063614 -8.998260 8
-84.921774 -35.042554 -8.651461 8
-88.579462 -35.129331 -8.344464 8
-92.280385 -35.208856 -8.025909 8
-96.023328 -35.285946 -7.697729 8
-99.825836 -35.334733 -7.348039 8
-103.666633 -35.393116 -6.993634 8
-107.949011 -34.839346 -6.352331 8
-115.693064 -29.148625 -3.362455 8
-118.129690 -31.632225 -4.077117 7
-122.211231 -31.705305 -3.684877 7
-126.439225 -31.645707 -3.221254 7
-130.618250 -31.735529 -2.815416 7
-134.869941 -31.802973 -2.388270 7
-139.200201 -31.844289 -1.937643 7
-143.636442 -31.828169 -1.448472 7
-148.127158 -31.826698 -0.953838 7
151.293833 -26.574666 -11.095663 6
148.168351 -26.552546 -11.139032 6
145.060572 -26.521417 -11.173640 6
141.964146 -26.502391 -11.208467 6
138.875285 -26.509842 -11.249629 6
135.806834 -26.488852 -11.273933 6
132.745129 -26.494179 -11.304574 6
129.697406 -26.492088 -11.327320 6
126.659532 -26.498828 -11.349072 6
123.642980 -26.451373 -11.343225 6
120.629419 -26.439663 -11.347814 6
117.622673 -26.443760 -11.354435 6
114.314967 -28.432354 -12.194903 5
110.985107 -30.918122 -13.240895 5
107.881844 -32.171772 -13.761847 5
104.920663 -32.554011 -13.910154 5
102.026404 -32.477324 -13.860068 5
99.128978 -32.472253 -13.835794 5
96.231429 -32.523934 -13.831071 5
93.342121 -32.546027 -13.809405 5
90.459707 -32.536431 -13.769904 5
87.576652 -32.590966 -13.753108 5
84.701273 -32.577048 -13.702915 5
81.826114 -32.608980 -13.667700 5
78.954830 -32.597356 -13.609601 5
76.084259 -32.601653 -13.553799 5
73.214255 -32.628918 -13.503284 5
70.344975 -32.651340 -13.446260 5
67.475846 -32.682983 -13.388681 5
64.606162 -32.702695 -13.321552 5
61.953505 -39.829582 -16.272173 9
59.207637 -41.142539 -16.748517 9
56.501664 -42.752947 -17.347938 9
53.823932 -44.330587 -17.930038 9
51.169379 -45.826218 -18.473832 9
48.527601 -47.150621 -18.941191 9
45.861347 -47.965779 -19.187520 9
43.166589 -48.391532 -19.263496 9
40.438158 -48.494209 -19.197029 9
37.698543 -48.540611 -19.102028 9
34.952257 -48.581475 -19.000148 9
32.195486 -48.595660 -18.882263 9
29.438852 -48.660347 -18.781479 9
26.682403 -48.769656 -18.695298 9
23.907912 -48.815986 -18.577365 9
21.119703 -48.836178 -18.443431 9
18.324736 -48.872520 -18.311676 9
15.521524 -48.918324 -18.179178 9
12.706462 -48.958628 -18.039414 9
9.883950 -49.015941 -17.902082 9
7.042744 -49.044115 -17.747095 9
4.196789 -49.104622 -17.601089 9
1.329411 -49.132718 -17.435835 9
-1.544636 -49.188398 -17.277391 9
-4.439262 -49.222192 -17.104104 9
-7.329643 -49.322423 -16.954543 9
-10.267694 -49.315814 -16.752734 9
-13.190458 -49.412798 -16.590859 9
-16.145619 -49.460956 -16.401944 9
-19.116533 -49.515926 -16.210331 9
-22.100119 -49.587910 -16.020452 9
-25.106625 -49.649409 -15.820071 9
-28.136375 -49.702656 -15.610047 9
-31.194147 -49.738229 -15.386061 9
-34.264675 -49.797855 -15.166550 9
-37.363829 -49.843127 -14.934308 9
-40.488180 -49.885413 -14.694262 9
-43.678915 -49.832867 -14.405061 9
-47.149440 -49.220662 -13.857204 9
-53.542175 -42.375820 -10.491075 9
-55.613385 -45.060904 -11.409827 9
-60.083787 -42.744126 -10.060922 9
-67.071155 -35.571910 -6.493587 8
-70.630570 -35.510793 -6.139999 8
-74.169725 -35.557883 -5.827490 8
-77.723768 -35.642362 -5.523844 8
-81.354580 -35.651686 -5.177336 8
-84.976710 -35.744616 -4.860580 8
-90.272362 -33.011197 -3.229857 8
-92.440210 -35.753457 -4.118666 8
-96.206018 -35.806629 -3.756346 8
-100.035777 -35.826062 -3.368788 8
-103.902196 -35.859434 -2.977888 8
-108.307225 -35.134595 -2.221285 8
-116.538419 -28.747374 1.212693 8
-118.601360 -31.810429 0.215499 7
-122.716281 -31.858529 0.648147 7
-126.922535 -31.853953 1.117175 7
-131.214652 -31.810272 1.616697 7
-135.590285 -31.735881 2.143237 7
-139.973529 -31.736143 2.646665 7
-144.410895 -31.748970 3.156909 7
-149.001160 -31.650934 3.734090 7
151.307063 -27.692170 -7.730852 6
148.182420 -27.673243 -7.784962 6
145.065574 -27.683304 -7.846370 6
141.966778 -27.682827 -7.897855 6
138.891055 -27.646759 -7.928534 6
135.813427 -27.674770 -7.981952 6
132.762792 -27.642450 -8.003860 6
129.712185 -27.665487 -8.044765 6
126.682836 -27.643105 -8.060752 6
123.666653 -27.606914 -8.065641 6
120.646742 -27.645582 -8.098110 6
117.644185 -27.643736 -8.107895 6
114.348160 -29.568644 -8.952301 5
111.017848 -32.063095 -10.039911 5
107.933554 -33.191575 -10.527408 5
104.974433 -33.567928 -10.682331 5
102.063466 -33.650555 -10.704439 5
99.167355 -33.664029 -10.691603 5
96.282646 -33.615751 -10.647047 5
93.393441 -33.665789 -10.640568 5
90.514010 -33.653282 -10.602031 5
87.634197 -33.699667 -10.584407 5
84.900116 -31.041726 -9.381495 5
81.890304 -33.687792 -10.489156 5
79.021879 -33.662146 -10.425737 5
76.152529 -33.715931 -10.392231 5
73.285578 -33.719351 -10.331920 5
70.418860 -33.730111 -10.270007 5
67.552285 -33.773318 -10.217477 5
64.685359 -33.802465 -10.153967 5
62.028614 -40.748460 -13.117875 9
59.292120 -42.270217 -13.701613 9
56.587577 -43.849084 -14.306644 9
53.906678 -45.329662 -14.864803 9
51.252444 -46.803234 -15.416181 9
48.612239 -48.125269 -15.897211 9
45.951987 -48.985527 -16.171090 9
43.261526 -49.430573 -16.257810 9
40.161830 -46.253238 -14.741262 9
37.807021 -49.648537 -16.120985 9
35.064985 -49.697277 -16.018771 9
32.306113 -49.674710 -15.880101 9
29.547430 -49.708011 -15.761204 9
26.779133 -49.731249 -15.632853 9
23.998694 -49.735298 -15.490927 9
21.216938 -49.784114 -15.363798 9
18.421830 -49.812983 -15.222656 9
15.616303 -49.841871 -15.076315 9
12.805358 -49.896256 -14.936097 9
9.978214 -49.928675 -14.780750 9
7.140851 -49.969394 -14.623726 9
4.288184 -49.999827 -14.456632 9
1.427357 -50.050772 -14.293216 9
-1.456809 -50.067095 -14.108623 9
-4.346524 -50.117273 -13.933577 9
-7.248456 -50.177451 -13.757298 9
-10.171513 -50.220010 -13.567220 9
-13.116315 -50.247140 -13.364204 9
-16.078253 -50.276543 -13.156158 9
-19.048240 -50.336665 -12.955935 9
-22.047556 -50.366745 -12.735804 9
-25.061647 -50.411487 -12.516004 9
-28.085017 -50.486197 -12.303475 9
-31.157204 -50.488957 -12.051416 9
-34.219150 -50.575105 -11.830936 9
-37.304133 -50.659178 -11.602767 9
-40.435010 -50.689793 -11.343039 9
-43.633191 -50.624657 -11.031858 9
-47.175145 -49.860411 -10.388683 9
-51.155700 -48.250727 -9.342879 9
-55.616970 -45.776546 -7.882364 9
-60.196728 -43.249999 -6.383559 9
-67.309819 -35.860358 -2.589959 8
-70.834561 -35.886584 -2.256252 8
-74.397151 -35.906645 -1.910903 8
-78.002954 -35.913338 -1.550284 8
-81.624753 -35.959103 -1.198997 8
-85.321273 -35.939907 -0.807512 8
-88.972714 -36.069004 -0.477047 8
-92.761643 -36.031275 -0.057244 8
-96.573428 -36.028959 0.355817 8
-100.453665 -35.988831 0.797490 8
-104.389306 -35.936393 1.255905 8
-109.080265 -34.799510 2.251064 8
-116.589999 -29.550831 5.261033 7
-119.452514 -31.438824 4.817356 7
-123.687939 -31.348889 5.348022 7
-127.968002 -31.278910 5.881593 7
-132.299473 -31.221100 6.422164 7
-136.777957 -31.048549 7.032902 7
-141.288992 -30.922526 7.634673 7
-145.850786 -30.819623 8.239309 7
-150.550631 -30.630879 8.901723 7
151.432584 -28.421965 -4.183521 6
148.301651 -28.416306 -4.253177 6
145.195506 -28.377023 -4.301894 6
142.089527 -28.393540 -4.370010 6
139.003315 -28.390054 -4.423429 6
135.928574 -28.396332 -4.475601 6
132.874896 -28.367475 -4.506377 6
129.825722 -28.373233 -4.547171 6
126.784147 -28.400403 -4.592073 6
123.767250 -28.359100 -4.600727 6
120.752873 -28.357125 -4.621613 6
117.752299 -28.331135 -4.626300 6
114.472925 -30.126770 -5.443799 5
111.730079 -28.593535 -4.760750 5
108.018174 -33.973816 -7.177504 5
105.047559 -34.431792 -7.378270 5
102.154037 -34.362625 -7.337088 5
99.255951 -34.379573 -7.329413 5
96.368043 -34.349215 -7.295324 5
93.478329 -34.389389 -7.287773 5
90.595398 -34.405651 -7.264337 5
87.717862 -34.398931 -7.225428 5
84.842014 -34.414901 -7.191582 5
81.969634 -34.414788 -7.145363 5
79.098667 -34.429287 -7.100576 5
76.229483 -34.435930 -7.047106 5
73.361062 -34.453249 -6.993288 5
70.495415 -31.848850 -5.752370 5
67.625541 -34.517556 -6.883534 5
64.756794 -34.507968 -6.802049 5
62.097706 -41.464560 -9.861715 9
59.363743 -43.081183 -10.506990 9
56.649411 -44.473886 -11.046938 9
53.972199 -46.048413 -11.665057 9
51.320646 -47.573596 -12.256874 9
48.675696 -48.843141 -12.728848 9
46.022129 -49.784959 -13.048000 9
43.331454 -50.228205 -13.136329 9
40.602871 -50.308268 -13.054741 9
37.861087 -50.319991 -12.936925 9
35.116892 -50.363408 -12.828328 9
32.365833 -50.404972 -12.713648 9
29.599092 -50.392360 -12.568938 9
26.833080 -50.437672 -12.445323 9
24.056988 -50.472970 -12.311739 9
21.270482 -50.501363 -12.169539 9
18.466304 -50.490582 -12.003837 9
15.664960 -50.547202 -11.863494 9
12.851312 -50.595602 -11.713760 9
10.028313 -50.652399 -11.562212 9
7.178394 -50.646744 -11.376080 9
4.330279 -50.702463 -11.212427 9
1.459749 -50.722981 -11.026571 9
-1.424264 -50.747340 -10.836465 9
-4.290347 -50.886835 -10.693770 9
-7.206331 -50.903605 -10.487912 9
-10.134407 -50.935354 -10.282737 9
-13.072383 -50.989598 -10.081698 9
-16.036761 -51.016656 -9.861488 9
-19.012190 -51.066060 -9.645169 9
-22.005029 -51.119943 -9.424294 9
-25.033673 -51.129999 -9.176003 9
-28.079561 -51.151374 -8.926082 9
-31.144853 -51.179674 -8.672362 9
-34.222312 -51.234366 -8.423965 9
-37.324831 -51.284230 -8.166002 9
-40.478852 -51.269908 -7.870037 9
-43.673943 -51.222589 -7.550601 9
-47.193862 -50.519342 -6.909181 9
-51.236126 -48.789889 -5.765513 9
-55.774271 -46.173507 -4.182574 9
-60.472823 -43.427560 -2.522053 9
-69.115563 -33.036903 2.852712 8
-71.193178 -35.968352 1.801393 8
-74.815338 -35.900674 2.210625 8
-78.454584 -35.872721 2.610319 8
-82.113959 -35.878533 3.003452 8
-87.545778 -32.836258 4.902754 8
-89.598122 -35.810972 3.859252 8
-93.407048 -35.772587 4.305384 8
-97.251108 -35.750113 4.754640 8
-101.162643 -35.693133 5.232290 8
-105.233848 -35.462038 5.808434 8
-110.793635 -33.035357 7.496077 8
-116.507672 -30.559408 9.229112 7
-120.816105 -30.328152 9.852078 7
-125.153153 -30.144490 10.464798 7
-129.528174 -29.995154 11.074135 7
-134.017252 -29.776378 11.733192 7
-138.719120 -29.362734 12.507002 7
-143.447094 -29.015290 13.263057 7
-148.153406 -28.794801 13.970086 7
148.565984 -28.643100 -0.462562 6
145.430624 -28.682788 -0.557040 6
142.323851 -28.674211 -0.622929 6
139.235040 -28.651284 -0.676048 6
136.152621 -28.658415 -0.737043 6
133.079743 -28.682759 -0.799995 6
130.027691 -28.670513 -0.840023 6
126.979249 -28.697895 -0.892478 6
123.944345 -28.716029 -0.934760 6
120.923987 -28.713969 -0.961846 6
117.911957 -28.720782 -0.987224 6
115.339512 -26.014052 0.248678 5
111.257435 -33.182530 -3.078545 5
108.151918 -34.404422 -3.648704 5
105.179431 -34.837571 -3.848360 5
102.262113 -34.931288 -3.885425 5
99.363194 -34.926150 -3.871211 5
96.470912 -34.906745 -3.844862 5
93.581240 -34.908349 -3.822711 5
90.692189 -34.958817 -3.817666 5
87.813682 -34.917400 -3.764575 5
84.934720 -34.925528 -3.728915 5
82.057380 -34.957546 -3.698819 5
79.184629 -34.927227 -3.634327 5
76.312027 -34.921773 -3.575838 5
73.439600 -34.956774 -3.530591 5
70.568114 -34.966824 -3.468242 5
67.696290 -34.959575 -3.392313 5
64.823564 -34.962859 -3.315708 5
62.162323 -42.024955 -6.516391 9
59.420832 -43.530526 -7.130048 9
56.711555 -45.101632 -7.769777 9
54.032457 -46.680047 -8.408575 9
51.381861 -48.246196 -9.037388 9
48.727742 -49.422478 -9.479964 9
46.074980 -50.398693 -9.824565 9
43.390582 -50.922021 -9.952696 9
40.666891 -51.055430 -9.893223 9
37.922637 -51.052625 -9.764486 9
35.172446 -51.057877 -9.633937 9
32.420221 -51.100124 -9.515134 9
29.658733 -51.129361 -9.384569 9
26.888058 -51.152032 -9.245202 9
24.108365 -51.173605 -9.099544 9
21.319577 -51.197042 -8.948931 9
18.521460 -51.223918 -8.794050 9
15.711848 -51.246348 -8.631108 9
12.887852 -51.254769 -8.455492 9
10.058604 -51.293205 -8.288006 9
7.204713 -51.280564 -8.090070 9
4.336326 -51.265970 -7.884889 9
1.462621 -51.286778 -7.690197 9
-1.421117 -51.324138 -7.496981 9
-4.328608 -51.330886 -7.282607 9
-7.236067 -51.392329 -7.087821 9
-10.171882 -51.413404 -6.866983 9
-13.133915 -51.407313 -6.626237 9
-16.086024 -51.487494 -6.420126 9
-19.090776 -51.466212 -6.158028 9
-22.070864 -51.572277 -5.950368 9
-25.109615 -51.569611 -5.682808 9
-29.481821 -48.118615 -3.730147 9
-31.239551 -51.600825 -5.142963 9
-34.350577 -51.587721 -4.847522 9
-37.466130 -51.623421 -4.568070 9
-40.618558 -51.630424 -4.266572 9
-43.867547 -51.477862 -3.878347 9
-47.374835 -50.824113 -3.234048 9
-51.560999 -48.808798 -1.905887 9
-56.156574 -46.105646 -0.222488 9
-60.951564 -43.199410 1.578193 9
-68.219167 -35.599274 5.737475 8
-71.819652 -35.539868 6.155915 8
-75.460660 -35.474712 6.587512 8
-79.141480 -35.407918 7.030461 8
-82.879344 -35.311058 7.499367 8
-86.640825 -35.247312 7.962648 8
-90.474091 -35.134342 8.462232 8
-94.337055 -35.048440 8.959775 8
-98.237904 -34.976904 9.461932 8
-102.217159 -34.856573 10.001333 8
-106.489051 -34.358756 10.747738 8
-116.539280 -25.134735 16.015923 7
-118.631259 -28.277115 14.920832 7
-123.165048 -27.795061 15.713317 7
-127.668665 -27.456730 16.446624 7
-132.353388 -26.960542 17.278470 7
-137.174561 -26.380804 18.171184 7
-142.090231 -25.782333 19.091551 7
-147.180353 -25.064846 20.093456 7
148.955170 -28.433062 3.571765 6
145.814940 -28.441701 3.481655 6
142.689339 -28.454498 3.396195 6
139.569738 -28.504130 3.299717 6
136.478148 -28.498989 3.235918 6
133.398053 -28.501609 3.174868 6
130.328508 -28.514350 3.115394 6
127.264600 -28.559730 3.046716 6
124.232222 -28.504522 3.032307 6
121.196697 -28.518918 2.990984 6
118.175920 -28.507002 2.968432 6
114.904209 -30.127026 2.174713 5
111.474607 -33.099911 0.742995 5
108.312397 -34.651438 -0.005491 5
105.693724 -32.252648 1.133371 5
102.416464 -35.113121 -0.226476 5
99.513242 -35.079835 -0.202269 5
96.611012 -35.085579 -0.190734 5
93.714351 -35.084195 -0.169898 5
90.821623 -35.086648 -0.144995 5
87.931304 -35.109468 -0.123908 5
85.046738 -35.091454 -0.077474 5
82.163202 -35.098723 -0.037206 5
79.281673 -35.108029 0.007977 5
76.401758 -35.113992 0.060645 5
73.523408 -35.063351 0.146243 5
70.644095 -35.081671 0.204831 5
67.764648 -35.085121 0.276447 5
64.883595 -35.051681 0.371650 5
62.219689 -42.333833 -3.028570 9
59.477070 -43.952174 -3.714919 9
56.766950 -45.593642 -4.407639 9
54.082924 -47.150433 -5.055125 9
51.420027 -48.597578 -5.645365 9
48.776466 -49.961239 -6.190862 9
46.112355 -50.846338 -6.501557 9
43.423825 -51.366616 -6.631593 9
40.694198 -51.481949 -6.561118 9
37.948999 -51.504447 -6.440068 9
35.191771 -51.486300 -6.293457 9
32.431388 -51.501104 -6.156751 9
29.662714 -51.513112 -6.012648 9
26.889615 -51.549459 -5.874237 9
24.102358 -51.554509 -5.714505 9
21.312162 -51.596142 -5.566315 9
17.809750 -48.125048 -3.702498 9
15.689628 -51.620202 -5.222251 9
12.850572 -51.583808 -5.016966 9
10.009620 -51.596322 -4.828999 9
7.156999 -51.613731 -4.636830 9
4.287048 -51.615794 -4.430461 9
1.406743 -51.633197 -4.224836 9
-1.495317 -51.625453 -3.999978 9
-4.402348 -51.656096 -3.787042 9
-7.327338 -51.679870 -3.563678 9
-10.272079 -51.694103 -3.328439 9
-13.238793 -51.695234 -3.079422 9
-16.212964 -51.730311 -2.839843 9
-19.192874 -51.803142 -2.611576 9
-22.210163 -51.823765 -2.349744 9
-25.252515 -51.832684 -2.074298 9
-28.325446 -51.818704 -1.779453 9
-31.413825 -51.824570 -1.486450 9
-34.510222 -51.869031 -1.204648 9
-37.652553 -51.860048 -0.887589 9
-40.805474 -51.886578 -0.579911 9
-45.924051 -47.524782 1.961576 9
-47.741318 -50.726691 0.678230 9
-52.029796 -48.527255 2.148664 9
-56.779703 -45.544142 4.035031 9
-61.693507 -42.446324 5.998250 9
-69.049283 -34.739658 10.349226 8
-72.672394 -34.686076 10.788590 8
-76.442051 -34.427851 11.344716 8
-80.170611 -34.326715 11.831241 8
-83.979095 -34.157160 12.365002 8
-87.808167 -34.030281 12.888647 8
-91.733847 -33.815849 13.470442 8
-95.694793 -33.624798 14.052883 8
-99.695496 -33.450853 14.639488 8
-103.802923 -33.188873 15.286116 8
-108.987067 -31.337485 16.790537 8
-117.853530 -24.039350 21.217224 7
-122.608417 -23.260368 22.201005 7
-127.837123 -21.905824 23.511611 7
-133.307000 -20.347947 24.952608 7
149.529719 -27.576332 7.973198 6
146.352792 -27.645082 7.843052 6
143.201890 -27.679697 7.736849 6
140.057418 -27.751886 7.619235 6
137.795230 -24.152058 9.312835 6
133.863645 -27.680790 7.510801 6
130.777078 -27.682878 7.448401 6
127.695689 -27.719263 7.375981 6
124.632272 -27.725688 7.325027 6
121.582909 -27.714657 7.289349 6
118.535270 -27.751148 7.237042 6
115.246660 -29.356546 6.422375 5
111.752910 -32.623616 4.800201 5
108.560686 -34.277978 3.975164 5
105.542596 -34.905298 3.659897 5
102.615440 -34.929065 3.646741 5
99.698544 -34.918527 3.656725 5
96.789073 -34.885532 3.684031 5
93.879970 -34.897119 3.695792 5
90.975622 -34.905829 3.715254 5
88.075958 -34.902192 3.747051 5
85.180525 -34.876555 3.795920 5
82.285489 -34.887418 3.833168 5
79.393263 -34.879094 3.886109 5
76.501738 -34.892319 3.934760 5
73.611561 -34.881881 4.001322 5
70.721411 -34.846300 4.086551 5
67.830539 -34.856499 4.155608 5
64.938039 -34.820983 4.253489 5
62.272274 -42.468856 0.575097 9
59.523564 -44.124881 -0.150176 9
56.801325 -45.668034 -0.814767 9
54.111927 -47.268582 -1.502641 9
51.449380 -48.824977 -2.163801 9
48.801639 -50.214108 -2.737419 9
46.133333 -51.118105 -3.066093 9
43.429933 -51.550310 -3.155789 9
40.709010 -51.800514 -3.149459 9
37.958442 -51.822562 -3.023895 9
35.192543 -51.780004 -2.859934 9
32.418906 -51.742904 -2.692256 9
29.646852 -51.773277 -2.551691 9
26.866183 -51.800933 -2.403307 9
24.068835 -51.784594 -2.226430 9
21.266468 -51.796555 -2.057045 9
18.447679 -51.778408 -1.865900 9
15.621251 -51.779359 -1.677524 9
12.786597 -51.796825 -1.490580 9
9.941123 -51.820126 -1.299655 9
7.082534 -51.841763 -1.100900 9
4.202788 -51.833095 -0.879770 9
1.312763 -51.841271 -0.659921 9
-1.594111 -51.843112 -0.429563 9
-4.509630 -51.870178 -0.204579 9
-8.535471 -48.257214 1.877591 9
-10.410855 -51.856420 0.302505 9
-13.386647 -51.855649 0.564540 9
-16.390849 -51.826752 0.848844 9
-19.409186 -51.816006 1.131932 9
-22.451615 -51.796127 1.427890 9
-25.496462 -51.828745 1.705182 9
-28.587917 -51.795582 2.024766 9
-31.690378 -51.795117 2.336127 9
-34.813807 -51.802129 2.652375 9
-37.990723 -51.740454 3.013208 9
-41.183737 -51.704918 3.369690 9
-44.527679 -51.391347 3.880695 9
-48.247247 -50.331755 4.792520 9
-52.763355 -47.690060 6.547372 9
-57.694128 -44.388570 8.667078 9
-62.943911 -40.676550 11.023558 9
-70.296790 -33.070381 15.463268 8
-74.059069 -32.819369 16.033097 8
-77.807010 -32.676862 16.557505 8
-81.666334 -32.407462 17.161990 8
-85.584921 -32.115931 17.791360 8
-89.534492 -31.855787 18.417284 8
-93.583840 -31.510416 19.102836 8
-97.676253 -31.182736 19.793136 8
-101.935806 -30.672783 20.597068 8
-106.547478 -29.702149 21.667835 8
150.399434 -25.691677 12.964436 6
147.174179 -25.819710 12.792333 6
143.993605 -25.847825 12.678515 6
140.812658 -25.941123 12.539298 6
137.665321 -25.962196 12.444123 6
134.524685 -26.016294 12.339687 6
131.395411 -26.083456 12.236032 6
128.279214 -26.153890 12.138047 6
125.175685 -26.226643 12.046157 6
122.094038 -26.247833 11.987485 6
119.020978 -26.281214 11.929812 6
115.775472 -27.450306 11.306719 5
112.155386 -31.340339 9.319498 5
108.876035 -33.442990 8.240564 5
105.805081 -34.334013 7.779235 5
102.870511 -34.288665 7.796560 5
99.936524 -34.286209 7.799022 5
97.009499 -34.268632 7.815836 5
94.082075 -34.308662 7.810337 5
91.166244 -34.264165 7.854141 5
88.250179 -34.266354 7.881114 5
85.336800 -34.277948 7.910034 5
82.427889 -34.251883 7.964636 5
79.519632 -34.248744 8.014368 5
76.613720 -34.201086 8.093270 5
73.706987 -34.202729 8.153998 5
70.800525 -34.192537 8.227421 5
67.893445 -34.179013 8.309263 5
64.984657 -34.141260 8.410118 5
62.313610 -42.207894 4.415661 9
59.553909 -43.886029 3.658229 9
56.827788 -45.580173 2.898066 9
54.130599 -47.214574 2.173485 9
51.465795 -48.870683 1.443116 9
48.811823 -50.284736 0.840871 9
46.133882 -51.170783 0.512440 9
43.435021 -51.725361 0.358487 9
40.703545 -51.943373 0.382106 9
37.942415 -51.939050 0.525580 9
35.168564 -51.893898 0.696623 9
32.392354 -51.891644 0.852554 9
29.606201 -51.879058 1.020608 9
26.805912 -51.836770 1.210798 9
24.004225 -51.844775 1.382193 9
21.186687 -51.821560 1.576660 9
18.363620 -51.826747 1.763651 9
15.526676 -51.819502 1.964234 9
12.675555 -51.803212 2.176773 9
9.818200 -51.815938 2.381697 9
6.945314 -51.818496 2.599322 9
4.037296 -51.738296 2.867432 9
1.130454 -51.724189 3.108990 9
-1.783555 -51.740762 3.342363 9
-4.729331 -51.702035 3.612424 9
-7.693463 -51.661210 3.891648 9
-10.678195 -51.613757 4.182539 9
-13.667612 -51.611820 4.457888 9
-16.699996 -51.539079 4.778844 9
-19.730540 -51.533853 5.072900 9
-24.156263 -47.705275 7.394716 9
-25.844737 -51.551270 5.672423 9
-28.949271 -51.522106 6.005613 9
-32.056539 -51.546778 6.319375 9
-35.238539 -51.446000 6.709245 9
-38.432370 -51.382799 7.088775 9
-41.636877 -51.358896 7.457085 9
-45.066099 -50.891642 8.073483 9
-48.947738 -49.521504 9.187625 9
-53.776400 -46.270890 11.331837 9
-59.014961 -42.405758 13.829410 9
-68.316099 -30.604408 20.661266 8
-72.150468 -30.227555 21.317907 8
-76.050876 -29.812554 22.008723 8
-80.041045 -29.320591 22.755511 8
-83.999343 -28.981945 23.432375 8
-88.154008 -28.382063 24.267582 8
-92.420199 -27.689795 25.169463 8
-96.766921 -26.967238 26.104458 8
-101.380878 -25.910172 27.242760 8
-106.428359 -24.275560 28.722783 8
148.632167 -21.679065 19.046149 6
145.361849 -21.830925 18.855916 6
142.111431 -21.978809 18.675998 6
138.886770 -22.094293 18.521077 6
135.681643 -22.196688 18.381010 6
132.473432 -22.385234 18.204183 6
129.281212 -22.577150 18.033548 6
128.083127 -12.582389 23.154936 6
122.985077 -22.737602 17.831652 6
119.859874 -22.793216 17.755043 6
116.613902 -23.663550 17.263863 5
112.713894 -29.051906 14.439588 5
109.272939 -32.050957 12.861516 5
106.172633 -32.973836 12.366558 5
103.197653 -33.065705 12.309322 5
100.240663 -33.067066 12.306159 5
97.288237 -33.079607 12.304379 5
94.341511 -33.087337 12.312245 5
91.402434 -33.054671 12.348179 5
88.460769 -33.108789 12.346283 5
85.527405 -33.091107 12.388712 5
82.597579 -33.043987 12.453528 5
79.667579 -33.031727 12.507406 5
76.738769 -33.017852 12.569253 5
73.809989 -33.042388 12.618306 5
70.882057 -33.019634 12.699050 5
67.953097 -32.975587 12.798031 5
65.022775 -32.959754 12.889552 5
62.346415 -41.635065 8.467524 9
59.574274 -43.384728 7.651481 9
56.836635 -45.136858 6.839859 9
54.135748 -46.935411 6.009637 9
51.466062 -48.689531 5.208052 9
48.799537 -50.082227 4.600587 9
46.119271 -51.061114 4.215050 9
43.401773 -51.532187 4.101188 9
40.644276 -51.618060 4.195578 9
37.878234 -51.673355 4.312962 9
35.090514 -51.612964 4.498117 9
32.299465 -51.591482 4.670073 9
29.506677 -51.614845 4.825700 9
26.693972 -51.570012 5.024528 9
23.869503 -51.518311 5.234419 9
20.322514 -47.725897 7.427917 9
18.225242 -51.610088 5.573621 9
15.370078 -51.572595 5.798675 9
12.496621 -51.511066 6.044251 9
9.623423 -51.510964 6.265082 9
6.734227 -51.500439 6.499360 9
3.814693 -51.427641 6.774868 9
0.885373 -51.379747 7.045317 9
-2.047775 -51.377660 7.299566 9
-4.999842 -51.366574 7.566986 9
-7.982230 -51.312207 7.866148 9
-10.976984 -51.279002 8.162629 9
-14.025601 -51.139463 8.525273 9
-17.066913 -51.088616 8.849162 9
-20.130375 -51.035386 9.183483 9
-23.220805 -50.968957 9.534276 9
-26.324213 -50.930477 9.879361 9
-29.444043 -50.910661 10.223868 9
-32.595948 -50.870575 10.589190 9
-35.809752 -50.741265 11.013396 9
-39.032839 -50.657825 11.422800 9
-42.318305 -50.496058 11.885856 9
-48.439855 -44.041354 15.836867 9
-50.017338 -47.918915 14.093611 9
-55.285748 -43.814764 16.784132 9
-61.188474 -38.680872 20.072858 9
-71.506365 -24.992065 28.171235 8
-75.585597 -24.309088 29.037575 8
-80.057425 -22.981275 30.281920 8
118.247803 -15.035363 25.953820 6
113.639476 -24.383296 20.937885 5
109.881646 -29.187126 18.350854 5
106.656700 -30.750346 17.497138 5
103.637128 -30.933678 17.385636 5
100.648780 -30.924392 17.384318 5
97.661938 -30.956074 17.368848 5
94.684572 -30.945443 17.383525 5
91.710568 -30.946456 17.399620 5
88.737728 -30.988705 17.401368 5
85.772536 -30.968085 17.444175 5
82.810433 -30.927937 17.504977 5
79.849208 -30.897009 17.568473 5
76.889520 -30.834381 17.656470 5
73.928342 -30.847843 17.711531 5
70.967716 -30.849021 17.780756 5
68.005950 -30.751343 17.910368 5
65.042928 -30.749379 17.996581 5
62.367187 -40.623882 12.813295 9
59.580583 -42.515208 11.899038 9
56.834139 -44.459596 10.962386 9
54.124292 -46.379546 10.044646 9
51.436189 -48.085953 9.247071 9
48.765061 -49.609785 8.553232 9
46.076659 -50.651286 8.124236 9
43.343253 -51.097231 8.021615 9
40.584348 -51.289721 8.062282 9
37.794935 -51.258452 8.230705 9
34.993120 -51.193923 8.424625 9
32.190249 -51.184817 8.596299 9
29.376664 -51.162354 8.782862 9
26.542914 -51.076696 9.011387 9
23.721247 -51.122493 9.176603 9
20.864560 -51.033105 9.423000 9
18.007955 -51.008043 9.642548 9
15.124111 -50.911813 9.908937 9
12.250154 -50.923999 10.124540 9
9.338701 -50.830211 10.406246 9
6.428954 -50.807084 10.657834 9
3.517671 -50.835483 10.889704 9
0.557826 -50.736367 11.200097 9
-2.401530 -50.703108 11.483177 9
-5.401606 -50.589041 11.819683 9
-8.403630 -50.533917 12.132856 9
-11.432892 -50.453274 12.469371 9
-14.464083 -50.429916 12.783561 9
-17.538200 -50.338872 13.144807 9
-20.627387 -50.269056 13.504008 9
-23.756312 -50.152468 13.899204 9
-26.902374 -50.056492 14.293063 9
-30.091812 -49.913439 14.723644 9
-33.295434 -49.803405 15.146315 9
-36.534138 -49.674763 15.590236 9
-39.793263 -49.566210 16.033839 9
-43.199426 -49.186877 16.642030 9
-46.955203 -48.108604 17.659515 9
-57.695262 -31.955260 27.279131 9
-57.846940 -39.154921 23.622216 9
111.002344 -22.756687 25.919949 5
107.431351 -26.348572 23.929498 5
104.267666 -27.253444 23.416437 5
101.226523 -27.275246 23.394276 5
98.192884 -27.285046 23.386859 5
95.166244 -27.276986 23.397366 5
92.144198 -27.266604 23.417289 5
89.127682 -27.229343 23.460039 5
86.113106 -27.202858 23.505030 5
83.102181 -27.143310 23.576230 5
80.092173 -27.081235 23.656953 5
77.082928 -26.994203 23.759483 5
74.072082 -26.952719 23.845250 5
71.060698 -26.877933 23.957426 5
68.047073 -26.766936 24.097653 5
65.031097 -26.709876 24.216561 5
62.370269 -38.970174 17.585833 9
59.570993 -41.226189 16.446847 9
56.809665 -43.335156 15.394781 9
54.082527 -45.321059 14.416472 9
51.389031 -47.238216 13.482049 9
48.705693 -48.834441 12.730376 9
45.996208 -49.835857 12.312809 9
43.265577 -50.479812 12.099248 9
40.481674 -50.591269 12.186964 9
37.676054 -50.563612 12.359375 9
34.854825 -50.479140 12.571233 9
32.033006 -50.456683 12.756852 9
29.197163 -50.402302 12.968315 9
26.354907 -50.370941 13.175235 9
23.499112 -50.322280 13.400083 9
20.641381 -50.323483 13.605556 9
17.753225 -50.228440 13.873170 9
14.844274 -50.100479 14.167869 9
11.939706 -50.059909 14.422490 9
8.999869 -49.928650 14.736773 9
6.062474 -49.874931 15.016590 9
3.086991 -49.734105 15.354491 9
0.124983 -49.711507 15.635108 9
-2.876879 -49.605253 15.972236 9
-5.929127 -49.391674 16.379680 9
-8.964206 -49.308178 16.723326 9
-12.027515 -49.198891 17.091460 9
-15.111560 -49.091989 17.468289 9
-18.226910 -48.958451 17.870537 9
-21.362136 -48.836032 18.276887 9
-24.510333 -48.745122 18.675791 9
-27.747413 -48.482240 19.184250 9
-30.979071 -48.310005 19.651897 9
-34.232622 -48.154026 20.121526 9
-37.518111 -47.990794 20.606903 9
-40.838388 -47.816591 21.110450 9
-44.379988 -47.206539 21.879797 9
-48.568482 -45.250234 23.448775 9
-54.909966 -38.793894 27.670751 9
105.133370 -21.687349 30.661776 5
102.020749 -21.721586 30.628064 5
98.919914 -21.705208 30.631548 5
95.824142 -21.688354 30.644072 5
92.728547 -21.725253 30.635192 5
89.641972 -21.700332 30.669737 5
86.556205 -21.712558 30.692167 5
83.474276 -21.707812 30.732844 5
80.393913 -21.717177 30.774321 5
77.314781 -21.746879 30.813094 5
74.237609 -21.745366 30.878126 5
71.160552 -21.780909 30.931068 5
68.083584 -21.776837 31.015031 5
65.007468 -21.879392 31.047763 5
62.351763 -36.525085 22.899231 9
59.523829 -38.964016 21.627390 9
56.748752 -41.472111 20.322981 9
54.014206 -43.819160 19.115647 9
51.317446 -46.046028 17.982339 9
48.617786 -47.711697 17.172384 9
45.886784 -48.710245 16.746449 9
42.650452 -44.692514 19.169020 9
40.308629 -49.282846 16.723747 9
37.480448 -49.262045 16.898708 9
34.642796 -49.229080 17.089025 9
31.790299 -49.154326 17.311652 9
28.927062 -49.076327 17.544796 9
26.061076 -49.046723 17.759094 9
23.178442 -48.983069 18.001617 9
20.280380 -48.901026 18.263584 9
17.362828 -48.786800 18.553043 9
14.431883 -48.677163 18.849088 9
11.484673 -48.561709 19.157802 9
8.514677 -48.416582 19.493057 9
5.522938 -48.252960 19.848623 9
2.531197 -48.160283 20.173020 9
-0.499579 -47.987620 20.553527 9
-3.526971 -47.898311 20.895827 9
-19.743367 -2.802159 47.400188 9
-9.665236 -47.634388 21.660552 9
-12.788578 -47.431610 22.099938 9
-15.945482 -47.199609 22.567288 9
-19.117250 -46.999085 23.027336 9
-22.320202 -46.782920 23.507834 9
-25.517622 -46.656261 23.947145 9
-28.792010 -46.393119 24.478480 9
-32.085200 -46.158903 25.004788 9
-35.411634 -45.917318 25.547708 9
-38.795969 -45.611643 26.141254 9
-42.313465 -45.072622 26.886924 9
-46.164640 -43.863838 28.047112 9
-52.602056 -37.033043 32.595272 9
62.272699 -31.912239 29.586431 9
59.431634 -35.526851 27.602815 9
56.640702 -38.651057 25.908962 9
53.892552 -41.431668 24.420199 9
51.175078 -43.861073 23.141169 9
48.468370 -45.841038 22.129169 9
45.726325 -47.037862 21.578496 9
42.942469 -47.638153 21.381912 9
40.091705 -47.596748 21.566728 9
37.224018 -47.482273 21.802988 9
34.350646 -47.399042 22.030087 9
31.467562 -47.317114 22.265522 9
28.565222 -47.179994 22.542404 9
25.653217 -47.058844 22.819297 9
22.730623 -46.949293 23.098827 9
19.777848 -46.750506 23.440265 9
15.653506 -40.846728 27.145672 9
13.874486 -46.587546 24.014486 9
10.885338 -46.434885 24.358250 9
7.868277 -46.235366 24.739785 9
4.838067 -46.058030 25.118514 9
1.778502 -45.840260 25.531642 9
-1.274793 -45.721825 25.896430 9
-4.391268 -45.446915 26.364959 9
-7.535998 -45.155760 26.854317 9
-10.706535 -44.860990 27.357205 9
-13.875103 -44.653446 27.819429 9
-17.098573 -44.353258 28.348810 9
-20.356467 -44.032888 28.902336 9
-23.664641 -43.651993 29.504643 9
-26.977180 -43.345274 30.074811 9
-30.341293 -42.982762 30.691510 9
-33.838880 -42.361432 31.478569 9
-37.279478 -41.983038 32.131914 9
-40.794357 -41.510747 32.856357 9
-44.749781 -40.094704 34.173031 9
59.186704 -28.153821 36.066271 9
56.428523 -33.724219 32.879723 9
53.684879 -37.616417 30.694508 9
50.982673 -40.970938 28.834560 9
48.255085 -43.193270 27.654113 9
45.495385 -44.610337 26.960076 9
42.678137 -45.234063 26.746605 9
39.776539 -45.060845 27.017265 9
36.865738 -44.899742 27.290271 9
33.943575 -44.736770 27.574051 9
31.006690 -44.553968 27.879463 9
28.057003 -44.371720 28.194427 9
23.862027 -36.930049 32.878533 9
22.144556 -44.163466 28.760489 9
19.138449 -43.900566 29.154205 9
16.115350 -43.639695 29.557189 9
13.058422 -43.305314 30.015208 9
10.016177 -43.126883 30.389784 9
6.900376 -42.712542 30.918113 9
3.794183 -42.432949 31.376039 9
0.661711 -42.135136 31.856352 9
-2.510669 -41.774078 32.386732 9
-5.694362 -41.461658 32.899269 9
-8.978762 -40.891011 33.581760 9
-12.263355 -40.423312 34.213928 9
-15.572622 -39.972980 34.848202 9
-18.974788 -39.333792 35.611764 9
-22.441394 -38.611728 36.440239 9
-28.546560 -30.527551 41.838381 9
-29.424215 -37.356686 38.023046 9
-33.102468 -36.387861 39.048430 9
-36.999574 -34.981794 40.362403 9
-40.979404 -33.520625 41.728638 9
52.968688 -25.402786 42.252349 9
50.617591 -35.658469 36.144501 9
47.911789 -38.964505 34.276027 9
45.101986 -40.441212 33.530878 9
40.950058 -28.770106 40.831380 9
39.270705 -40.873486 33.607609 9
36.290883 -40.606000 33.956759 9
33.283288 -40.235149 34.379738 9
30.270578 -39.941779 34.765830 9
24.464243 -22.164488 45.914334 9
24.215647 -39.460115 35.505540 9
21.133828 -39.048007 35.997253 9
18.037611 -38.666746 36.481230 9
14.897017 -38.167518 37.049589 9
11.722541 -37.621296 37.658878 9
8.511344 -37.026049 38.310684 9
5.257814 -36.368589 39.013564 9
1.918961 -35.487937 39.868190 9
-1.451238 -34.624467 40.725591 9
-4.920660 -33.529492 41.741429 9
-8.460790 -32.335481 42.833868 9
-146.887415 -18.546976 -25.183548 7
-147.022305 1.451359 -29.949610 7
-142.740487 -1.282949 -29.968382 7
-138.835395 -4.293463 -29.683779 7
-135.398474 -7.677360 -29.000641 7
-132.778911 -11.759124 -27.584181 7
-131.827745 -17.328854 -24.619175 7
-126.697607 -19.279811 -25.513597 7
-145.926395 9.763316 -28.366926 7
-140.932581 7.592573 -29.030942 7
-136.182396 5.286317 -29.524564 7
-131.678734 2.829659 -29.837217 7
-127.393293 0.232801 -29.986603 7
-123.437583 -2.610898 -29.861281 7
-119.809758 -5.719119 -29.451073 7
-107.632548 -1.234819 -37.227385 8
-103.097709 -3.330708 -37.834852 8
-99.608170 -6.350233 -37.457580 8
-96.456563 -9.687846 -36.758134 8
-93.904454 -13.621206 -35.458984 8
-92.305359 -18.544397 -33.173827 8
-146.862917 16.499823 -25.060210 7
-141.368561 14.665182 -26.169383 7
-136.067070 12.757380 -27.163851 7
-130.990276 10.742349 -28.008531 7
-126.094775 8.643859 -28.736396 7
-121.420336 6.419983 -29.304160 7
-114.829185 5.862187 -31.737579 8
-105.363072 7.912980 -37.031827 8
-100.963240 5.732976 -37.545280 8
-96.820972 3.363536 -37.842290 8
-92.867345 0.852734 -37.982067 8
-89.102634 -1.811665 -37.956843 8
-85.581320 -4.695062 -37.702716 8
-82.319936 -7.830782 -37.191998 8
-79.502039 -11.424281 -36.218890 8
-77.249474 -15.635430 -34.632485 8
-76.669904 -21.687694 -31.201389 8
-57.872679 -14.552568 -43.833590 9
-54.751795 -17.692252 -43.324707 9
-47.355268 -15.844056 -47.739922 9
-44.360610 -19.048963 -47.156901 9
-42.635082 -23.835772 -45.065333 9
-49.273187 -39.243245 -32.855991 9
-37.744369 -31.864878 -42.488305 9
-147.531285 23.430815 -22.026321 7
-141.584958 21.878929 -23.547523 7
-135.838617 20.268631 -24.956852 7
-132.122916 17.192730 -24.559275 7
-126.749778 15.426203 -25.730131 7
-121.605745 13.550772 -26.743339 7
-113.742090 13.973164 -30.418588 8
-105.322602 15.037528 -34.756886 8
-100.564911 13.156435 -35.631697 8
-96.036917 11.131954 -36.325586 8
-91.661069 9.020758 -36.908373 8
-87.426578 6.823971 -37.385386 8
-83.374778 4.494025 -37.708233 8
-79.450563 2.072487 -37.927403 8
-75.713815 -0.508409 -37.973638 8
-72.152576 -3.249688 -37.851575 8
-68.823758 -6.223363 -37.490701 8
-59.198941 -2.509680 -44.137500 9
-51.789205 -0.889284 -48.494007 9
-46.595917 -1.525913 -50.457496 9
-42.831014 -3.691326 -50.836214 9
-39.635001 -6.496033 -50.570926 9
-36.632459 -9.538866 -50.080438 9
-33.833724 -12.850739 -49.341051 9
-31.315272 -16.548058 -48.246241 9
-29.313746 -20.964362 -46.482686 9
-28.367861 -26.864300 -43.333893 9
-25.920481 -30.896607 -42.032261 9
-145.276948 26.610170 -17.817083 7
-138.980456 25.292626 -19.704726 7
-132.970657 23.866168 -21.405170 7
-127.103554 22.427003 -23.045071 7
-121.533071 20.849673 -24.473570 7
-117.855185 17.847858 -24.138564 7
-106.466944 21.150784 -31.370198 8
-101.353703 19.525050 -32.594863 8
-96.527767 17.726321 -33.588472 8
-91.838076 15.870929 -34.494223 8
-87.270038 13.964720 -35.322317 8
-82.827956 11.997109 -36.063826 8
-78.555566 9.919708 -36.667603 8
-74.406418 7.766756 -37.176672 8
-70.375837 5.535055 -37.591016 8
-61.774862 7.956752 -43.084909 9
-56.292376 7.406753 -45.259166 9
-49.640285 8.206856 -48.841695 9
-44.938916 7.061909 -50.295885 9
-41.138524 4.991307 -50.754692 9
-37.616465 2.633562 -50.911682 9
-34.192113 0.176646 -50.969796 9
-30.854223 -2.374672 -50.937284 9
-27.673131 -5.114833 -50.721732 9
-24.607454 -8.006963 -50.365797 9
-21.741336 -11.171621 -49.754256 9
-19.113082 -14.680524 -48.824207 9
-16.773980 -18.629472 -47.491624 9
-15.104518 -23.580318 -45.225333 9
-14.434728 -30.079758 -41.527979 9
-10.347227 -31.789575 -42.452861 9
-143.863761 29.196559 -12.840475 7
-140.174784 25.968565 -12.326787 7
-130.779366 26.956699 -17.246659 7
-124.668260 25.682920 -19.166198 7
-118.829942 24.300251 -20.898712 7
-110.530008 24.962924 -25.132357 8
-103.354482 24.904522 -28.380295 8
-98.061244 23.433405 -29.833995 8
-93.014234 21.833538 -31.098529 8
-88.191352 20.110870 -32.187842 8
-83.473177 18.359621 -33.219302 8
-78.854359 16.579354 -34.194950 8
-74.418510 14.686422 -35.020694 8
-70.084532 12.747562 -35.778071 8
-61.333517 15.204075 -41.491509 9
-55.754388 14.724031 -43.805409 9
-49.246108 15.318007 -47.266234 9
-44.488163 14.225160 -48.811419 9
-40.560204 12.312688 -49.439944 9
-36.768312 10.287335 -49.939449 9
-33.082891 8.172323 -50.338993 9
-29.520373 5.939937 -50.612779 9
-25.995140 3.682052 -50.861004 9
-22.599324 1.282366 -50.964561 9
-19.284397 -1.210299 -50.978175 9
-16.064323 -3.822187 -50.878283 9
-13.013071 -6.661162 -50.560059 9
-10.098447 -9.701951 -50.055351 9
-7.358061 -13.013003 -49.302275 9
-4.894085 -16.761389 -48.144689 9
-2.800345 -21.118764 -46.427742 9
-1.730128 -27.114264 -43.177830 9
0.840292 -30.985057 -42.022524 9
-143.428240 31.107227 -6.918840 7
-136.169256 30.389141 -9.799265 7
-129.353702 29.484589 -12.354972 7
-122.884698 28.445464 -14.666391 7
-116.779358 27.242351 -16.705110 7
-106.965774 29.067389 -22.557709 8
-100.960815 28.067696 -24.706517 8
-95.482944 26.739503 -26.392941 8
-90.194355 25.339930 -27.950601 8
-85.040466 23.906827 -29.430746 8
-80.131838 22.335235 -30.709867 8
-75.389138 20.683463 -31.864833 8
-70.794770 18.958562 -32.908637 8
-61.785893 21.521450 -38.949236 9
-55.141516 22.034032 -42.491420 9
-49.853306 21.348215 -44.589017 9
-44.800178 20.523656 -46.489001 9
-40.635235 18.856230 -47.406862 9
-36.717457 16.972687 -48.069578 9
-32.853242 15.069000 -48.701107 9
-29.065443 13.115536 -49.270634 9
-25.367707 11.090583 -49.757088 9
-21.724107 9.029692 -50.201467 9
-18.199781 6.848571 -50.516252 9
-14.739925 4.605146 -50.766478 9
-11.359751 2.273537 -50.927643 9
-8.065666 -0.162919 -50.985664 9
-4.856894 -2.712569 -50.935484 9
-1.793953 -5.469519 -50.685595 9
