ply
format ascii 1.0
element vertex 1421
property float x
property float y
property float z
property int scalar_Label
end_header
135.929980 6.092587 -26.282689 6
135.735009 2.721097 -26.859475 6
135.790190 -0.587587 -26.997674 6
136.066654 -3.829856 -26.748785 6
136.586801 -6.984611 -26.071162 6
137.302049 -10.057524 -25.052055 6
137.590913 -13.301840 -24.822445 6
138.734810 -16.173195 -23.048315 6
140.044523 -18.940975 -20.982715 6
141.623261 -21.545042 -18.435882 6
143.545450 -23.931035 -15.269714 6
145.921702 -26.018799 -11.278973 6
148.777823 -27.765143 -6.412713 6
148.982492 -30.934755 -6.418701 6
141.725192 145.713360 -11.931621 0
141.537995 142.443072 -11.900825 0
141.359347 139.186201 -11.869121 0
141.047266 136.013189 -12.089253 0
132.729387 136.687804 -26.566103 0
125.172152 136.693353 -39.673668 0
148.069155 31.345721 3.873018 6
149.065387 28.587822 5.521173 6
136.747202 23.186919 -16.273748 6
134.442256 19.505642 -20.469934 6
132.986172 15.928322 -23.187785 6
132.475656 12.528233 -24.254940 6
131.932600 9.087075 -25.393972 6
131.483839 5.639682 -26.381383 6
131.330512 2.254466 -26.861832 6
131.395459 -1.078198 -26.970778 6
131.709754 -4.335228 -26.652525 6
132.269914 -7.503994 -25.912264 6
133.036142 -10.586444 -24.819447 6
133.353479 -13.844671 -24.534731 6
134.535335 -16.731275 -22.728674 6
135.979513 -19.470403 -20.466862 6
137.606806 -22.084463 -17.888594 6
139.732472 -24.404965 -14.431075 6
142.259204 -26.451817 -10.264462 6
145.571653 -27.991446 -4.698981 6
149.060956 -29.316722 1.182763 6
137.740656 146.334175 -11.360706 0
137.686126 142.973488 -11.114456 0
137.505384 139.700431 -11.101271 0
137.338147 136.437485 -11.077866 0
129.734550 136.692771 -23.952485 0
144.567045 31.205825 4.685533 6
148.997534 29.041680 12.184174 6
149.022574 26.168348 12.121657 6
129.911382 19.146164 -20.788914 6
128.443545 15.541314 -23.452039 6
128.096931 12.154939 -24.204218 6
127.393994 8.645789 -25.582033 6
126.975463 5.180051 -26.484892 6
126.831378 1.770004 -26.929248 6
126.949218 -1.573581 -26.935892 6
127.314192 -4.841585 -26.529475 6
127.889055 -8.034253 -25.773351 6
128.726989 -11.119288 -24.574883 6
129.065373 -14.395078 -24.250472 6
130.326572 -17.279787 -22.342826 6
131.833181 -20.024097 -20.019965 6
133.658195 -22.579372 -17.154007 6
135.844838 -24.905455 -13.668055 6
138.592686 -26.878349 -9.213226 6
142.256146 -28.274813 -3.169684 6
149.065041 -27.804140 8.349909 6
133.784031 143.518387 -10.355082 0
133.640057 140.208933 -10.294090 0
133.496704 136.917110 -10.244454 0
126.751982 136.697889 -21.350524 0
141.021876 31.062014 5.472312 6
145.396652 28.858446 12.693984 6
148.073775 26.481059 17.072195 6
148.983620 23.819698 18.487709 6
123.817276 15.144890 -23.746435 6
123.581218 11.756608 -24.288280 6
122.840403 8.211766 -25.687892 6
122.425438 4.720096 -26.554540 6
122.301219 1.288297 -26.946357 6
122.432895 -2.079400 -26.921078 6
122.832190 -5.365221 -26.458272 6
123.482673 -8.560632 -25.584668 6
124.235090 -11.709264 -24.550404 6
124.753813 -14.941482 -23.920096 6
126.064934 -17.837454 -21.965855 6
127.746016 -20.538339 -19.396542 6
129.655341 -23.088315 -16.449501 6
131.966743 -25.390214 -12.829664 6
135.055474 -27.231380 -7.899958 6
139.209022 -28.414314 -1.168990 6
148.997793 -26.389098 15.117551 6
129.907197 144.037921 -9.493137 0
129.752218 140.717232 -9.466021 0
129.605254 137.409921 -9.437168 0
118.319108 139.189059 -27.744532 3
137.579469 30.937068 6.475410 6
141.763802 28.673834 13.211943 6
141.111113 25.632999 12.056294 6
146.354547 23.794899 20.508674 6
148.034931 21.329842 23.144082 6
148.704931 18.669004 24.123145 6
149.516549 16.060815 25.325459 6
117.801590 4.250846 -26.641587 6
149.990761 10.555939 25.827736 6
117.871898 -2.586830 -26.879496 6
118.297189 -5.893747 -26.376574 6
119.015635 -9.095749 -25.403873 6
119.617943 -12.331617 -24.631521 6
120.420787 -15.483089 -23.540303 6
121.821494 -18.374012 -21.476945 6
123.589425 -21.070895 -18.818054 6
125.642606 -23.590142 -15.696768 6
128.182832 -25.819581 -11.779324 6
149.028319 -18.919480 22.304487 6
149.022371 -21.939743 22.043740 6
146.086775 -26.547539 16.933704 6
124.678439 141.790902 -10.484737 3
122.915202 139.198485 -13.062769 3
115.265570 139.195411 -25.086831 3
133.951501 30.786370 7.223176 6
138.000336 28.471231 13.583352 6
140.601110 26.022923 17.635598 6
142.656907 23.548739 20.815005 6
144.271870 21.042011 23.286687 6
144.865032 18.337453 24.124827 6
145.821014 15.739520 25.533399 6
146.797152 13.171927 26.967075 6
147.567460 10.568026 28.065571 6
148.180981 7.931354 28.906678 6
148.640287 5.253452 29.494094 6
148.988723 2.540372 29.896623 6
149.160691 -0.239174 30.009013 6
149.153292 -3.096993 29.825985 6
148.984813 -6.036552 29.376103 6
148.594860 -9.093771 28.561877 6
147.962838 -12.291505 27.349260 6
146.971633 -15.699449 25.549081 6
146.487702 -18.918228 24.551502 6
144.851075 -22.759183 21.689267 6
140.297822 -28.218471 14.117636 6
120.684042 142.318317 -9.660496 3
120.002182 139.198828 -10.495556 3
112.245663 139.191545 -22.402060 3
103.804550 139.201634 -35.369981 3
130.155964 30.613899 7.764469 6
134.177300 28.263446 13.931894 6
136.835949 25.796694 17.980077 6
138.948762 23.306328 21.175609 6
140.519255 20.763539 23.523361 6
140.983708 18.004306 24.146741 6
142.070162 15.411864 25.729711 6
143.043120 12.817252 27.129857 6
143.809927 10.186662 28.202861 6
144.430350 7.526886 29.041331 6
144.887325 4.823711 29.618352 6
145.175067 2.065515 29.924471 6
145.324957 -0.746234 30.008121 6
145.265797 -3.647275 29.757737 6
145.039759 -6.633049 29.238425 6
144.595735 -9.735320 28.369648 6
143.861312 -12.999209 27.037255 6
142.715626 -16.497758 25.050834 6
142.498181 -19.614677 24.506592 6
140.153086 -23.818740 20.617452 6
116.652688 142.850962 -8.830421 3
116.531842 139.455561 -8.802330 3
109.193258 139.206270 -19.791848 3
100.668117 139.198107 -32.583462 3
113.666779 31.833579 -10.783546 5
126.327604 30.440574 8.320822 6
130.369523 28.063121 14.375514 6
133.027252 25.567926 18.329548 6
135.127659 23.047128 21.434305 6
136.715951 20.480810 23.757753 6
137.079335 17.674054 24.218537 6
138.261313 15.077578 25.914205 6
139.239961 12.458032 27.295612 6
140.004796 9.801023 28.346526 6
140.609176 7.110869 29.147589 6
141.022772 4.368520 29.652376 6
141.306184 1.583760 29.952565 6
141.404436 -1.270953 29.964165 6
141.321597 -4.204901 29.692820 6
141.052124 -7.230998 29.129492 6
140.514069 -10.394395 28.148611 6
139.664147 -13.729684 26.683170 6
138.396420 -17.303214 24.570255 6
137.956701 -20.552957 23.711146 6
134.957949 -25.092298 18.930788 6
112.585268 143.387907 -7.990541 3
112.470851 139.971256 -7.967400 3
106.198242 139.200018 -17.115780 3
97.526968 139.200581 -29.827572 3
111.512856 35.162221 -7.188198 5
114.852233 32.349929 -2.303341 5
122.521013 30.274427 8.974772 6
126.460220 27.851054 14.737841 6
129.145620 25.331546 18.643195 6
131.240479 22.781212 21.670677 6
132.873016 20.196481 24.009451 6
133.244367 17.368058 24.476755 6
134.418444 14.743040 26.126322 6
135.374591 12.091108 27.447867 6
136.126397 9.404147 28.461214 6
136.732454 6.688483 29.252871 6
137.138430 3.918474 29.741993 6
137.354591 1.086313 29.943384 6
137.426754 -1.802568 29.924596 6
137.304209 -4.775517 29.609914 6
136.951059 -7.857837 28.945422 6
136.335289 -11.075969 27.882792 6
135.354052 -14.489080 26.268110 6
134.330758 -17.974306 24.581682 6
133.332568 -21.504016 22.923216 6
129.585736 -26.415355 17.156657 6
108.497665 143.921432 -7.115363 3
108.403161 140.477790 -7.077771 3
103.224501 139.188601 -14.429796 3
94.402678 139.199773 -27.067523 3
106.543865 38.199178 -7.737255 5
111.932244 35.517014 -0.002573 5
114.464465 32.651784 3.607279 5
118.596070 30.095194 9.520180 6
122.519970 27.639127 15.129506 6
125.172070 25.084622 18.899208 6
127.307507 22.512905 21.918720 6
128.875901 19.886576 24.114887 6
129.309266 17.046702 24.666472 6
130.493602 14.396627 26.297949 6
131.448048 11.717221 27.592262 6
132.212283 9.007164 28.606506 6
132.786312 6.256031 29.340411 6
133.168451 3.452791 29.791219 6
133.378925 0.593482 29.987852 6
133.402779 -2.336819 29.908268 6
133.223910 -5.354601 29.528681 6
132.794398 -8.489841 28.779062 6
132.059945 -11.778625 27.579921 6
130.941167 -15.271639 25.815106 6
130.199034 -18.657100 24.589043 6
128.447875 -22.548305 21.888068 6
123.326045 -28.122748 14.273544 6
104.240943 141.013240 -6.258784 3
100.219476 139.193693 -11.807888 3
91.295986 139.195219 -24.301278 3
107.885218 38.580816 0.688175 5
111.220602 35.739074 5.353890 5
113.334886 32.851870 8.294675 5
112.482703 29.611993 7.050148 5
118.547026 27.427141 15.549132 6
121.176217 24.839831 19.202937 6
123.365399 22.249404 22.232508 6
124.768961 19.561527 24.150083 6
125.351042 16.728063 24.904329 6
126.532482 14.050009 26.499627 6
127.468893 11.339010 27.744682 6
128.221846 8.599024 28.726169 6
128.795414 5.821308 29.449607 6
129.141589 2.981208 29.846878 6
129.319705 0.085771 30.001493 6
129.310272 -2.881084 29.885556 6
129.045843 -5.954212 29.403230 6
128.537374 -9.143575 28.569455 6
127.706939 -12.493750 27.273251 6
126.416454 -16.079884 25.318103 6
126.007674 -19.348091 24.605342 6
123.414344 -23.631206 20.786625 6
115.283963 -30.615428 9.097231 5
111.236584 -35.930374 3.187164 5
100.059532 141.544016 -5.397972 3
97.220996 139.198823 -9.191956 3
88.179743 139.197379 -21.565532 3
106.401614 38.697627 4.937495 5
110.051531 35.905612 9.931422 5
111.968626 33.016493 12.536577 5
113.653066 30.152839 14.817370 5
115.149379 27.309573 16.835076 5
116.788865 24.533768 19.045903 5
119.316421 21.972201 22.476082 6
120.572850 19.226316 24.151784 6
121.308415 16.398570 25.105805 6
122.499654 13.694879 26.683710 6
123.440749 10.957710 27.912881 6
124.199540 8.192407 28.886631 6
124.719133 5.372840 29.526265 6
125.059405 2.504603 29.914104 6
125.177070 -0.435974 29.990121 6
125.130479 -3.441126 29.834539 6
124.798771 -6.563042 29.280060 6
124.209743 -9.806802 28.364553 6
123.242877 -13.233667 26.920812 6
121.779749 -16.912571 24.784172 6
121.210233 -20.279211 23.877257 6
117.986493 -24.859584 19.288620 6
114.340726 -29.766959 14.105184 5
111.487172 -34.444791 10.008916 5
95.855134 142.071650 -4.500154 3
94.244988 139.197279 -6.558791 3
85.082806 139.194549 -18.817881 3
103.390507 38.675571 7.037746 5
108.103240 35.985412 13.349027 5
110.327701 33.142661 16.311299 5
111.851417 30.270936 18.327678 5
110.934216 27.069323 17.057118 5
114.439428 24.580425 21.731703 5
115.522268 21.749094 23.144244 5
116.582269 18.940970 24.522467 5
117.211356 16.065335 25.317077 6
118.406535 13.334397 26.870132 6
119.322653 10.563290 28.043975 6
120.044029 7.760263 28.951949 6
120.568971 4.914621 29.591587 6
120.856563 2.003686 29.907515 6
120.960965 -0.967839 29.972455 6
120.815397 -4.032151 29.696076 6
120.465801 -7.186456 29.139970 6
119.766035 -10.495672 28.106531 6
118.665157 -13.998122 26.526355 6
117.325513 -17.650039 24.617979 6
116.055084 -21.335679 22.797051 5
114.655455 -25.139277 20.795285 5
112.818803 -29.208530 18.195934 5
110.639132 -33.523338 15.125183 5
91.574136 142.618176 -3.635395 3
91.276524 139.194967 -3.928017 3
81.964245 139.202180 -16.111810 3
71.871477 139.198259 -29.320687 3
99.276188 38.557466 7.692738 5
105.259093 35.970120 15.531697 5
108.119781 33.197264 19.265823 5
109.895749 30.364317 21.571687 5
111.220946 27.514569 23.282115 5
112.339154 24.666584 24.717401 5
113.302825 21.819478 25.946434 5
114.113153 18.965502 26.970725 5
114.829082 16.109381 27.867719 5
115.479857 13.252748 28.675835 5
116.068708 10.392666 29.399286 5
114.706270 7.026982 27.551610 5
116.985263 4.626628 30.492785 5
117.144618 1.661013 30.641010 5
117.130699 -1.365454 30.557511 5
117.131121 -4.400203 30.489234 5
116.814841 -7.557837 29.999915 5
116.239052 -10.834175 29.164510 5
115.571094 -14.179554 28.203277 5
114.829971 -17.591999 27.141083 5
113.819911 -21.157097 25.719396 5
112.681668 -24.828999 24.123524 5
111.169769 -28.725235 22.028980 5
108.799888 -33.091353 18.795170 5
87.259354 143.165083 -2.742879 3
87.204520 139.625942 -2.729641 3
78.871849 139.201659 -13.381550 3
68.643199 139.198058 -26.472395 3
95.022975 38.430240 8.240602 5
101.089682 35.820013 16.012167 5
104.926461 33.134181 20.918309 5
107.288269 30.367808 23.928070 5
108.843715 27.550390 25.899789 5
110.117872 24.729776 27.507691 5
111.077074 21.886051 28.708442 5
111.868816 19.032689 29.691430 5
112.336317 16.127892 30.255103 5
112.935999 13.259763 30.985923 5
113.141069 10.305410 31.206762 5
113.651747 7.427498 31.817677 5
113.791105 4.453088 31.948327 5
113.897432 1.462542 32.033554 5
113.935222 -1.557367 32.027626 5
113.825952 -4.636181 31.829402 5
113.727488 -7.727921 31.641926 5
113.228917 -10.979819 30.936079 5
113.006017 -14.159492 30.581766 5
112.287788 -17.555462 29.585930 5
111.672475 -20.949497 28.718911 5
110.498336 -24.618180 27.127683 5
108.832556 -28.561095 24.898094 5
105.509393 -33.338477 20.525561 5
82.908870 143.712864 -1.823525 3
82.850704 140.155243 -1.828641 3
75.779965 139.202506 -10.659677 3
65.426306 139.195385 -23.619154 3
90.765103 38.305705 8.860319 5
96.800218 35.661512 16.419773 5
100.746614 32.958091 21.356068 5
103.658128 30.236403 24.991636 5
105.782684 27.484278 27.637507 5
107.302384 24.694155 29.522117 5
108.273841 21.847370 30.716377 5
108.847307 18.946834 31.408771 5
109.625198 16.099448 32.355707 5
110.233843 13.230167 33.087939 5
110.731783 10.344548 33.678931 5
111.114682 7.435664 34.123174 5
111.350595 4.488753 34.380454 5
111.468998 1.504697 34.487718 5
111.487281 -1.517473 34.466730 5
111.399065 -4.585281 34.309378 5
111.158975 -7.719840 33.958492 5
110.790266 -10.921040 33.443174 5
110.278457 -14.201270 32.745055 5
109.486398 -17.621233 31.691364 5
108.924518 -20.990443 30.924306 5
107.713637 -24.666357 29.337061 5
105.387238 -28.885200 26.341361 5
97.667143 -35.636745 16.546300 5
78.438717 140.693561 -0.926408 3
72.719280 139.193213 -7.906532 3
62.217110 139.191346 -20.764416 3
86.274162 38.164676 9.270304 5
92.372207 35.493179 16.740169 5
96.342679 32.760700 21.598484 5
99.305955 30.014503 25.219647 5
101.665986 27.266469 28.099196 5
103.443090 24.491670 30.261971 5
104.259394 21.596378 31.244105 5
105.558171 18.811554 32.816762 5
106.579424 16.002025 34.047234 5
107.361403 13.162901 34.982394 5
107.964121 10.296784 35.695845 5
108.379242 7.392645 36.177278 5
108.660922 4.455687 36.493117 5
108.820846 1.482367 36.657643 5
108.818823 -1.545757 36.621413 5
108.711873 -4.618980 36.454380 5
108.416141 -7.770832 36.053423 5
107.971375 -10.997225 35.467254 5
107.278022 -14.342343 34.573375 5
106.200980 -17.870392 33.205482 5
104.604159 -21.654857 31.195915 5
103.604976 -25.260911 29.918561 5
99.730266 -30.150792 25.101203 5
73.973570 141.238399 -0.013484 3
69.607402 139.203515 -5.221837 3
60.796124 138.574119 -15.768634 3
57.538415 135.863262 -19.646046 3
55.164803 132.790325 -22.462782 3
52.720459 129.679582 -25.365496 3
44.019383 38.770448 -35.517587 9
81.735898 38.023204 9.710868 5
87.877131 35.322442 17.068543 5
91.885845 32.562222 21.867499 5
94.857153 29.785734 25.421126 5
97.290704 27.017025 28.328684 5
98.936390 24.191681 30.290086 5
99.931233 21.297155 31.469591 5
101.387103 18.513019 33.201076 5
102.562182 15.708605 34.594588 5
103.561844 12.893672 35.776516 5
104.270793 10.032624 36.608462 5
104.837652 7.148696 37.268720 5
105.162258 4.208192 37.637025 5
105.359434 1.231555 37.851124 5
105.357689 -1.808949 37.825141 5
105.177628 -4.916824 37.583731 5
104.754722 -8.122269 37.049325 5
104.099719 -11.433772 36.234707 5
103.061655 -14.917359 34.958434 5
101.540419 -18.629691 33.100045 5
99.826614 -22.481187 31.008384 5
98.046250 -26.430902 28.834708 5
93.248144 -31.732591 23.032420 5
69.481920 141.779367 0.944295 3
66.535258 139.200128 -2.492826 3
60.805863 137.488762 -9.196108 3
58.355453 134.554711 -12.051573 3
56.002367 131.530349 -14.793424 3
53.622363 128.456178 -17.567481 3
51.190633 125.337449 -20.402864 3
48.743167 122.161962 -23.257358 3
58.484011 43.556076 -11.697762 9
64.738154 40.376063 -4.367340 9
77.156782 37.881886 10.191364 5
83.343392 35.152197 17.441473 5
87.354144 32.360321 22.139393 5
90.327768 29.552464 25.620450 5
92.870899 26.767485 28.596034 5
94.372991 23.890312 30.350067 5
95.505771 20.988718 31.670288 5
96.956626 18.173588 33.362905 5
98.164737 15.345922 34.770156 5
99.131655 12.494610 35.893832 5
99.835765 9.603220 36.708550 5
100.443513 6.700350 37.409526 5
100.794690 3.739102 37.808792 5
100.955735 0.725588 37.984246 5
100.911419 -2.353981 37.917976 5
100.645820 -5.514616 37.591246 5
100.114221 -8.781710 36.951523 5
99.328621 -12.164302 36.012810 5
98.132123 -15.730694 34.590882 5
96.434413 -19.534494 32.579604 5
95.037669 -23.290707 30.920434 5
92.339227 -27.630140 27.731999 5
86.222860 -33.499955 20.529320 5
64.921367 142.331849 1.898917 3
64.772349 138.739016 1.735027 3
61.396883 136.237415 -2.129728 3
59.112449 133.299532 -4.743292 3
56.841671 130.302710 -7.341393 3
54.479193 127.277640 -10.044866 3
52.107518 124.197190 -12.759093 3
49.687105 121.070784 -15.529427 3
47.217188 117.896003 -18.356749 3
44.740509 114.660435 -21.192047 3
51.998343 47.027407 -12.834009 9
59.983325 43.792049 -3.678952 9
64.655753 40.570085 1.677543 9
72.714623 37.755099 10.916891 5
78.650000 34.970961 17.721141 5
82.739724 32.154333 22.408859 5
85.817710 29.327401 25.936246 5
88.355796 26.510859 28.844338 5
89.723824 23.583230 30.410520 5
90.995408 20.673618 31.865885 5
92.462444 17.830917 33.545159 5
93.659099 14.970802 34.914163 5
94.605791 12.085099 35.996299 5
95.369347 9.177407 36.868196 5
95.904807 6.228047 37.478282 5
96.228328 3.230393 37.845075 5
96.350119 0.177103 37.980268 5
96.265916 -2.942799 37.878955 5
95.926682 -6.154231 37.484880 5
95.327458 -9.471111 36.792334 5
94.404411 -12.927465 35.728078 5
93.068584 -16.570157 34.190047 5
91.187930 -20.467451 32.026740 5
90.125236 -24.126538 30.801261 5
86.468587 -28.863309 26.599984 5
74.811176 -37.029677 13.220488 5
60.277495 139.233736 2.831176 3
60.280865 135.582061 2.828283 3
59.877511 132.073958 2.369750 3
57.606997 129.128655 -0.181692 3
55.288147 126.142822 -2.787124 3
52.987431 123.095960 -5.372025 3
50.585968 120.018857 -8.069668 3
48.205608 116.877322 -10.743439 3
45.761138 113.691121 -13.488870 3
43.268349 110.453660 -16.288254 3
40.743755 107.159128 -19.123068 3
38.178233 103.807329 -22.003539 3
54.110847 47.217483 -4.161173 9
59.953667 43.944733 2.391243 9
64.536435 40.756831 7.531000 9
68.128244 37.619979 11.559830 5
73.902004 34.789091 18.035472 5
78.051645 31.945469 22.690207 5
81.245771 29.100318 26.273744 5
83.701889 26.241512 29.029981 5
85.004732 23.273159 30.493318 5
86.414625 20.354629 32.076906 5
87.873756 17.479650 33.715919 5
89.075307 14.589731 35.066346 5
90.041874 11.677821 36.153530 5
90.785692 8.735816 36.991197 5
91.285604 5.748253 37.555640 5
91.559062 2.708215 37.866436 5
91.655431 -0.381621 37.978945 5
91.523764 -3.544303 37.836065 5
91.112680 -6.806130 37.380211 5
90.412316 -10.183491 36.600351 5
89.389238 -13.701271 35.459033 5
87.881303 -17.430979 33.774529 5
85.727403 -21.453785 31.366294 5
84.478260 -25.217211 29.972634 5
79.927613 -30.327191 24.878719 5
64.729435 -39.927067 7.851037 9
55.638214 132.436686 3.803545 3
55.663509 128.786849 3.813230 3
55.651705 125.161794 3.783173 3
53.848302 122.027301 1.790405 3
51.529848 118.981794 -0.766227 3
49.166646 115.890492 -3.371284 3
46.750016 112.752969 -6.034272 3
44.300972 109.562102 -8.732144 3
41.819232 106.316109 -11.465194 3
39.298472 103.014263 -14.240337 3
36.742927 99.653717 -17.052917 3
34.153943 96.232288 -19.901441 3
54.085347 47.326569 1.907937 9
58.899988 44.042486 7.190078 9
62.940017 40.844047 11.623514 9
64.129609 37.534412 12.931996 9
69.157449 34.612067 18.449984 5
73.287631 31.733663 22.984258 5
76.507550 28.858675 26.521020 5
78.976494 25.969161 29.234963 5
80.142016 22.949225 30.520427 5
81.742383 20.028536 32.283325 5
83.218067 17.125158 33.910169 5
84.420822 14.204504 35.238441 5
85.364425 11.257106 36.283272 5
86.086343 8.279526 37.085765 5
86.561924 5.255709 37.618931 5
86.831660 2.184523 37.927192 5
86.848261 -0.956272 37.958759 5
86.656916 -4.165729 37.763208 5
86.168360 -7.480162 37.242767 5
85.369973 -10.917409 36.383681 5
84.198684 -14.512634 35.116928 5
82.536775 -18.323549 33.313636 5
80.463399 -22.344994 31.060671 5
78.516341 -26.396971 28.947297 5
72.819001 -31.973013 22.727173 5
64.790028 -38.676002 13.955238 9
45.848524 -50.193856 -6.765352 9
50.949202 125.613582 4.756943 3
50.977630 121.968155 4.760532 3
51.015973 118.333075 4.776237 3
50.054145 114.944987 3.721513 3
47.686143 111.849285 1.160918 3
45.307367 108.697634 -1.410168 3
42.898193 105.492912 -4.012749 3
40.414646 102.241171 -6.693946 3
37.910095 98.930091 -9.396523 3
35.344287 95.564292 -12.163607 3
32.644684 92.150426 -15.072951 3
27.300350 88.983895 -20.816975 3
42.146440 50.661564 -4.947761 9
53.310909 47.406629 7.028614 9
57.516110 44.121606 11.542577 9
61.097773 40.913597 15.389022 9
64.185308 37.765731 18.706713 9
63.256236 34.333317 17.718250 9
68.564647 31.531489 23.419807 5
71.639884 28.607516 26.727622 5
74.216568 25.698973 29.501865 5
75.221380 22.624773 30.591782 5
76.991906 19.697866 32.503791 5
78.452477 16.760082 34.084555 5
79.675187 13.811487 35.411403 5
80.607845 10.830665 36.428429 5
81.297166 7.814922 37.185761 5
81.755986 4.756255 37.697215 5
81.954800 1.636800 37.931236 5
81.956611 -1.538702 37.955413 5
81.688493 -4.799719 37.691683 5
81.131576 -8.164225 37.119933 5
80.217707 -11.666542 36.167278 5
78.858378 -15.351673 34.739078 5
76.961785 -19.271107 32.737223 5
75.218258 -23.206887 30.901175 5
72.301268 -27.639547 27.810671 5
64.530700 -34.027182 19.526738 5
56.121054 -40.918598 10.562684 9
57.381914 -44.100090 11.952072 9
46.284073 115.101197 5.745270 3
46.280761 111.476332 5.710548 3
46.278981 107.860863 5.679451 3
43.898477 104.704214 3.156876 3
41.456749 101.499447 0.571640 3
39.026254 98.231884 -2.000263 3
36.517157 94.914738 -4.652978 3
33.689113 91.576121 -7.638498 3
27.407197 88.574121 -14.244322 3
44.274344 50.771963 3.375825 9
51.844557 47.460722 11.320177 9
55.685930 44.177141 15.354981 9
58.875548 40.957747 18.707833 9
61.835178 37.807108 21.821083 9
64.326537 34.693509 24.444787 9
63.067292 31.253339 23.136699 9
66.681450 28.351861 26.941122 5
69.301490 25.414958 29.704444 5
70.289002 22.306701 30.757432 5
72.102882 19.353198 32.678434 5
73.599652 16.388895 34.268450 5
74.779557 13.399973 35.527801 5
75.718790 10.388008 36.536423 5
76.393997 7.337205 37.269906 5
76.851379 4.246505 37.776751 5
77.003906 1.084652 37.965852 5
76.937058 -2.139746 37.926889 5
76.617966 -5.445762 37.625542 5
75.927191 -8.879466 36.936851 5
74.901615 -12.446474 35.899644 5
73.390943 -16.209937 34.356770 5
71.245140 -20.241824 32.151476 5
69.943759 -24.057047 30.832715 5
65.510837 -29.058987 26.239507 5
64.560558 -32.894884 25.293741 9
61.995378 -37.407926 22.661250 9
56.315895 -43.281039 16.775115 9
41.521208 108.194088 6.710897 3
41.562116 104.557220 6.718014 3
41.595066 100.931245 6.719532 3
40.106417 97.555693 5.163498 3
37.678113 94.282061 2.646149 3
34.627593 91.029076 -0.507222 3
26.869229 88.249406 -8.486874 3
39.079832 50.728588 3.949287 9
49.885723 47.496664 15.039984 9
53.644543 44.221295 18.903168 9
56.699185 41.003843 22.046078 9
59.443703 37.844554 24.872926 9
61.812436 34.724235 27.316332 9
60.617170 31.297179 26.106269 9
64.146392 28.386724 29.744042 9
64.897637 25.205076 30.534703 9
65.298868 21.988217 30.968597 5
67.165427 19.009472 32.907093 5
68.665653 16.012993 34.471891 5
69.837512 12.990111 35.702007 5
70.738293 9.938106 36.656255 5
71.414911 6.855186 37.382812 5
71.820651 3.720713 37.833901 5
71.927722 0.515961 37.981182 5
71.810985 -2.753041 37.901493 5
71.367794 -6.124261 37.489856 5
70.631861 -9.602646 36.780998 5
69.450216 -13.247305 35.618539 5
67.767184 -17.095660 33.945829 5
65.325508 -21.254757 31.500025 5
64.662641 -24.887838 30.877628 9
64.493213 -28.378197 30.762769 9
63.047660 -32.363712 29.345700 9
59.519552 -37.213208 25.803108 9
54.894230 -42.623987 21.143817 9
36.764338 97.589320 7.707300 3
36.807393 93.954940 7.717396 3
35.452473 90.509232 6.328489 3
24.135472 88.186343 -5.049911 3
20.538721 80.942210 -8.705219 1
21.602849 77.038676 -7.656650 1
21.675216 73.228412 -7.599834 1
21.660037 69.427151 -7.627686 1
21.703792 65.625696 -7.593244 1
34.492283 50.698690 5.232743 9
47.134197 47.504910 17.923686 9
46.641087 44.028240 17.437513 9
54.316611 41.036419 25.150039 9
56.764101 37.859780 27.619465 9
59.086721 34.735782 29.966090 9
61.003703 31.630160 31.908224 9
62.826062 28.561860 33.757864 9
64.361773 25.501668 35.322393 9
64.023881 22.209985 35.010440 9
64.335500 19.005282 35.352560 9
65.209431 15.898906 36.261093 9
65.201604 12.647055 36.288249 9
65.652299 9.478579 36.777723 5
66.273279 6.350789 37.440461 5
66.663630 3.179586 37.874702 5
66.718649 -0.070323 37.975696 5
66.547015 -3.385925 37.852500 5
66.010936 -6.814283 37.367317 5
65.168800 -10.354926 36.578879 9
65.184317 -13.676715 36.652076 9
65.044598 -17.058396 36.572881 9
63.690788 -20.851002 35.282319 9
64.608818 -23.925635 36.267297 9
62.719940 -27.979744 34.448762 9
60.098390 -32.372404 31.902239 9
56.956531 -37.055298 28.840702 9
31.193972 -50.819485 3.192806 9
31.943721 90.555867 8.744430 3
21.076508 88.161485 -1.947716 3
19.368394 84.553507 -3.652819 1
22.315029 80.496843 -0.787461 1
23.272152 76.670928 0.129865 1
23.228288 72.934783 0.068692 1
23.305275 69.194530 0.129747 1
23.340104 65.459912 0.153065 1
11.780477 61.961591 -11.199110 4
11.683134 58.076295 -11.298416 4
11.525327 54.188293 -11.453294 4
29.211248 50.655589 5.907928 9
43.222821 47.474111 19.665991 9
48.570200 44.260336 24.923791 9
51.819412 41.061535 28.125449 9
54.229002 37.885634 30.506110 9
56.298992 34.741972 32.556457 9
58.128728 31.626379 34.373962 9
59.966719 28.557117 36.202408 9
61.347679 25.474503 37.585355 9
62.602593 22.406381 38.847523 9
63.721006 19.345543 39.978675 9
64.658321 16.278439 40.935115 9
64.246282 12.984109 40.571730 9
63.290552 9.564742 39.678847 9
63.874783 6.434477 40.298517 9
64.270271 3.269730 40.736293 9
64.353842 0.032978 40.871664 9
64.495327 -3.196376 41.066992 9
63.627939 -6.699107 40.277944 9
63.640218 -9.991285 40.353595 9
64.681391 -12.993148 41.439262 9
64.259210 -16.426603 41.096438 9
63.110996 -20.117230 40.047406 9
61.382945 -24.047468 38.435824 9
59.582844 -28.065530 36.758533 9
57.222553 -32.352773 34.538932 9
54.311194 -36.930752 31.786671 9
28.483421 -50.589377 6.674170 9
9.068223 100.874681 -7.301440 2
16.608700 95.904580 -0.116929 3
26.920823 90.792398 9.732919 3
18.032396 88.134928 1.169011 3
20.594857 84.102038 3.594281 1
19.713356 80.439909 2.719433 1
19.286265 76.724962 2.284682 1
19.412324 72.968866 2.384928 1
19.373067 69.226535 2.330672 1
19.406250 65.482865 2.350095 1
15.578122 61.818557 -1.332819 4
15.578204 58.027966 -1.336937 4
15.569384 54.237624 -1.345403 4
23.616784 50.607337 6.383520 9
37.866389 47.396167 20.069502 9
44.979661 44.230484 26.908644 9
48.842120 41.057624 30.630789 9
51.443652 37.892921 33.146037 9
53.527775 34.749842 35.168043 9
55.289756 31.626732 36.884224 9
56.904419 28.530025 38.462332 9
58.348551 25.450429 39.880094 9
59.558403 22.371729 41.076385 9
60.632998 19.299237 42.146226 9
60.459437 16.041408 42.022644 9
60.126919 12.743706 41.750406 9
60.892211 9.642674 42.534079 9
61.501950 6.522460 43.172065 9
61.197991 3.208795 42.938237 9
61.217082 -0.046100 43.017655 9
61.122060 -3.338074 42.991569 9
60.807073 -6.700092 42.758793 9
60.292859 -10.136087 42.339404 9
60.486708 -13.392430 42.601430 9
60.985372 -16.562667 43.158659 9
58.834788 -20.571129 41.187365 9
58.207722 -24.148137 40.677191 9
56.548625 -28.112200 39.185906 9
54.284187 -32.354370 37.122155 9
51.397963 -36.907340 34.471132 9
27.557211 -49.671802 11.840987 9
11.005492 103.917040 0.749946 2
11.861447 99.936570 1.495376 2
15.487171 95.602669 4.843870 3
21.898059 91.022752 10.811172 3
15.847046 88.012228 5.092594 3
16.755667 84.160159 5.907908 1
10.522806 80.947009 0.025806 1
10.566725 77.119614 0.038563 1
12.579908 73.180228 1.904608 1
15.589969 69.250675 4.711490 1
15.500105 65.504186 4.613166 1
15.416993 61.756686 4.525832 4
15.419868 58.007327 4.523879 4
15.457940 54.258572 4.559622 4
17.870171 50.557306 6.828956 9
32.237126 47.311228 20.325879 9
39.617049 44.120062 27.266931 9
44.881999 40.995989 32.226116 9
48.120416 37.861533 35.286604 9
50.544500 34.739857 37.586400 9
52.358575 31.618498 39.317368 9
53.965795 28.517975 40.857905 9
55.254109 25.415635 42.102909 9
55.807986 22.240889 42.662725 9
55.456790 18.938202 42.377686 9
56.225940 15.804975 43.147293 9
56.824882 12.655414 43.761154 9
57.312475 9.493507 44.274528 9
57.681569 6.312838 44.680794 9
57.821973 3.084085 44.876839 9
57.857953 -0.173684 44.979219 9
57.720715 -3.482099 44.923656 9
57.402217 -6.850825 44.702820 9
56.917549 -10.283708 44.331046 9
56.229260 -13.798858 43.773548 9
55.385250 -17.390914 43.075380 9
54.257373 -21.107118 42.117082 9
53.896837 -24.616121 41.880761 9
53.351670 -28.211415 41.476947 9
51.205046 -32.403942 39.584070 9
47.648508 -37.190723 36.383052 9
34.115346 -45.909869 23.891577 9
5.365123 108.179344 1.662601 2
9.804705 103.567712 5.663638 2
10.154112 99.693291 5.921207 2
13.126264 95.476186 8.589900 3
16.728498 91.265195 11.842999 3
12.702854 87.997608 8.103368 3
13.381898 84.170893 8.685277 1
11.278637 80.601413 6.718844 1
11.312609 76.828144 6.718991 1
11.329857 73.059962 6.708982 1
13.983805 69.174967 9.124927 1
13.977114 65.447410 9.103438 1
13.925662 61.721999 9.045967 4
13.914691 57.995857 9.030780 4
13.926033 54.269865 9.041194 4
13.927699 50.543689 9.047837 4
26.610681 47.228513 20.703071 9
34.054405 44.003331 27.551872 9
39.711344 40.865323 32.764178 9
43.881128 37.765802 36.615121 9
46.938372 34.677967 39.448720 9
49.116354 31.580690 41.479261 9
50.497158 28.448234 42.782289 9
50.096717 25.127229 42.455294 9
51.256742 22.004309 43.564291 9
52.135729 18.864312 44.419678 9
52.918973 15.725924 45.191474 9
53.550061 12.574969 45.828013 9
53.994832 9.398492 46.298089 9
54.303560 6.198816 46.647898 9
54.457012 2.965888 46.859948 9
54.470829 -0.303404 46.948712 9
54.311198 -3.623365 46.883410 9
54.032049 -6.987700 46.713588 9
53.547008 -10.425042 46.360440 9
52.879310 -13.937728 45.845497 9
51.967858 -17.551878 45.113228 9
50.804527 -21.280583 44.156608 9
49.246202 -25.181100 42.845442 9
49.446069 -28.545000 43.144730 9
47.133706 -32.798043 41.158262 9
41.409413 -38.372260 36.069994 9
3.787066 107.865222 6.261171 2
7.549589 103.394940 9.558936 2
8.653252 99.423753 10.480122 2
9.733449 95.491051 11.386536 3
11.533355 91.504380 12.944793 3
10.009574 87.933167 11.527054 1
10.033093 84.178239 11.503127 1
8.352180 80.570643 9.954997 1
8.390339 76.801963 9.955348 1
8.864883 73.012196 10.353164 1
11.446961 69.142459 12.649021 1
11.561549 65.420323 12.735171 4
11.580497 61.704392 12.741031 4
11.562397 57.990035 12.719202 4
11.522587 54.275358 12.683453 4
11.490033 50.559514 12.659797 4
20.670087 47.137801 20.914052 9
28.313079 43.881505 27.792735 9
34.019768 40.707874 32.937236 9
38.469916 37.589868 36.957908 9
42.156512 34.519785 40.297366 9
44.668334 31.428077 42.586622 9
44.382685 28.091449 42.369975 9
46.116397 24.990068 43.970055 9
47.482961 21.879091 45.245186 9
48.567549 18.756455 46.271900 9
49.430369 15.620454 47.104309 9
50.047279 12.457790 47.720905 9
50.568725 9.286560 48.256655 9
50.891331 6.081849 48.619045 9
51.023911 2.837247 48.816152 9
51.034758 -0.439761 48.909302 9
50.880651 -3.764863 48.859981 9
50.506023 -7.159184 48.618720 9
49.963404 -10.618069 48.232783 9
49.194111 -14.165212 47.650014 9
48.097586 -17.839745 46.780986 9
46.673817 -21.655480 45.626235 9
44.541097 -25.748300 43.845833 9
41.923899 -30.072923 41.641131 9
40.880079 -33.936856 40.846772 9
31.909139 -40.698270 33.000023 9
-3.909040 108.610294 5.442083 2
3.058116 103.581049 11.466396 2
3.273683 99.727307 11.580878 2
5.884408 95.565445 13.802402 3
6.229555 91.750340 14.043838 3
5.148891 88.103620 13.040562 3
6.414819 84.210312 14.102454 1
2.976484 80.742235 11.041780 1
3.056541 76.944328 11.075047 1
5.225172 73.032171 12.948219 1
8.131200 69.144931 15.475396 1
8.127517 65.425910 15.454008 1
7.761137 61.715098 15.120173 4
7.770545 57.993430 15.122379 4
7.739714 54.272023 15.095304 4
7.758464 50.550500 15.117826 4
14.626763 47.046105 21.161063 9
22.419811 43.755989 28.021486 9
28.413062 40.559228 33.306387 9
32.785070 37.399260 37.172595 9
36.581366 34.300201 40.538054 9
38.681239 31.132788 42.419228 9
38.989983 27.821484 42.733639 9
41.073461 24.728385 44.610296 9
42.779068 21.633299 46.160189 9
44.121354 18.523444 47.396223 9
45.117255 15.387126 48.333431 9
45.924951 12.237806 49.110648 9
46.513045 9.061961 49.700496 9
46.870794 5.848506 50.093755 9
47.017814 2.592166 50.307823 9
46.992689 -0.707110 50.376694 9
46.781418 -4.059873 50.288349 9
46.294078 -7.496428 49.964441 9
45.605943 -11.008372 49.471150 9
44.578721 -14.642419 48.688048 9
43.125380 -18.437797 47.539738 9
40.908761 -22.514131 45.732844 9
37.999090 -26.880389 43.329923 9
36.557462 -30.853751 42.215292 9
33.008457 -35.601187 39.273443 9
18.641294 -44.309207 26.928436 9
-2.210475 100.037911 12.689241 2
0.562186 95.831741 14.992986 3
0.821858 92.002160 15.149272 3
0.901796 88.203682 15.158178 3
1.317200 84.380328 15.461671 1
-2.529965 80.919949 12.113519 1
-2.391125 77.090766 12.192588 1
-0.337157 73.159886 13.922558 1
2.969245 69.228116 16.734926 1
2.966840 65.485302 16.713202 4
3.004542 61.743050 16.732477 4
3.000053 58.002836 16.722073 4
2.975753 54.262660 16.701206 4
2.988093 50.522289 16.718352 4
-17.102363 46.150141 -0.519563 9
16.448698 43.630207 28.308400 9
22.472032 40.395447 33.504547 9
27.042382 37.209451 37.458398 9
30.853561 34.073680 40.765623 9
32.440137 30.820853 42.168771 9
33.257583 27.522052 42.917493 9
35.355891 24.392815 44.770521 9
37.140611 21.270466 46.359698 9
38.597730 18.140669 47.673124 9
39.760117 14.995734 48.739133 9
40.703988 11.836992 49.623204 9
41.340328 8.639375 50.249260 9
41.770463 5.410509 50.704320 9
41.934280 2.129478 50.937154 9
41.860650 -1.208054 50.972769 9
41.541620 -4.613617 50.804681 9
40.867197 -8.124435 50.339263 9
39.907411 -11.736650 49.636871 9
38.521278 -15.500496 48.577667 9
36.692558 -19.437937 47.148555 9
34.233921 -23.623103 45.190674 9
30.914044 -28.153825 42.508160 9
31.074044 -31.652174 42.798908 9
23.959232 -37.623609 36.906509 9
-4.636023 92.253167 16.310775 3
-4.621933 88.435482 16.258337 3
-7.856618 84.925905 13.487357 1
-11.455410 81.369250 10.416952 1
-15.998225 77.791115 6.560447 1
-16.236370 73.862289 6.323647 1
-2.444876 69.320002 17.872373 1
-4.066524 65.601239 16.489685 4
-4.028281 61.812613 16.507612 4
-4.010805 58.025887 16.515197 4
-4.007920 54.239779 16.517619 4
-4.026042 50.453077 16.509493 4
1.902198 46.849783 21.500969 9
10.325102 43.500971 28.593037 9
16.419040 40.229524 33.735505 9
21.090619 37.010146 37.689534 9
25.000902 33.842779 41.010049 9
26.084070 30.505893 41.963872 9
27.420228 27.219061 43.135987 9
29.539178 24.053966 44.970474 9
31.333077 20.894680 46.537923 9
32.773845 17.724576 47.814923 9
33.946890 14.543277 48.873230 9
34.862147 11.341948 49.721334 9
35.503141 8.107447 50.345647 9
35.888877 4.832629 50.762330 9
36.021604 1.507813 50.973545 9
35.838475 -1.890870 50.927063 9
35.419844 -5.357357 50.690469 9
34.705177 -8.915996 50.213583 9
33.592585 -12.604929 49.411859 9
32.072743 -16.442604 48.278223 9
30.012149 -20.483193 46.702158 9
27.235441 -24.800262 44.538636 9
23.523419 -29.490169 41.606627 9
23.363967 -33.146160 41.641772 9
13.833463 -39.957743 33.894143 9
-18.225760 81.635586 10.716089 1
-18.762499 77.742244 10.228719 1
-18.660358 73.803422 10.273393 1
-5.095744 69.290557 21.375833 1
-10.155669 65.685309 17.199847 1
-19.403874 50.231432 9.592638 9
-4.630968 46.750057 21.734887 9
3.935068 43.363540 28.788257 9
10.187144 40.057888 33.948384 9
14.978928 36.805054 37.915994 9
19.009408 33.606612 41.264753 9
19.489076 30.176671 41.706610 9
21.387539 26.903284 43.318739 9
23.514898 23.699388 45.124661 9
25.326841 20.502671 46.677977 9
26.798422 17.297487 47.958373 9
28.010429 14.083225 49.032208 9
28.891676 10.837939 49.841374 9
29.486682 7.556822 50.422589 9
29.856150 4.240345 50.825796 9
29.928091 0.864896 50.992398 9
29.691850 -2.583505 50.914082 9
29.181168 -6.109257 50.618858 9
28.327217 -9.739922 50.051002 9
27.079959 -13.501828 49.170305 9
25.374451 -17.427907 47.924571 9
23.077288 -21.573658 46.206036 9
19.975214 -26.024878 43.842330 9
17.374543 -30.414444 41.897804 9
14.702509 -34.906283 39.906266 9
1.770801 -42.877506 29.593618 9
-26.484644 50.166056 9.796943 9
-11.353290 46.647096 21.956316 9
-2.525818 43.226552 29.063508 9
3.812494 39.882766 34.179853 9
8.730422 36.595985 38.162982 9
12.802298 33.359366 41.473699 9
12.736051 29.841145 41.472393 9
15.175318 26.576890 43.487070 9
17.400863 23.343355 45.336820 9
19.204704 20.105705 46.855020 9
20.689097 16.862389 48.123775 9
21.839829 13.599087 49.131893 9
22.740737 10.316899 49.946711 9
23.316691 6.992869 50.508354 9
23.621902 3.624798 50.860509 9
23.602934 0.191396 50.960810 9
23.371445 -3.295959 50.898877 9
22.747796 -6.886420 50.531685 9
21.761613 -10.588106 49.883518 9
20.342484 -14.432912 48.898926 9
18.442052 -18.450528 47.540248 9
15.853672 -22.716989 45.644017 9
12.384463 -27.314908 43.058304 9
11.478792 -31.238458 42.522401 9
5.451004 -36.809562 37.928699 9
-33.812853 50.097862 9.959101 9
-18.229537 46.542102 22.200805 9
-9.224962 43.083000 29.289018 9
-2.777474 39.700408 34.378506 9
2.339280 36.382761 38.431165 9
6.439457 33.106177 41.693409 9
6.199272 29.533423 41.560408 9
8.863951 26.248570 43.711515 9
11.076201 22.972214 45.514930 9
12.929496 19.699385 47.044019 9
14.371931 16.409449 48.258321 9
15.563610 13.111202 49.283381 9
16.395997 9.777398 50.034497 9
16.987248 6.415188 50.604377 9
17.231045 2.995380 50.910222 9
17.164939 -0.487738 50.981800 9
16.834246 -4.036448 50.854929 9
16.089563 -7.694515 50.413538 9
14.978408 -11.466551 49.695386 9
13.401791 -15.391370 48.624101 9
11.217393 -19.524104 47.089886 9
8.355938 -23.907087 45.040175 9
4.401601 -28.685437 42.153423 9
4.321938 -32.417403 42.288588 9
-4.925399 -39.017252 35.321941 9
-41.310487 50.028358 10.149595 9
-25.300246 46.433975 22.443110 9
-16.022049 42.938990 29.582809 9
-9.518430 39.514561 34.602893 9
-4.304904 36.158370 38.641364 9
-0.119986 32.844167 41.898681 9
-0.355129 29.231843 41.777277 9
2.330891 25.906102 43.901295 9
4.568492 22.589712 45.689180 9
6.450502 19.277816 47.212140 9
7.920388 15.949488 48.427102 9
9.056387 12.601166 49.394171 9
9.856203 9.220027 50.111871 9
10.396227 5.806738 50.638885 9
10.598036 2.336911 50.915651 9
10.531554 -1.188379 50.995972 9
10.025032 -4.815377 50.749314 9
9.202281 -8.533185 50.270746 9
7.944461 -12.381724 49.470395 9
6.184928 -16.393946 48.298429 9
3.728969 -20.639265 46.607899 9
0.499549 -25.164936 44.341827 9
-3.401829 -29.971653 41.579074 9
-5.037157 -34.217342 40.549176 9
-17.438604 -41.830354 31.375316 9
-32.560746 46.322993 22.694559 9
-23.098931 42.787102 29.811478 9
-16.434100 39.324149 34.840865 9
-11.035833 35.934024 38.929202 9
-6.826999 32.577473 42.134336 9
-7.107708 28.920371 41.986429 9
-4.292841 25.563195 44.163899 9
-2.082973 22.200758 45.896348 9
-0.221087 18.843032 47.376254 9
1.256648 15.472343 48.576759 9
2.404690 12.082651 49.538814 9
3.234102 8.663551 50.270962 9
3.699604 5.195467 50.739740 9
3.843365 1.672659 50.977048 9
3.619279 -1.925892 50.948975 9
3.058266 -5.607499 50.679141 9
2.076092 -9.403313 50.105457 9
0.645803 -13.335360 49.208692 9
-1.350983 -17.449318 47.901811 9
-4.042195 -21.799149 46.091074 9
-7.727038 -26.491036 43.556116 9
-9.857488 -30.848726 42.187942 9
-15.025622 -36.158061 38.583203 9
-40.004973 46.209466 22.966990 9
-30.335008 42.632559 30.075468 9
-23.526451 39.129288 35.097713 9
-18.006915 35.699980 39.184657 9
-13.732330 32.302502 42.368634 9
-14.042511 28.600835 42.207533 9
-11.231215 25.197795 44.338036 9
-8.950031 21.797746 46.089115 9
-7.075881 18.396768 47.550929 9
-5.595072 14.981993 48.733705 9
-4.463100 11.545666 49.670212 9
-3.709864 8.070346 50.338952 9
-3.291519 4.549657 50.772308 9
-3.197784 0.973154 50.978201 9
-3.488860 -2.682787 50.913280 9
-4.179356 -6.435348 50.567556 9
-5.267941 -10.299014 49.942735 9
-6.909280 -14.323996 48.927281 9
-9.120891 -18.534946 47.509658 9
-12.137100 -23.012304 45.521264 9
-16.335694 -27.885916 42.690308 9
-27.559647 -34.817807 34.790601 9
-26.189539 -38.392346 36.023986 9
-37.761686 42.474240 30.358054 9
-30.878629 38.925882 35.320676 9
-25.315614 35.450453 39.348057 9
-20.808098 32.021714 42.629352 9
-21.202491 28.269899 42.416903 9
-18.341201 24.824782 44.539649 9
-16.039547 21.380523 46.271311 9
-14.141388 17.936225 47.723584 9
-12.656592 14.476146 48.889663 9
-11.560272 10.989078 49.787605 9
-10.833753 7.463963 50.431088 9
-10.422997 3.896512 50.859008 9
-10.445128 0.254186 50.988448 9
-10.824795 -3.464273 50.873645 9
-11.626473 -7.285035 50.469414 9
-12.886530 -11.231327 49.750746 9
-14.764486 -15.356070 48.605443 9
-17.246227 -19.678433 47.044863 9
-20.717672 -24.317137 44.797206 9
-25.450773 -29.379523 41.672484 9
-26.351515 -33.515707 41.273535 9
-39.335933 -41.141002 32.357330 9
-46.668603 42.260840 29.765692 9
-38.376931 38.720115 35.599847 9
-32.733193 35.200379 39.593712 9
-28.065236 31.734591 42.915137 9
-28.567410 27.929783 42.637657 9
-25.657161 24.441206 44.751063 9
-23.271477 20.958385 46.507608 9
-21.447125 17.458488 47.881921 9
-19.907842 13.958126 49.066826 9
-18.852752 10.418592 49.923890 9
-18.183859 6.837898 50.521788 9
-17.864722 3.208302 50.886319 9
-17.958712 -0.494026 50.973939 9
-18.415212 -4.274333 50.820449 9
-19.359414 -8.170883 50.339655 9
-20.856764 -12.215137 49.487148 9
-22.896087 -16.424521 48.271842 9
-25.709324 -20.873382 46.534524 9
-29.597800 -25.664236 44.068766 9
-33.075933 -30.450540 41.903074 9
-37.305255 -35.533614 39.235810 9
-47.174312 38.453568 35.153824 9
-40.378279 34.942510 39.843744 9
-36.361928 31.378442 42.647761 9
-36.118151 27.582529 42.890615 9
-33.199782 24.045562 44.966043 9
-30.806587 20.514390 46.693280 9
-28.909430 16.974220 48.092410 9
-27.464189 13.413505 49.193776 9
-26.412322 9.824711 50.037556 9
-25.764756 6.192311 50.616728 9
-25.551143 2.497161 50.911662 9
-25.684969 -1.260865 50.981674 9
-26.304801 -5.120130 50.733421 9
-27.383106 -9.092406 50.186441 9
-29.064420 -13.224453 49.243876 9
-31.422506 -17.554085 47.857174 9
-34.609057 -22.140829 45.925479 9
-39.043384 -27.116940 43.167950 9
-40.254675 -31.379583 42.600830 9
-91.737405 36.395154 11.094680 8
-80.891914 32.670803 18.379330 8
-64.481170 29.590717 29.376165 9
-44.106433 27.207391 43.015039 9
-40.990937 23.636307 45.178744 9
-38.607283 20.053389 46.865762 9
-36.697955 16.463879 48.247618 9
-35.206911 12.858616 49.361842 9
-34.231100 9.209499 50.144455 9
-33.649778 5.516966 50.676091 9
-33.460545 1.767612 50.958848 9
-33.749293 -2.067262 50.936439 9
-34.476919 -5.997143 50.635548 9
-35.768094 -10.062016 49.974610 9
-37.628891 -14.282940 48.950789 9
-40.239612 -18.719586 47.446434 9
-44.114072 -23.517001 45.124699 9
-47.665787 -28.334847 43.033149 9
-100.261486 36.173588 11.792183 8
-89.416183 32.393177 18.907308 8
-82.606139 28.559967 23.410595 8
-52.221241 26.831192 43.231475 9
-53.260099 22.816038 42.653627 9
-47.993319 19.437247 46.179248 9
-45.029570 15.903250 48.220226 9
-43.311858 12.271588 49.463604 9
-42.287743 8.576823 50.268416 9
-41.752901 4.825938 50.767689 9
-41.663859 1.009101 50.990185 9
-42.081424 -2.899583 50.897303 9
-42.972008 -6.911481 50.511618 9
-44.708899 -11.115713 49.593292 9
-48.356441 -15.760592 47.458214 9
-58.095438 -21.819547 41.419089 9
-98.506109 32.088645 19.256754 8
-91.513665 28.208075 23.772582 8
-86.518739 24.313545 27.033270 8
-79.128225 20.748081 31.822200 8
-75.849866 16.912704 34.016932 8
-64.165329 14.112698 41.541320 9
-62.687228 10.277544 42.616411 9
-61.908849 6.373614 43.261073 9
-70.541405 1.085977 37.975604 8
-70.993099 -3.095817 37.873262 8
-64.475260 -6.107054 42.178442 9
-63.909370 -10.061256 42.740873 9
-78.071486 -16.847698 34.048303 8
-83.567211 -22.192303 30.834895 8
-97.322205 -29.444253 22.456491 8
-122.668332 30.893544 10.477134 7
-112.507944 27.013601 16.850925 8
-95.576925 23.901493 27.420257 8
-88.144964 20.277948 32.125306 8
-84.836227 16.386979 34.293409 8
-82.484562 12.454422 35.882426 8
-80.858017 8.477563 37.036246 8
-79.981068 4.428935 37.740508 8
-79.832932 0.286580 38.008934 8
-80.526015 -3.991619 37.773407 8
-82.054505 -8.432853 37.038905 8
-84.659192 -13.108460 35.659092 8
-88.721630 -18.127326 33.402025 8
-100.102965 -24.720446 26.677712 8
-131.931224 30.603344 11.339964 7
-121.013701 26.716216 18.019340 7
-106.041107 23.386809 27.153875 8
-97.480460 19.790694 32.430971 8
-94.207256 15.835376 34.532621 8
-91.863561 11.841208 36.086974 8
-90.295965 7.796686 37.187115 8
-89.534800 3.672180 37.815619 8
-89.580963 -0.559040 37.972976 8
-90.398170 -4.918017 37.682174 8
-92.235886 -9.471996 36.794977 8
-95.242606 -14.281219 35.224392 8
-100.019361 -19.497918 32.613249 8
-141.858503 30.281994 12.004463 7
-131.006995 26.324214 18.484725 7
-124.095559 22.280084 22.659433 7
-121.185988 18.017905 24.494598 7
-103.871347 15.268167 34.803252 8
-101.591502 11.204559 36.290979 8
-100.138058 7.083560 37.307323 8
-99.459643 2.885090 37.883289 8
-99.651348 -1.429844 37.964209 8
-100.751073 -5.895555 37.529253 8
-102.916924 -10.567933 36.487621 8
-124.643798 -18.736673 24.042510 7
-131.141880 -24.537752 20.522700 7
-141.343241 25.918834 18.967691 7
-134.430483 21.806927 23.045138 7
-132.012715 17.435087 24.560627 7
-128.168270 13.252660 26.907592 7
-125.472595 9.019782 28.610953 7
-124.000201 4.690622 29.629156 7
-123.697200 0.233031 29.994388 7
-124.604142 -4.396390 29.685120 7
-127.036546 -9.284911 28.523410 7
-131.499841 -14.564401 26.224150 7
-135.986536 -19.950716 23.933604 7
-146.874845 -26.624449 18.027511 7
-152.043189 25.499263 19.469189 7
-145.033580 21.324919 23.504079 7
-142.937975 16.858175 24.809621 7
-138.918364 12.621390 27.203956 7
-136.334999 8.306840 28.811815 7
-135.050048 3.885591 29.711360 7
-134.936495 -0.667019 29.974819 7
-136.189478 -5.415794 29.495363 7
-139.125916 -10.452274 28.099218 7
-144.425303 -15.940172 25.412487 7
-148.513943 -21.338696 23.420687 7
-147.647922 7.563144 29.005402 7
-146.476507 3.056115 29.832284 7
-146.647756 -1.605444 29.948031 7
-148.302146 -6.483403 29.278541 7
-149.999843 2.149338 -28.433646 7
-151.949047 20.717588 -22.732891 7
-149.161944 21.920388 -23.024589 7
-143.596365 14.013740 -26.527980 7
-149.999020 -8.375811 -27.338368 7
-147.758418 -4.125485 -26.678339 7
-151.957152 22.431723 -18.535348 7
-150.143657 26.834188 -17.745256 7
