ply
format ascii 1.0
element vertex 1367
property float x
property float y
property float z
property int scalar_Label
end_header
-114.285747 23.606530 20.897292 8
-112.583096 25.955297 20.618649 8
-110.815111 28.141464 20.356444 8
-108.828672 29.908037 20.122810 8
-106.542011 31.141909 19.922378 8
-103.701376 31.451915 19.772827 8
-100.710401 31.558203 19.638773 8
-97.616336 31.550727 19.515768 8
-94.568282 31.672816 19.392503 8
-91.435851 31.717330 19.278685 8
-88.274668 31.774740 19.170203 8
-85.082759 31.843172 19.067240 8
-81.842775 31.898607 18.970966 8
-78.579925 31.979571 18.879764 8
-75.246124 32.019306 18.796676 8
-71.886433 32.083834 18.718905 8
-68.456380 32.113944 18.649134 8
-67.804316 35.868240 18.426464 9
-66.114526 38.202576 18.272727 9
-65.876140 42.354630 18.049597 9
-63.547931 43.813418 17.948459 9
-61.290193 45.368006 17.850551 9
-59.014588 46.908053 17.760554 9
-56.740339 48.457844 17.677460 9
-54.439108 49.984996 17.602643 9
-51.907782 51.261416 17.545666 9
-49.079551 52.227558 17.509062 9
-45.844725 52.781915 17.497187 9
-42.204483 52.949925 17.509173 9
-38.325837 52.930526 17.536928 9
-34.382774 52.916101 17.572603 9
-30.325820 52.858766 17.618455 9
-26.263139 52.871198 17.669941 9
-22.083374 52.843472 17.731985 9
-17.825555 52.817991 17.803048 9
-13.430100 52.741386 17.885737 9
-9.048405 52.759407 17.973988 9
-4.622619 52.817427 18.070422 9
-0.313879 53.059881 18.168801 9
4.799193 52.673986 18.306169 9
9.705073 52.565814 18.442170 9
-0.776018 65.510529 17.979222 4
2.815568 66.429360 18.080870 1
7.572946 66.454298 18.235742 1
-6.315296 81.408436 17.670580 1
-7.045283 85.612073 17.628149 1
-10.410843 91.761473 17.490904 3
-9.169504 94.299437 17.540630 3
-4.473401 94.277636 17.732451 3
-2.965474 96.647741 17.807620 3
1.203968 97.126298 17.994479 3
10.214279 94.308555 18.379606 3
109.769367 29.959451 22.344254 5
131.173854 20.474594 23.257074 6
140.426379 19.459000 23.704850 6
-150.011869 0.757546 28.870725 7
-150.003873 8.395696 28.045875 7
-148.549988 11.879472 27.546772 7
-146.011071 12.461058 27.270728 7
-143.491354 13.110461 26.996429 7
-140.892793 13.586704 26.741153 7
-138.283692 14.065244 26.492132 7
-138.067293 20.069077 25.865946 7
-135.385417 20.304328 25.650779 7
-132.717096 20.609022 25.436823 7
-130.008851 20.865525 25.232151 7
-127.275643 21.109877 25.034284 7
-124.494861 21.298361 24.846095 7
-121.690319 21.483705 24.664069 7
-118.890903 21.723866 24.484503 7
-114.678344 19.318588 24.479773 8
-113.075065 21.928040 24.161155 8
-111.529972 24.585486 23.848519 8
-109.700996 26.678500 23.579825 8
-107.573032 28.216591 23.353463 8
-105.021010 29.021483 23.179383 8
-102.022057 29.101286 23.055994 8
-99.064964 29.302220 22.931487 8
-95.999768 29.378048 22.820780 8
-92.878548 29.419833 22.718399 8
-89.747779 29.502946 22.619956 8
-86.544720 29.532013 22.531167 8
-83.339888 29.616370 22.445716 8
-80.082076 29.680340 22.368134 8
-76.773719 29.730423 22.298139 8
-73.429351 29.789594 22.234516 8
-70.046528 29.855920 22.177502 8
-67.809263 31.520193 22.036665 9
-67.131125 35.237975 21.787035 9
-67.135507 39.761178 21.500094 9
-64.903894 41.343973 21.387691 9
-62.680968 42.942035 21.282039 9
-60.419840 44.498083 21.186381 9
-58.141103 46.039939 21.099159 9
-55.830028 47.551931 21.021277 9
-53.564351 49.126304 20.947549 9
-50.969055 50.335704 20.902195 9
-48.020446 51.174782 20.885700 9
-44.618809 51.556299 20.903304 9
-40.873328 51.623995 20.947203 9
-37.009920 51.634822 21.003063 9
-33.028010 51.593718 21.070881 9
-28.966629 51.545636 21.148350 9
-24.854257 51.521959 21.233913 9
-20.652227 51.486291 21.329967 9
-16.395607 51.475716 21.434625 9
-11.998861 51.411171 21.552894 9
-7.528058 51.359638 21.681144 9
-2.922724 51.268590 21.822911 9
1.776138 51.179894 21.976057 9
6.547291 51.115293 22.139619 9
11.475097 51.004435 22.318399 9
-3.667365 67.895765 21.422157 1
-3.584893 71.659917 21.360628 1
-3.605985 75.452586 21.302636 1
-4.015182 79.497516 21.232898 1
-5.388679 84.229402 21.120826 1
-7.864711 89.713636 20.959231 3
-7.921657 93.255961 20.934154 3
-4.599613 94.255233 21.095411 3
0.141873 94.274391 21.339202 3
4.976409 94.313829 21.595736 3
104.306277 28.674232 26.849133 5
141.164109 8.319361 28.821432 6
-122.075291 4.704397 29.626623 7
-119.854223 6.380228 29.316076 7
-117.312079 7.382095 29.066747 7
-115.631518 10.104486 28.691762 8
-114.501548 13.829366 28.249376 8
-113.145341 17.015937 27.858777 8
-111.755879 20.057095 27.489103 8
-110.169715 22.665056 27.161624 8
-108.222150 24.574529 26.895388 8
-105.846256 25.713292 26.694667 8
-102.976414 26.018299 26.563037 8
-99.938150 26.085402 26.455679 8
-96.909061 26.221017 26.349986 8
-93.781522 26.250364 26.258831 8
-90.659221 26.344237 26.169832 8
-87.455761 26.367713 26.092877 8
-84.260075 26.460785 26.017956 8
-80.997953 26.511544 25.953243 8
-77.712743 26.587091 25.894036 8
-74.360700 26.625718 25.844864 8
-70.940930 26.630207 25.805641 8
-67.783531 27.055625 25.744230 9
-67.765148 31.736748 25.389409 9
-66.423131 34.563743 25.174266 9
-65.987264 38.517471 24.887578 9
-63.777508 40.140428 24.773690 9
-61.590461 41.794752 24.665525 9
-59.376485 43.418937 24.567441 9
-57.111367 44.986433 24.481341 9
-54.882899 46.604333 24.399657 9
-52.497690 48.047672 24.338417 9
-49.839673 49.195490 24.306411 9
-46.752794 49.891595 24.315123 9
-43.148558 50.065502 24.370133 9
-39.282721 50.021496 24.450108 9
-35.347275 49.975651 24.539806 9
-31.340896 49.929220 24.639410 9
-27.288085 49.909651 24.747185 9
-23.083264 49.813065 24.871096 9
-18.870856 49.787477 25.000519 9
-14.524883 49.711017 25.144849 9
-10.099154 49.640003 25.300251 9
-5.584822 49.568959 25.467505 9
-0.894497 49.421647 25.652913 9
3.812554 49.347349 25.845379 9
8.689500 49.211430 26.055825 9
13.678941 49.069957 26.280387 9
-3.231921 67.478427 25.012772 1
-3.264902 71.334605 24.917398 1
-3.273183 75.111856 24.833528 1
-3.228878 78.791016 24.762782 1
40.448994 48.305951 27.631607 9
46.508280 47.908629 27.972079 9
81.718337 25.688888 30.266379 5
88.597361 25.333121 30.673888 5
95.791978 24.878887 31.112275 5
103.262819 24.365491 31.579319 5
-112.795935 -1.055779 33.145075 8
-113.070527 5.711621 32.382802 8
-112.496698 10.591931 31.803612 8
-111.474696 14.465162 31.325927 8
-110.201473 17.760488 30.910032 8
-108.467054 20.133883 30.585186 8
-106.439809 21.942403 30.318762 8
-103.596213 22.312723 30.186112 8
-100.554448 22.386343 30.086491 8
-97.470907 22.443556 29.995422 8
-94.366225 22.520738 29.909850 8
-91.211496 22.572215 29.833817 8
-87.985429 22.567930 29.769980 8
-84.736807 22.587893 29.711582 8
-81.461944 22.626974 29.659199 8
-78.162174 22.687883 29.612737 8
-74.772793 22.677611 29.580235 8
-67.790676 17.631748 29.982775 9
-67.893412 22.701382 29.535746 8
-67.765550 27.327298 29.135169 9
-65.921851 29.543918 28.947167 9
-66.729933 35.224863 28.474028 9
-64.639159 37.019093 28.338311 9
-62.488763 38.734212 28.217546 9
-60.265400 40.358705 28.112740 9
-58.105586 42.064682 28.009279 9
-55.970407 43.801876 27.911422 9
-53.656449 45.330468 27.839711 9
-51.189453 46.692333 27.790745 9
-48.400478 47.706392 27.780370 9
-45.097242 48.179200 27.825828 9
-41.193784 48.048033 27.933397 9
-37.288548 47.988539 28.044937 9
-33.308257 47.922315 28.167544 9
-29.260660 47.860260 28.300563 9
-25.103464 47.761897 28.447918 9
-20.883712 47.678679 28.605385 9
-16.626837 47.637408 28.770855 9
-12.202980 47.514092 28.955942 9
-7.695150 47.394255 29.153338 9
-3.066059 47.246285 29.366396 9
1.597658 47.153496 29.587795 9
6.424598 47.001538 29.828707 9
11.378187 46.828957 30.086095 9
16.478445 46.623173 30.361769 9
21.676490 46.430839 30.651806 9
27.033108 46.204684 30.961453 9
32.400667 46.070361 31.278767 9
38.007222 45.845046 31.622747 9
43.819018 45.564315 31.990776 9
92.255582 12.679650 35.817224 5
101.422381 10.706177 36.459452 5
-109.107816 -1.425306 36.474198 8
-109.749409 5.938477 35.592774 8
-109.048095 10.500312 35.010094 8
-107.706930 13.738662 34.572592 8
-105.857012 15.974474 34.246093 8
-103.239918 16.813653 34.068895 8
-100.240015 17.010378 33.964052 8
-97.232226 17.242088 33.863431 8
-94.148844 17.395713 33.778400 8
-91.029228 17.541740 33.701997 8
-87.851063 17.646718 33.637638 8
-84.641862 17.757855 33.580743 8
-81.378045 17.840416 33.534866 8
-78.072777 17.917666 33.497831 8
-74.723711 17.988295 33.469901 8
-71.300162 18.010230 33.455363 8
-67.812079 18.002283 33.452515 8
-67.779461 22.860503 32.979397 9
-65.979138 25.187845 32.764187 9
-67.177626 31.502272 32.164437 9
-65.240476 33.527519 31.995813 9
-63.099411 35.277474 31.862904 9
-60.934914 36.996106 31.741663 9
-58.825133 38.782783 31.622241 9
-56.720530 40.574130 31.510906 9
-54.570414 42.309969 31.413673 9
-52.219093 43.811362 31.348570 9
-49.597690 45.012576 31.322528 9
-46.622447 45.836279 31.343840 9
-42.832384 45.792569 31.463009 9
-38.952132 45.720153 31.595851 9
-34.971425 45.612013 31.743438 9
-30.901035 45.483898 31.904524 9
-26.828190 45.429471 32.069725 9
-22.551297 45.243181 32.260807 9
-18.288563 45.151912 32.454454 9
-13.896758 45.013485 32.665981 9
-9.385770 44.842807 32.894322 9
-4.802058 44.688366 33.134745 9
-0.118607 44.527412 33.390155 9
4.833519 44.210140 33.677631 9
9.770905 44.000955 33.968669 9
14.828238 43.779662 34.277025 9
20.045862 43.515829 34.606804 9
25.363453 43.266343 34.952208 9
30.913948 42.924238 35.326359 9
36.614084 42.566254 35.721260 9
42.437167 42.218772 36.134561 9
50.316638 40.372668 36.751048 9
-66.871896 -15.324951 40.728904 9
-67.758971 -8.172196 39.897021 9
-67.725654 -2.643583 39.257924 9
-67.821303 2.927850 38.624117 9
-67.718736 8.056420 38.049607 9
-67.794515 13.309144 37.470479 9
-67.758461 18.266579 36.933369 9
-66.211577 21.001825 36.654277 9
-67.132746 27.058062 36.010767 9
-65.204010 29.141917 35.821995 9
-63.312412 31.259429 35.638212 9
-61.242093 33.131406 35.490921 9
-59.247136 35.092774 35.342332 9
-57.147473 36.915990 35.218221 9
-55.142533 38.851836 35.090114 9
-52.902302 40.500642 35.003654 9
-50.490523 41.953449 34.948775 9
-47.581973 42.847470 34.967747 9
-39.025972 37.393743 35.733891 9
-40.294999 43.106541 35.214333 9
-36.309277 42.957829 35.387230 9
-32.256557 42.812415 35.571816 9
-28.031205 42.561734 35.781351 9
-23.757601 42.342403 36.000106 9
-19.420738 42.140322 36.230107 9
-14.948552 41.885736 36.480209 9
-10.429744 41.671008 36.739686 9
-5.763990 41.400820 37.020669 9
-1.035372 41.160428 37.313196 9
3.848019 40.866476 37.628182 9
8.879057 40.531640 37.964763 9
14.051693 40.166990 38.322260 9
19.317639 39.820015 38.695251 9
24.731938 39.446211 39.090169 9
30.296259 39.049497 39.507310 9
36.038610 38.611955 39.949936 9
41.944540 38.151757 40.416561 9
52.329865 34.231947 41.382875 9
-67.469812 -8.152103 43.658884 9
-61.655821 -5.893919 43.390693 9
-66.295281 6.354088 41.875409 9
-66.549335 11.879003 41.212958 9
-67.215327 17.839374 40.504244 9
-66.365727 21.536129 40.088840 9
-64.625633 23.945402 39.844559 9
-62.879639 26.319601 39.613696 9
-61.092962 28.615337 39.401711 9
-59.204944 30.759245 39.217953 9
-57.232300 32.781123 39.058739 9
-55.266524 34.801408 38.908764 9
-53.115357 36.586982 38.797994 9
-50.918425 38.317843 38.703544 9
-48.014110 39.222577 38.725628 9
-44.846812 39.858173 38.793235 9
-40.736882 39.473199 39.005588 9
-36.736366 39.291425 39.203844 9
-32.648652 39.090423 39.417405 9
-28.470830 38.870674 39.646628 9
-24.179443 38.611198 39.894778 9
-19.741823 38.283181 40.166286 9
-15.271369 38.007962 40.445258 9
-10.622003 37.640426 40.751947 9
-5.930707 37.322295 41.067519 9
-1.126110 36.985650 41.401822 9
3.700901 36.720274 41.742812 9
8.863240 36.236357 42.132060 9
14.115988 35.771425 42.536923 9
19.603540 35.199433 42.976310 9
37.413908 23.950955 45.004230 9
44.576852 22.349655 45.654910 9
-6.184797 136.080296 -207.030767 0
-10.138903 136.781866 -207.131765 0
-14.047393 136.843080 -207.183547 0
-17.964352 136.905786 -207.248432 0
-21.888993 136.957599 -207.325266 0
-25.816018 136.954709 -207.409821 0
-29.734623 136.825177 -207.495076 0
-33.666375 136.734417 -207.597240 0
-37.461191 135.714854 -207.621103 0
-6.229661 136.688825 -202.318099 0
-10.143517 136.769368 -202.354221 0
-14.064199 136.837849 -202.401845 0
-17.997035 136.939453 -202.464905 0
-21.927418 136.939289 -202.531832 0
-25.860768 136.895979 -202.607696 0
-29.798414 136.822952 -202.693689 0
-33.741937 136.731977 -202.790871 0
-37.568513 135.840246 -202.831035 0
-6.226613 136.721276 -197.557857 0
-10.148654 136.762656 -197.586421 0
-14.082874 136.851344 -197.630677 0
-18.021935 136.903351 -197.684397 0
-21.970555 136.960887 -197.750782 0
-25.914428 136.906990 -197.821092 0
-29.857252 136.785869 -197.898653 0
-33.817463 136.730245 -197.993512 0
-6.221197 136.725144 -192.802931 0
-10.154491 136.763624 -192.827097 0
-14.100071 136.850563 -192.866122 0
-18.052295 136.916951 -192.915667 0
-22.006750 136.925228 -192.973376 0
-25.965209 136.896400 -193.040617 0
-29.922736 136.797493 -193.115307 0
-33.887732 136.693860 -193.201662 0
-2.426398 138.702629 -188.151164 0
-6.216713 136.740125 -188.055169 0
-10.166346 136.829817 -188.077819 0
-14.123451 136.910836 -188.111420 0
-18.072698 136.841165 -188.148556 0
-22.042914 136.889836 -188.203377 0
-26.010006 136.840213 -188.264542 0
-29.984812 136.785187 -188.336972 0
-33.959450 136.668028 -188.417700 0
-2.207866 135.976634 -183.277353 0
-6.209071 136.717044 -183.310999 0
-10.173374 136.843827 -183.330389 0
-14.137471 136.879236 -183.357038 0
-18.103615 136.860462 -183.392502 0
-22.081282 136.873192 -183.440356 0
-26.062671 136.845233 -183.497653 0
-30.049672 136.793439 -183.565125 0
-34.037468 136.685236 -183.641446 0
-2.173512 135.742839 -178.543352 0
-6.206415 136.753892 -178.573461 0
-10.176239 136.812840 -178.585597 0
-14.157842 136.910218 -178.609525 0
-18.136300 136.895877 -178.640761 0
-22.124222 136.894829 -178.683099 0
-26.116322 136.858196 -178.735098 0
-30.111786 136.782356 -178.796679 0
-33.999041 135.919725 -178.844910 0
-2.153958 135.709270 -173.821496 0
-6.203031 136.781935 -173.838087 0
-10.182910 136.823076 -173.845407 0
-14.168608 136.846937 -173.862647 0
-18.158764 136.839475 -173.889571 0
-22.163192 136.883716 -173.927793 0
-26.165173 136.834452 -173.974580 0
-30.164566 136.704627 -174.030191 0
-34.039055 135.683260 -174.078819 0
-2.153831 135.939056 -169.104434 0
-6.197131 136.779683 -169.103839 0
-10.190752 136.846007 -169.107052 0
-14.181244 136.802130 -169.119266 0
-18.183999 136.808156 -169.141754 0
-22.202353 136.874333 -169.174639 0
-26.215431 136.821721 -169.216541 0
-30.234879 136.752874 -169.268298 0
-34.130614 135.793369 -169.322691 0
-2.192012 136.688939 -164.381372 0
-6.188751 136.747556 -164.370565 0
-10.196306 136.844192 -164.369071 0
-14.197888 136.796733 -164.377528 0
-18.210145 136.785104 -164.395358 0
-22.238792 136.842472 -164.422489 0
-26.268868 136.833489 -164.459400 0
-30.293501 136.717393 -164.506236 0
-2.176364 136.708742 -159.651870 0
-6.186314 136.786974 -159.636628 0
-10.197774 136.798188 -159.631407 0
-14.214205 136.788122 -159.635569 0
-18.243541 136.827159 -159.648121 0
-22.274173 136.801874 -159.670732 0
-26.311254 136.760411 -159.702734 0
-30.359956 136.737949 -159.743659 0
-2.161741 136.742554 -154.920086 0
-6.180441 136.785063 -154.901370 0
-10.198959 136.749114 -154.893320 0
-14.233096 136.804699 -154.891604 0
-18.266091 136.771737 -154.900860 0
-22.310957 136.772831 -154.917973 0
-26.367300 136.792033 -154.943385 0
-30.417191 136.692453 -154.980618 0
1.519561 142.307084 -150.011831 0
-2.141252 136.696809 -150.187824 0
-6.174334 136.780359 -150.163588 0
-10.208486 136.790215 -150.150319 0
-14.246148 136.763930 -150.146659 0
-18.297462 136.795351 -150.149180 0
-22.345381 136.724132 -150.163803 0
-26.417446 136.778180 -150.182181 0
-30.487244 136.738227 -150.212399 0
1.929025 136.365536 -145.498972 0
-2.127171 136.738346 -145.448594 0
-6.165459 136.742373 -145.423670 0
-10.210265 136.747493 -145.406556 0
-14.263496 136.765146 -145.396722 0
-18.320119 136.740618 -145.396810 0
-22.391943 136.775448 -145.401976 0
-26.467279 136.761627 -145.417426 0
-30.447949 136.004178 -145.476424 0
1.991925 135.828356 -140.795247 0
-2.106376 136.688822 -140.708826 0
-6.161867 136.768094 -140.675833 0
-10.215467 136.741721 -140.656533 0
-14.279435 136.752391 -140.642522 0
-18.350862 136.758114 -140.636299 0
-22.429024 136.748115 -140.638522 0
-26.516692 136.741459 -140.648089 0
-30.472235 135.723869 -140.724922 0
2.028992 135.694772 -136.069110 0
-2.094097 136.755478 -135.955861 0
-6.152271 136.721571 -135.926311 0
-10.221342 136.743133 -135.899925 0
-14.293286 136.718970 -135.883821 0
-18.376258 136.727376 -135.872515 0
-22.466060 136.720013 -135.869424 0
-26.564543 136.708880 -135.873727 0
-30.541767 135.765343 -135.950722 0
2.053014 135.765890 -131.322039 0
-2.073457 136.708678 -131.203293 0
-6.142122 136.668470 -131.171001 0
-10.224391 136.713920 -131.138388 0
-14.306887 136.682859 -131.118665 0
-18.404632 136.722907 -131.099821 0
-22.504858 136.705939 -131.092318 0
-26.619168 136.727407 -131.088393 0
1.863736 139.182123 -126.255891 3
-2.240399 139.219106 -126.206750 3
-6.348985 139.231374 -126.166157 3
-10.458559 139.181327 -126.137610 3
-14.580900 139.194655 -126.109478 3
-18.433284 136.720470 -126.318388 0
-22.543485 136.689876 -126.307023 0
-26.666736 136.691387 -126.298973 0
1.893019 139.176235 -121.457957 3
-2.223612 139.227070 -121.403668 3
-6.341091 139.206115 -121.362672 3
-10.461423 139.149528 -121.331240 3
-14.598397 139.195043 -121.295068 3
-18.739061 139.193846 -121.269625 3
-22.889191 139.198421 -121.249472 3
-27.046242 139.182355 -121.237373 3
1.922916 139.161737 -116.650178 3
-2.205079 139.211750 -116.592092 3
-6.336099 139.216009 -116.544691 3
-10.472321 139.204354 -116.504560 3
-14.615571 139.191887 -116.469969 3
-18.770701 139.215461 -116.436677 3
-22.928828 139.187259 -116.414820 3
-27.101600 139.201612 -116.393532 3
1.948287 139.219547 -111.821420 3
-2.186716 139.199333 -111.768278 3
-6.329346 139.204848 -111.716901 3
-10.478806 139.211354 -111.670412 3
-14.632844 139.189255 -111.632560 3
-18.798856 139.205270 -111.594911 3
-22.970586 139.192667 -111.565920 3
1.980883 139.164987 -106.993371 3
-2.167629 139.177686 -106.932562 3
-6.320838 139.172702 -106.878769 3
-10.481893 139.181491 -106.827666 3
-14.652462 139.209059 -106.778561 3
-18.825706 139.182730 -106.741481 3
-23.012603 139.199240 -106.703093 3
2.008470 139.190669 -102.139951 3
-2.154254 139.234826 -102.070907 3
-6.319723 139.229950 -102.013313 3
-10.491164 139.218195 -101.960901 3
-14.668399 139.192379 -101.914748 3
-18.855039 139.181546 -101.870521 3
-23.053254 139.193571 -101.827045 3
2.036840 139.205567 -97.271737 3
-2.133559 139.192688 -97.207894 3
-6.314917 139.242921 -97.137655 3
-10.497210 139.219872 -97.082886 3
-14.684553 139.177255 -97.034985 3
-18.886050 139.194442 -96.981201 3
-23.096171 139.205341 -96.932147 3
2.066038 139.209049 -92.387925 3
-2.114946 139.179862 -92.323562 3
-6.303348 139.174523 -92.258397 3
-10.502145 139.209342 -92.189609 3
-14.703591 139.189673 -92.133466 3
-18.915424 139.191810 -92.076850 3
-23.137424 139.202276 -92.022074 3
6.052269 143.566758 -86.765486 3
2.096596 139.192797 -87.489128 3
-2.098947 139.203723 -87.414262 3
-6.302083 139.230741 -87.339286 3
-10.507565 139.203799 -87.277036 3
-14.719863 139.174438 -87.218072 3
-18.942739 139.169855 -87.157394 3
-23.176490 139.180016 -87.096832 3
6.327050 139.201550 -82.644815 3
2.125860 139.198885 -82.566530 3
-2.080660 139.197260 -82.490450 3
-6.297112 139.242542 -82.407632 3
-10.511578 139.182817 -82.347658 3
-14.739356 139.189924 -82.277048 3
-18.974868 139.189653 -82.210253 3
-23.221447 139.204545 -82.142867 3
6.369418 139.187794 -77.708078 3
2.155665 139.198425 -77.623973 3
-2.060837 139.170778 -77.549713 3
-6.289784 139.226181 -77.460274 3
-10.519428 139.202954 -77.388990 3
-14.757936 139.195736 -77.316334 3
-19.004533 139.186382 -77.246043 3
6.410719 139.197608 -72.744039 3
2.185277 139.203189 -72.657763 3
-2.045356 139.204928 -72.573826 3
-6.283327 139.220681 -72.488324 3
-10.527571 139.225953 -72.406584 3
-14.774343 139.179575 -72.337587 3
-19.036097 139.198759 -72.255740 3
6.454192 139.170343 -67.764387 3
2.216555 139.183802 -67.673069 3
-2.028557 139.222233 -67.577062 3
-6.272220 139.159348 -67.505336 3
-10.528543 139.171296 -67.417454 3
-14.791030 139.165307 -67.334699 3
-19.068550 139.217715 -67.239494 3
6.554254 138.078501 -63.016360 3
2.301539 138.312782 -62.868705 3
-1.958890 138.514877 -62.729291 3
-6.223512 138.644145 -62.607935 3
-10.501478 138.814041 -62.477261 3
-14.785886 138.937654 -62.358241 3
-19.075730 139.011111 -62.251827 3
6.892148 132.487820 -59.403246 3
2.675145 132.847731 -59.219084 3
-1.561717 133.308300 -59.009415 3
-5.808992 133.709263 -58.814726 3
-10.071600 134.114142 -58.618946 3
-14.351218 134.530122 -58.420233 3
-18.651036 134.975167 -58.214003 3
7.248556 126.529603 -55.991498 3
3.077822 126.909647 -55.795885 3
-1.109048 127.334072 -55.587995 3
-5.307222 127.718716 -55.390083 3
-9.519816 128.101364 -55.192134 3
-13.755954 128.563409 -54.972522 3
-18.001613 128.952105 -54.771756 3
7.596618 120.711846 -52.653592 3
3.471900 121.097990 -52.449925 3
-0.665249 121.476227 -52.247457 3
-4.818303 121.881850 -52.036398 3
-8.984177 122.264061 -51.830785 3
-13.165373 122.646202 -51.624138 3
-17.361486 123.017461 -51.419434 3
7.935962 115.042458 -49.382004 3
3.856175 115.432422 -49.170785 3
-0.232699 115.767731 -48.973900 3
-4.338117 116.148938 -48.762312 3
-8.454926 116.497027 -48.558812 3
-12.590889 116.889357 -48.341006 3
-16.736148 117.219666 -48.139620 3
8.269162 109.473248 -46.185662 3
4.236457 109.820585 -45.980754 3
0.191425 110.169982 -45.773357 3
-3.869700 110.556782 -45.552804 3
-7.942120 110.908558 -45.340858 3
-12.028892 111.257589 -45.127784 3
-16.125706 111.559387 -44.926982 3
8.595339 104.021647 -43.055313 3
4.608392 104.332365 -42.855862 3
0.607072 104.683880 -42.641356 3
-3.406315 105.023948 -42.428094 3
-7.435296 105.385872 -42.205616 3
-11.477584 105.733268 -41.985286 3
-15.533745 106.068013 -41.766494 3
8.915429 98.670443 -39.992097 3
4.970709 98.988613 -39.784674 3
1.011610 99.345952 -39.561789 3
-2.959842 99.694198 -39.339083 3
-6.943792 100.029500 -39.117785 3
-10.939804 100.343826 -38.900488 3
-14.948497 100.641304 -38.685829 3
-18.979161 100.994850 -38.449969 3
9.228829 93.431809 -36.988088 3
5.325852 93.750622 -36.774795 3
1.411175 94.071811 -36.557547 3
-2.517950 94.418446 -36.328514 3
-6.457287 94.728221 -36.108702 3
-10.409904 95.034271 -35.886893 3
-14.375533 95.328278 -35.665870 3
-18.361895 95.669283 -35.425588 3
9.460725 89.743900 -33.536636 3
5.593154 89.914997 -33.368898 3
1.720066 90.044732 -33.212131 3
-2.167686 90.249961 -33.025416 3
-6.061781 90.407941 -32.851673 3
-9.971030 90.610721 -32.658615 3
-13.890593 90.796597 -32.467827 3
-17.818069 90.944023 -32.286859 3
9.575657 88.298800 -29.329135 3
5.722561 88.292081 -29.220876 3
1.856983 88.390197 -29.070779 3
-2.009501 88.404979 -28.946968 3
-5.883758 88.429755 -28.815606 3
-9.773186 88.525852 -28.654364 3
-13.667429 88.575799 -28.505858 3
-17.571779 88.627582 -28.352625 3
9.608570 88.436265 -24.527539 3
5.743972 88.408448 -24.424006 3
1.871278 88.430512 -24.297464 3
-2.003446 88.401251 -24.185822 3
-5.882856 88.358078 -24.075040 3
-9.777596 88.400878 -23.927539 3
-13.667754 88.324028 -23.820582 3
-17.559893 88.204186 -23.725379 3
-27.814834 34.635149 -43.246738 9
-31.188746 34.435804 -43.177954 9
-34.573587 34.249817 -43.100119 9
-37.966770 34.059281 -43.019977 9
-41.353552 33.794121 -42.964162 9
-44.784380 33.681658 -42.846090 9
-48.267319 33.731930 -42.661648 9
-51.101609 31.127057 -43.487516 9
55.031058 28.236135 -43.963021 9
51.930516 30.489479 -43.049131 9
48.605651 29.759564 -43.277734 9
45.461244 32.225272 -42.273452 9
41.561568 17.219256 -47.988579 9
38.380037 15.723495 -48.503519 9
35.243750 14.889963 -48.760226 9
32.124582 13.984674 -49.041249 9
29.023964 13.361082 -49.210319 9
25.935033 12.796146 -49.353333 9
22.857200 12.203642 -49.503557 9
19.791624 11.554630 -49.672202 9
16.733254 10.998693 -49.801460 9
13.676268 10.581702 -49.873494 9
10.630609 10.064798 -49.980709 9
7.593133 9.526026 -50.092932 9
4.561522 8.994568 -50.198854 9
1.528534 8.539685 -50.271556 9
-1.500199 8.078204 -50.343282 9
-4.528588 7.641196 -50.401933 9
-7.548888 7.155329 -50.476030 9
-10.560374 6.622182 -50.564998 9
-13.578335 6.153437 -50.625281 9
-16.602024 5.727498 -50.665216 9
-19.626628 5.303608 -50.700668 9
-22.637830 4.796827 -50.764879 9
-25.658626 4.340954 -50.805466 9
-28.671676 3.836983 -50.861202 9
-31.707336 3.435104 -50.873080 9
-34.735382 2.979517 -50.902244 9
-37.764143 2.511261 -50.932564 9
-40.805737 2.079794 -50.944500 9
-43.905424 1.857906 -50.869650 9
-47.424737 3.195703 -50.173156 9
-55.696058 21.762258 -42.640205 9
-58.977177 21.270638 -42.647282 9
-62.050687 20.048685 -42.940402 9
61.301303 23.882319 -41.706705 9
57.895282 22.040744 -42.401118 9
54.571625 20.675848 -42.902592 9
50.273552 5.274191 -48.974816 9
47.022204 1.679685 -50.356826 9
43.954421 0.166695 -50.908800 9
40.968910 -0.155245 -50.983821 9
37.997248 -0.302378 -50.985549 9
35.030081 -0.441084 -50.980105 9
32.066060 -0.622381 -50.987800 9
29.105903 -0.773357 -50.979599 9
26.148660 -0.947251 -50.976706 9
23.194878 -1.164166 -50.987148 9
20.242648 -1.338290 -50.976688 9
17.292303 -1.523534 -50.966819 9
14.343303 -1.713878 -50.955130 9
11.396982 -1.937605 -50.952931 9
8.452532 -2.177172 -50.953210 9
5.504079 -2.362482 -50.927864 9
2.558119 -2.587764 -50.914625 9
-0.383615 -2.863369 -50.917674 9
-3.334524 -3.062765 -50.886175 9
-6.277772 -3.345444 -50.884198 9
-9.225468 -3.606430 -50.869530 9
-12.175277 -3.870567 -50.852133 9
-15.132531 -4.106750 -50.819424 9
-18.082238 -4.414156 -50.811419 9
-21.048339 -4.647919 -50.769562 9
-24.011967 -4.924516 -50.740901 9
-26.976044 -5.225391 -50.717934 9
-29.952547 -5.492380 -50.677032 9
-32.916590 -5.846745 -50.667424 9
-35.896719 -6.154929 -50.634809 9
-38.892880 -6.425997 -50.582763 9
-41.882028 -6.758842 -50.551567 9
-44.992358 -6.660394 -50.339568 9
-48.432391 -5.423291 -49.656085 9
-52.575680 -1.871019 -48.016046 9
-58.729707 8.150932 -43.707114 9
-62.605856 9.965915 -42.758267 9
-65.104290 7.262339 -43.664934 9
66.298221 10.243162 -43.297129 9
63.557838 13.547871 -41.920563 9
60.126770 10.771662 -43.030277 9
56.433320 4.490785 -45.572336 9
52.930741 -1.115647 -47.835055 9
49.696217 -4.676808 -49.256330 9
46.634301 -6.697283 -50.042467 9
43.676137 -7.573471 -50.355530 9
40.765843 -7.786421 -50.392479 9
37.865422 -7.882067 -50.377198 9
34.968260 -7.977575 -50.357763 9
32.073570 -8.093790 -50.342742 9
29.181426 -8.211251 -50.324134 9
26.291902 -8.388507 -50.326035 9
23.403014 -8.466593 -50.282999 9
20.516415 -8.616656 -50.265484 9
17.629999 -8.747188 -50.235787 9
14.745212 -8.908982 -50.214845 9
11.860997 -9.078390 -50.192900 9
8.973050 -9.200394 -50.147192 9
6.088667 -9.388058 -50.124442 9
3.200353 -9.544916 -50.084741 9
0.313012 -9.733232 -50.053844 9
-2.579407 -9.896234 -50.008201 9
-5.473798 -10.069971 -49.962729 9
-8.364252 -10.300111 -49.936404 9
-11.263756 -10.489028 -49.888623 9
-14.165144 -10.694857 -49.843527 9
-17.067309 -10.924601 -49.804027 9
-19.973311 -11.160053 -49.762514 9
-22.895057 -11.339978 -49.693342 9
-25.808583 -11.597279 -49.652046 9
-28.727351 -11.858610 -49.607947 9
-31.667593 -12.052328 -49.530918 9
-34.599481 -12.320032 -49.480344 9
-37.549312 -12.545484 -49.407348 9
-40.494646 -12.825636 -49.352695 9
-43.476063 -13.002042 -49.249496 9
-46.642342 -12.547278 -48.874330 9
-50.115447 -11.109968 -48.076928 9
-54.192454 -7.801906 -46.478083 9
-58.716682 -3.339927 -44.378395 9
-62.682677 -1.002333 -43.171423 9
-67.380932 3.330436 -41.103778 9
-88.315207 13.676600 -35.444024 8
-90.707862 10.709952 -36.455952 8
-93.586925 9.028043 -36.910568 8
-96.617976 7.732574 -37.193811 8
-99.686817 6.528248 -37.432863 8
-102.835352 5.499554 -37.590610 8
-106.635096 5.871323 -37.131810 8
65.890189 5.426131 -41.418603 9
62.272217 0.680992 -43.405503 9
59.035256 -1.409285 -44.266104 9
55.672800 -5.366437 -45.911869 9
52.440320 -8.807819 -47.335777 9
49.354560 -11.271691 -48.342470 9
46.386828 -12.719248 -48.915269 9
43.493099 -13.377471 -49.149906 9
40.637760 -13.498640 -49.152888 9
37.788352 -13.569063 -49.130009 9
34.940357 -13.702332 -49.129393 9
32.096248 -13.796539 -49.107851 9
29.254245 -13.883187 -49.078718 9
26.413510 -13.957611 -49.039999 9
23.574535 -14.089945 -49.021478 9
20.735706 -14.187318 -48.983695 9
17.897297 -14.296360 -48.946451 9
15.058332 -14.401928 -48.903290 9
12.221083 -14.551590 -48.874463 9
9.380064 -14.658065 -48.822764 9
6.540242 -14.804632 -48.783680 9
3.701110 -14.978447 -48.751741 9
0.853344 -15.086569 -48.687203 9
-1.991124 -15.256874 -48.644704 9
-4.838455 -15.428723 -48.598306 9
-7.697127 -15.543147 -48.522678 9
-10.544550 -15.771989 -48.491514 9
-13.397402 -15.988824 -48.450579 9
-16.261963 -16.161763 -48.386091 9
-19.132405 -16.334923 -48.316957 9
-22.003363 -16.540022 -48.256823 9
-24.890048 -16.698365 -48.171689 9
-27.771780 -16.918845 -48.108546 9
-30.664628 -17.122182 -48.033099 9
-33.571180 -17.302283 -47.942621 9
-36.476061 -17.528474 -47.867140 9
-39.389052 -17.758660 -47.788364 9
-42.316427 -17.971026 -47.696732 9
-45.333919 -17.894649 -47.473851 9
-48.590787 -17.043749 -46.906575 9
-52.218615 -15.065521 -45.838533 9
-56.208813 -12.114062 -44.334633 9
-60.306214 -9.094258 -42.790189 9
-63.243900 -9.843039 -42.894683 9
-66.095420 -10.853278 -43.109588 9
-73.218498 0.203078 -37.985070 8
-76.356413 -0.398342 -37.999151 8
-79.525335 -0.943683 -37.982668 8
-82.707103 -1.486675 -37.959284 8
-85.904862 -2.021683 -37.926391 8
-89.101407 -2.593032 -37.903675 8
-92.320782 -3.143055 -37.865327 8
-95.558550 -3.685615 -37.817403 8
-98.810306 -4.233064 -37.765329 8
-102.096030 -4.743703 -37.690211 8
-105.503793 -5.036743 -37.510101 8
-125.395882 20.389800 -25.312085 7
-129.147297 19.961679 -25.140425 7
-132.936009 19.550645 -24.952790 7
-136.753589 19.137549 -24.757715 7
-140.611962 18.741860 -24.546084 7
-139.308762 9.156625 -28.557146 7
-142.048472 6.926685 -29.187122 7
-145.153200 5.339638 -29.515467 7
-148.400645 3.983964 -29.730633 7
107.322659 6.438887 -36.806006 5
103.567863 4.399911 -37.750211 5
100.412610 4.585172 -37.717520 5
97.250298 4.695885 -37.711982 5
94.115113 4.878862 -37.669569 5
90.973513 4.989010 -37.653605 5
87.836239 5.071773 -37.644287 5
84.712921 5.177056 -37.619882 5
81.584375 5.205008 -37.623940 5
78.461796 5.211648 -37.632062 5
75.349877 5.226743 -37.631301 5
72.247740 5.250586 -37.621552 5
67.229474 -8.878609 -43.774280 9
64.379632 -8.145939 -43.445781 9
61.486317 -7.715012 -43.243851 9
58.418454 -8.925733 -43.752632 9
55.222074 -11.829395 -44.994896 9
52.114394 -14.453499 -46.110985 9
49.113994 -16.415202 -46.933946 9
46.205920 -17.612865 -47.419292 9
43.361806 -18.121422 -47.599482 9
40.547006 -18.240530 -47.605083 9
37.737743 -18.320507 -47.588947 9
34.932431 -18.352439 -47.547153 9
32.127387 -18.485859 -47.545058 9
29.325310 -18.553473 -47.509526 9
26.524313 -18.628043 -47.472353 9
23.723883 -18.700705 -47.429653 9
20.925602 -18.843378 -47.412936 9
18.124512 -18.895041 -47.351613 9
15.326342 -19.033473 -47.323627 9
12.526042 -19.141909 -47.277744 9
9.724535 -19.253866 -47.228650 9
6.919848 -19.350846 -47.168183 9
4.114447 -19.470447 -47.112862 9
1.307112 -19.599459 -47.056861 9
-1.503223 -19.730889 -46.997075 9
-4.314313 -19.886742 -46.943197 9
-7.130902 -20.030391 -46.879028 9
-9.948560 -20.198876 -46.820913 9
-12.777353 -20.326422 -46.739693 9
-15.601494 -20.518996 -46.682295 9
-18.432098 -20.705586 -46.617224 9
-21.277124 -20.848087 -46.527467 9
-24.123758 -21.021077 -46.446130 9
-26.970706 -21.228936 -46.375169 9
-29.829910 -21.415195 -46.289365 9
-32.696439 -21.606886 -46.200716 9
-35.578120 -21.773591 -46.095543 9
-38.460905 -21.976542 -46.001213 9
-41.353641 -22.180215 -45.901769 9
-44.292195 -22.256735 -45.739564 9
-47.402986 -21.782289 -45.323084 9
-50.786300 -20.484840 -44.528041 9
-54.533517 -18.161621 -43.260549 9
-57.790956 -17.588231 -42.776468 9
-60.604302 -18.450195 -42.937135 9
-63.414922 -19.320915 -43.096819 9
-67.539763 -16.491765 -41.564084 9
-73.989662 -7.560507 -37.230805 8
-77.129846 -7.989653 -37.160299 8
-80.298972 -8.381040 -37.066098 8
-83.477013 -8.789853 -36.973368 8
-86.685580 -9.164443 -36.858246 8
-89.892172 -9.585985 -36.758016 8
-93.110272 -10.021844 -36.657597 8
-96.358097 -10.432426 -36.538537 8
-99.615706 -10.864797 -36.422525 8
-102.910011 -11.262659 -36.283243 8
-106.421788 -11.260518 -35.949486 8
-114.090263 -3.030479 -31.748869 8
-119.300382 -0.062707 -29.993087 7
-122.648822 -0.843501 -29.987866 7
-126.030557 -1.595782 -29.961760 7
-129.466640 -2.285425 -29.898327 7
-132.927031 -2.971750 -29.825365 7
-136.384919 -3.703119 -29.765761 7
-139.899630 -4.378528 -29.671212 7
-143.444210 -5.048071 -29.565333 7
-147.029317 -5.697010 -29.440810 7
116.431584 14.201237 -29.131184 5
108.403204 -2.637289 -36.797155 5
104.745069 -4.496096 -37.701822 5
101.638828 -4.409746 -37.724144 5
98.542356 -4.335672 -37.746287 5
95.462542 -4.243012 -37.754405 5
92.393427 -4.152757 -37.757988 5
89.324975 -4.109582 -37.777155 5
86.269248 -4.057561 -37.786790 5
83.232211 -3.960253 -37.770556 5
80.190476 -3.936492 -37.781880 5
77.160195 -3.900508 -37.782249 5
74.130369 -3.915471 -37.800063 5
71.117314 -3.877205 -37.788554 5
66.724227 -13.992800 -42.332106 9
63.438257 -17.076855 -43.712410 9
60.753883 -15.572758 -43.026823 9
57.915565 -15.289017 -42.884214 9
54.898304 -16.890066 -43.583323 9
51.870576 -19.069580 -44.537590 9
48.930214 -20.737174 -45.257151 9
46.069309 -21.754318 -45.679642 9
43.261802 -22.217772 -45.848388 9
40.481894 -22.314221 -45.847171 9
37.707868 -22.346509 -45.812135 9
34.934735 -22.427164 -45.793918 9
32.164264 -22.484076 -45.760054 9
29.395121 -22.570707 -45.734622 9
26.627235 -22.640077 -45.696443 9
23.860255 -22.729039 -45.662124 9
21.092497 -22.780015 -45.605665 9
18.326405 -22.895545 -45.573359 9
15.558445 -22.977890 -45.521041 9
12.790649 -23.085800 -45.475253 9
10.021514 -23.194979 -45.424992 9
7.249646 -23.294762 -45.365398 9
4.477978 -23.425834 -45.314899 9
1.698537 -23.507055 -45.236643 9
-1.076500 -23.663937 -45.187609 9
-3.860491 -23.774589 -45.112379 9
-6.647526 -23.897791 -45.037637 9
-9.434952 -24.052956 -44.972221 9
-12.240650 -24.122921 -44.862621 9
-15.030591 -24.331187 -44.810866 9
-17.836831 -24.475797 -44.724667 9
-20.643471 -24.655100 -44.648957 9
-23.461593 -24.810872 -44.557017 9
-26.285445 -24.977007 -44.464331 9
-29.125644 -25.106722 -44.349323 9
-31.954568 -25.326950 -44.270386 9
-34.805556 -25.490791 -44.159806 9
-37.651502 -25.714837 -44.071326 9
-40.523311 -25.877368 -43.948618 9
-43.415230 -26.009019 -43.805688 9
-46.438703 -25.727844 -43.464832 9
-49.221042 -26.331169 -43.529089 9
-52.691262 -24.726565 -42.557879 9
-56.430573 -22.454393 -41.265335 9
-59.561554 -22.223994 -40.918219 9
-62.342448 -23.083720 -41.075366 9
-65.870941 -21.844883 -40.240509 9
-72.287566 -12.886242 -35.759007 8
-75.420238 -13.199599 -35.630128 8
-78.558633 -13.540876 -35.507524 8
-81.728673 -13.845372 -35.360485 8
-84.897106 -14.198419 -35.229336 8
-88.081240 -14.557439 -35.093825 8
-91.285001 -14.915021 -34.950308 8
-94.505566 -15.279544 -34.802658 8
-97.756519 -15.623205 -34.637418 8
-101.025479 -15.975613 -34.468614 8
-104.316226 -16.330387 -34.293051 8
-108.198572 -15.555523 -33.562933 8
-115.769382 -7.730539 -29.401411 8
-119.474766 -7.672643 -28.987662 7
-122.891576 -8.219860 -28.859095 7
-126.358788 -8.720342 -28.699112 7
-129.845476 -9.233804 -28.536635 7
-133.359166 -9.748451 -28.365722 7
-136.928215 -10.218675 -28.163652 7
-140.470621 -10.784023 -27.999147 7
-144.079752 -11.290555 -27.795922 7
-147.743522 -11.763220 -27.565904 7
149.585471 0.348774 -29.996507 6
146.289819 0.758236 -29.964672 6
142.964743 1.051269 -29.980449 6
139.701234 1.458328 -29.935904 6
136.404359 1.735330 -29.945382 6
133.136912 2.047600 -29.931569 6
129.898314 2.399414 -29.892591 6
126.661201 2.715412 -29.863695 6
123.432965 3.017133 -29.834871 6
120.217797 3.318963 -29.799466 6
115.987653 0.200295 -31.348390 5
110.791499 -6.564723 -34.583439 5
106.706582 -9.936831 -36.232157 5
103.485455 -10.412961 -36.528484 5
100.425092 -10.361241 -36.573562 5
97.397358 -10.230716 -36.576070 5
94.360687 -10.185058 -36.611970 5
91.348451 -10.084028 -36.616281 5
88.338542 -10.020150 -36.631927 5
85.337827 -9.962033 -36.644395 5
82.331869 -9.982952 -36.687637 5
79.354282 -9.906592 -36.680062 5
76.382712 -9.842798 -36.672558 5
73.407176 -9.853104 -36.693619 5
70.442390 -9.849774 -36.702669 5
66.159814 -19.500086 -41.172043 9
63.060755 -21.479942 -42.087263 9
60.312479 -20.855745 -41.792371 9
57.527019 -20.513996 -41.622729 9
54.508142 -22.604708 -42.573291 9
51.548640 -24.567415 -43.459575 9
48.682918 -25.875235 -44.037758 9
45.960615 -25.416842 -43.793106 9
43.185507 -25.824315 -43.944139 9
40.437008 -25.864619 -43.919901 9
37.690403 -25.928441 -43.901316 9
34.946354 -25.994217 -43.878395 9
32.204785 -26.026449 -43.834665 9
29.464024 -26.095066 -43.802556 9
26.724183 -26.148550 -43.758157 9
23.984886 -26.219373 -43.716535 9
21.245509 -26.286993 -43.668137 9
18.506281 -26.372929 -43.622959 9
15.767272 -26.478025 -43.581391 9
13.026235 -26.564875 -43.526000 9
10.282383 -26.638154 -43.458921 9
7.540332 -26.765646 -43.411761 9
4.791223 -26.839720 -43.334260 9
2.047552 -27.002693 -43.292889 9
-0.710097 -27.064671 -43.198820 9
-3.467903 -27.166695 -43.117984 9
-6.222744 -27.326630 -43.058783 9
-8.988537 -27.440384 -42.972367 9
-11.648950 -28.263868 -43.214155 9
-14.418670 -28.381210 -43.118566 9
-17.194000 -28.505457 -43.020541 9
-19.972687 -28.650498 -42.926600 9
-22.760317 -28.787980 -42.823319 9
-25.550948 -28.950169 -42.725904 9
-28.351629 -29.104357 -42.618835 9
-31.158341 -29.271626 -42.512044 9
-33.979139 -29.419694 -42.390138 9
-36.802455 -29.599032 -42.277047 9
-39.639773 -29.764915 -42.151429 9
-42.482623 -29.951947 -42.029716 9
-45.325050 -30.180660 -41.921710 9
-48.044023 -30.859753 -42.023485 9
-50.157384 -33.494367 -43.059507 9
-53.434060 -32.384986 -42.290792 9
-57.046593 -30.400468 -41.090894 9
-60.754699 -28.328100 -39.837642 9
-64.531298 -26.255909 -38.573130 9
-70.969452 -17.150669 -33.882794 8
-74.077018 -17.427222 -33.729914 8
-77.194913 -17.721575 -33.578336 8
-80.325295 -18.028887 -33.425629 8
-83.468648 -18.348926 -33.271597 8
-86.636036 -18.656823 -33.103942 8
-89.828695 -18.952813 -32.922599 8
-93.035843 -19.263691 -32.740601 8
-96.272743 -19.557514 -32.542053 8
-99.501826 -19.916191 -32.367363 8
-102.770392 -20.240399 -32.167224 8
-106.209042 -20.275623 -31.814377 8
-111.103268 -17.559085 -30.075515 8
-117.279289 -12.625221 -27.206546 7
-120.696097 -13.077869 -27.022907 7
-124.180107 -13.457551 -26.793195 7
-127.668061 -13.882428 -26.576684 7
-131.167093 -14.339217 -26.366629 7
-134.727532 -14.743607 -26.120011 7
-138.298309 -15.184755 -25.881912 7
-141.915310 -15.604987 -25.622699 7
-145.548425 -16.054873 -25.368039 7
-149.255197 -16.446758 -25.072553 7
147.102206 -6.754009 -29.235857 6
143.817239 -6.497279 -29.283791 6
140.552745 -6.237983 -29.323068 6
137.295002 -6.009473 -29.369875 6
134.046406 -5.805891 -29.421431 6
130.814210 -5.607086 -29.468087 6
127.594161 -5.423376 -29.514884 6
124.412703 -5.175100 -29.523620 6
121.213450 -5.026830 -29.573433 6
116.869368 -8.589096 -31.395496 5
113.532074 -9.142121 -31.766129 5
109.129857 -13.466968 -33.935383 5
105.624734 -14.985128 -34.752260 5
102.550143 -15.082192 -34.882200 5
99.541619 -14.989121 -34.914788 5
96.551245 -14.872253 -34.929679 5
93.550307 -14.847556 -34.982300 5
90.570060 -14.786003 -35.011070 5
87.606885 -14.695764 -35.019958 5
84.645403 -14.644999 -35.041517 5
81.687994 -14.624594 -35.071423 5
78.747452 -14.565620 -35.076854 5
75.809515 -14.540919 -35.092562 5
72.876009 -14.542003 -35.114525 5
69.958259 -14.494051 -35.107130 5
65.812319 -23.393917 -39.355172 9
62.744934 -25.367249 -40.298352 9
59.726633 -27.332679 -41.232065 9
56.767097 -29.190070 -42.108762 9
53.964139 -29.874817 -42.421463 9
51.022545 -32.409260 -43.609895 9
48.444196 -30.847656 -42.841502 9
45.816337 -29.599845 -42.216817 9
43.091394 -29.725892 -42.241259 9
40.376601 -29.732780 -42.203369 9
37.662775 -29.769752 -42.174289 9
34.950523 -29.827605 -42.149642 9
32.240531 -29.857935 -42.106321 9
29.531261 -29.954844 -42.089259 9
26.823057 -29.985290 -42.034899 9
24.115549 -30.064905 -41.998482 9
21.407226 -30.109863 -41.939918 9
18.698860 -30.179596 -41.887618 9
15.990594 -30.272242 -41.840696 9
13.282924 -30.393022 -41.801661 9
10.571986 -30.483449 -41.742441 9
7.883786 -30.877055 -41.823238 9
5.254990 -31.870741 -42.187212 9
2.652480 -32.966377 -42.595387 9
0.058186 -33.981714 -42.960112 9
-2.545558 -34.799551 -43.224758 9
-5.227105 -34.965392 -43.169542 9
-7.925602 -35.041948 -43.065445 9
-10.630528 -35.118149 -42.955320 9
-13.335419 -35.236074 -42.859510 9
-16.044570 -35.367321 -42.764255 9
-18.767470 -35.462518 -42.645535 9
-21.482547 -35.638328 -42.559989 9
-24.218315 -35.749904 -42.437139 9
-26.960111 -35.875529 -42.314989 9
-29.706087 -36.023793 -42.197701 9
-32.449845 -36.220406 -42.097843 9
-35.213429 -36.375059 -41.971174 9
-37.983686 -36.544815 -41.845545 9
-40.766845 -36.707716 -41.710110 9
-43.554455 -36.896121 -41.580720 9
-46.403306 -36.920014 -41.363516 9
-49.389995 -36.553607 -40.946233 9
-52.584475 -35.624028 -40.241930 9
-56.072418 -33.935832 -39.151698 9
-59.718199 -31.960301 -37.907595 9
-63.428784 -29.989069 -36.653910 9
-67.263571 -27.864437 -35.311513 9
-72.952323 -21.067678 -31.615635 8
-76.053838 -21.322124 -31.436841 8
-79.161964 -21.605966 -31.264905 8
-82.320454 -21.813892 -31.046661 8
-85.503049 -22.015543 -30.816910 8
-88.711964 -22.208522 -30.574258 8
-91.967164 -22.351697 -30.297599 8
-95.238010 -22.516780 -30.023114 8
-98.528862 -22.695073 -29.746269 8
-101.823460 -22.920681 -29.484411 8
-105.189126 -23.058888 -29.168313 8
-109.043270 -22.313285 -28.386866 8
-115.245849 -17.253200 -25.362140 8
-119.045501 -16.916561 -24.760254 7
-120.999295 -19.970490 -25.909864 7
-124.471386 -20.294416 -25.633538 7
-127.972605 -20.622938 -25.349151 7
-131.492457 -20.975371 -25.066630 7
-135.045945 -21.327772 -24.773231 7
-138.644593 -21.663947 -24.460128 7
-142.244790 -22.055051 -24.164727 7
-147.994716 -19.229849 -22.144407 7
148.768604 -11.945021 -27.490832 6
145.480464 -11.759451 -27.591176 6
142.218994 -11.561989 -27.677605 6
138.982816 -11.352735 -27.750303 6
135.739838 -11.211897 -27.849246 6
132.545516 -10.994577 -27.902514 6
129.356903 -10.810129 -27.964538 6
126.178769 -10.645794 -28.029037 6
123.012163 -10.498113 -28.094359 6
119.866389 -10.337807 -28.146095 6
115.542915 -13.975698 -30.065843 5
111.204315 -17.997388 -32.164571 5
108.123937 -18.074833 -32.308833 5
104.831735 -18.972943 -32.850304 5
101.828130 -18.931848 -32.922001 5
98.847407 -18.856569 -32.970122 5
95.876389 -18.793028 -33.017335 5
92.914552 -18.742199 -33.064165 5
89.968176 -18.675025 -33.096385 5
87.034223 -18.600093 -33.118270 5
84.102035 -18.565385 -33.153415 5
81.179090 -18.535482 -33.184465 5
78.273800 -18.461392 -33.187435 5
75.369698 -18.427450 -33.203724 5
72.473346 -18.396882 -33.215325 5
69.578852 -18.405697 -33.239916 5
65.520958 -26.857772 -37.395628 9
62.500249 -28.673016 -38.292572 9
59.525986 -30.475202 -39.177054 9
56.598074 -32.254796 -40.044548 9
53.729076 -33.866893 -40.824178 9
50.928143 -35.135271 -41.429680 9
48.193464 -35.931138 -41.797952 9
45.505301 -36.319657 -41.960883 9
42.846519 -36.369452 -41.952026 9
40.193007 -36.375634 -41.916032 9
37.540497 -36.409271 -41.887755 9
34.889436 -36.465355 -41.864752 9
32.240321 -36.517089 -41.833868 9
29.592505 -36.552840 -41.789378 9
26.945130 -36.592837 -41.741205 9
24.298527 -36.674808 -41.707902 9
21.650584 -36.701411 -41.641569 9
19.004348 -36.804647 -41.607166 9
16.354909 -36.850923 -41.538888 9
13.706950 -36.954547 -41.493050 9
11.056202 -37.038408 -41.431616 9
8.401325 -37.100350 -41.353468 9
5.744606 -37.178243 -41.277281 9
3.085127 -37.263592 -41.198836 9
0.417754 -37.314181 -41.097181 9
-2.240848 -37.476715 -41.045017 9
-4.918405 -37.524398 -40.929822 9
-7.595098 -37.621691 -40.833149 9
-10.276761 -37.724890 -40.733273 9
-12.961663 -37.846564 -40.636420 9
-15.657007 -37.946267 -40.522381 9
-18.355735 -38.068086 -40.413093 9
-21.065583 -38.172744 -40.288878 9
-23.768829 -38.349593 -40.194431 9
-26.492366 -38.469671 -40.065097 9
-29.220425 -38.611202 -39.940012 9
-31.963773 -38.729755 -39.796774 9
-34.706702 -38.892262 -39.669017 9
-37.479728 -38.981170 -39.497362 9
-40.254553 -39.109553 -39.338777 9
-43.025199 -39.295758 -39.202581 9
-45.821533 -39.436115 -39.036165 9
-48.796180 -39.048729 -38.593947 9
-51.869187 -38.439178 -38.030115 9
-55.274161 -36.935947 -37.000541 9
-58.882436 -35.002773 -35.739724 9
-62.526214 -33.153070 -34.509536 9
-66.244133 -31.277987 -33.253933 9
-72.310679 -23.433450 -28.907260 8
-75.396113 -23.685756 -28.718265 8
-78.500076 -23.938074 -28.520906 8
-81.607060 -24.229515 -28.335355 8
-84.749222 -24.484155 -28.122079 8
-87.903966 -24.758078 -27.910054 8
-91.086632 -25.018084 -27.681820 8
-94.291548 -25.279433 -27.445157 8
-98.896694 -22.679593 -25.693362 8
-100.804781 -25.739536 -26.910681 8
-104.095967 -25.979322 -26.634019 8
-107.712414 -25.646478 -26.043391 8
-112.842951 -22.556093 -23.972320 8
-117.698905 -20.185571 -22.264312 7
-119.807660 -22.902234 -23.262697 7
-123.273671 -23.193039 -22.954392 7
-126.795907 -23.443655 -22.613287 7
-130.314620 -23.758361 -22.295342 7
-133.834043 -24.128070 -21.995708 7
-137.416668 -24.452007 -21.659494 7
-141.082494 -24.704379 -21.272035 7
-144.768128 -24.988363 -20.889244 7
-148.459750 -25.324679 -20.522413 7
147.522425 -15.946344 -25.421040 6
144.269793 -15.761610 -25.532645 6
141.051012 -15.547142 -25.620598 6
137.821988 -15.408936 -25.739365 6
134.627703 -15.235070 -25.831662 6
131.440276 -15.094441 -25.932864 6
128.283756 -14.921465 -26.009552 6
125.137860 -14.768452 -26.088543 6
122.003644 -14.631930 -26.168132 6
118.887712 -14.491000 -26.237753 6
114.433079 -18.643651 -28.481379 5
110.183851 -22.492487 -30.559280 5
106.716640 -24.027456 -31.452730 5
103.685970 -24.192725 -31.643458 5
100.740893 -24.112523 -31.702574 5
97.808135 -24.035037 -31.756029 5
94.883121 -23.976313 -31.811998 5
91.963376 -23.946562 -31.875685 5
89.066580 -23.868843 -31.908250 5
86.572939 -21.964833 -31.011805 5
83.673962 -21.898856 -31.037127 5
80.779795 -21.856852 -31.067774 5
77.891528 -21.833646 -31.101164 5
75.022053 -21.754004 -31.099395 5
72.142002 -21.785278 -31.146886 5
69.283762 -21.731489 -31.144860 5
65.286234 -29.894619 -35.277153 9
62.304963 -31.575231 -36.135562 9
59.365891 -33.255440 -36.987346 9
56.467003 -34.947474 -37.838811 9
53.622264 -36.504199 -38.615955 9
