ply
format ascii 1.0
element vertex 1397
property float x
property float y
property float z
property int scalar_Label
end_header
48.662573 -34.854636 42.656420 9
46.136582 -35.308938 42.628571 9
43.638666 -35.463361 42.660190 9
41.157334 -35.366617 42.741600 9
38.675422 -35.284309 42.818853 9
36.194532 -35.151906 42.905118 9
33.710597 -35.108255 42.972073 9
31.226765 -34.977724 43.055591 9
28.740570 -34.889616 43.129262 9
26.252676 -34.834520 43.194996 9
23.761955 -34.743156 43.266997 9
21.268707 -34.669781 43.334150 9
18.226854 -22.037664 45.982049 9
15.595720 -21.823517 46.078332 9
12.959113 -21.634407 46.168315 9
10.315823 -21.450327 46.256112 9
7.666172 -21.279315 46.340067 9
5.007293 -21.091608 46.426321 9
2.346110 -20.964393 46.498934 9
-0.336657 -20.714852 46.595694 9
-3.019665 -20.551177 46.673564 9
-5.722845 -20.307424 46.766884 9
-8.427623 -20.134527 46.844398 9
-11.150631 -19.912904 46.930887 9
-13.875417 -19.756146 47.002784 9
-16.616570 -19.571518 47.079331 9
-19.368747 -19.395903 47.152869 9
-22.130167 -19.240010 47.221164 9
-24.907253 -19.072033 47.290829 9
-27.689867 -18.943941 47.351040 9
-30.503829 -18.737353 47.426453 9
-33.319193 -18.593230 47.487695 9
-36.167928 -18.375216 47.563193 9
-39.011955 -18.244344 47.619348 9
-41.888139 -18.053622 47.686827 9
-45.260412 -16.128645 48.115525 9
28.115407 139.193414 83.722269 3
23.909135 139.204912 83.817461 3
19.701854 139.186413 83.904583 3
15.492351 139.177701 83.992263 3
11.278948 139.193020 84.083616 3
7.062138 139.195236 84.170597 3
2.838624 139.230500 84.263255 3
-1.385793 139.195127 84.339041 3
28.216895 139.212203 88.698903 3
23.999044 139.186395 88.786623 3
19.778683 139.225764 88.888096 3
15.557788 139.189828 88.971266 3
11.332668 139.197735 89.063365 3
7.104482 139.188515 89.150472 3
2.870981 139.193567 89.239787 3
28.319106 139.173375 93.687341 3
24.089000 139.197729 93.787691 3
19.857451 139.199278 93.881914 3
15.623510 139.203527 93.976140 3
11.387788 139.176320 94.062173 3
7.146045 139.200540 94.159962 3
2.900376 139.206070 94.252661 3
28.421689 139.181910 98.713373 3
24.179424 139.210344 98.815955 3
19.936993 139.156820 98.897710 3
15.690556 139.187933 99.000592 3
11.442155 139.179042 99.093231 3
7.189964 139.172305 99.186263 3
2.929932 139.218613 99.292566 3
28.524939 139.160361 103.759745 3
24.270521 139.210449 103.869288 3
20.014775 139.209788 103.965742 3
15.757917 139.173894 104.053185 3
11.496130 139.198035 104.156773 3
7.231761 139.188678 104.251840 3
2.962376 139.187855 104.349502 3
28.628695 139.170318 108.843813 3
24.362294 139.199222 108.949057 3
20.094247 139.209543 109.049936 3
15.824037 139.209683 109.148772 3
11.551322 139.196173 109.244622 3
7.275873 139.165888 109.336631 3
2.994713 139.161583 109.436627 3
33.010960 139.205261 113.869314 3
28.733063 139.191484 113.962397 3
24.454511 139.196981 114.062212 3
20.173972 139.219612 114.168177 3
15.892189 139.196012 114.262091 3
11.607900 139.169624 114.356452 3
7.318187 139.182226 114.463319 3
33.128315 139.197247 119.011992 3
28.838134 139.201133 119.110660 3
24.547515 139.178481 119.203074 3
20.254402 139.221114 119.316738 3
15.960859 139.179517 119.406899 3
11.663611 139.171685 119.508918 3
7.360622 139.201561 119.624023 3
33.227628 136.854744 123.462788 0
28.943930 139.199212 124.289762 0
24.640814 139.185929 124.385783 3
20.335535 139.215055 124.497212 3
16.029284 139.184574 124.592283 3
11.717825 139.217981 124.709520 3
7.404589 139.197260 124.812128 3
37.624205 136.129585 128.319792 0
33.344717 136.702056 128.599893 0
29.054796 136.717543 128.702786 0
24.764345 136.694815 128.795978 0
20.472507 136.688658 128.897204 0
16.178963 136.667899 128.996396 0
11.881422 136.678067 129.108330 0
7.577433 136.732426 129.237362 0
37.747596 135.696167 133.389363 0
33.463591 136.667602 133.810197 0
29.161515 136.683543 133.913905 0
24.858521 136.693564 134.018790 0
20.554325 136.681385 134.119399 0
16.247279 136.694097 134.231575 0
11.935738 136.733266 134.355890 0
7.623401 136.696715 134.457966 0
37.884283 135.923393 138.716751 0
33.583225 136.620820 139.054337 0
29.268985 136.671743 139.170891 0
24.953366 136.695283 139.281599 0
20.636575 136.682259 139.383262 0
16.316820 136.698197 139.498729 0
11.996382 136.647806 139.594788 0
7.667580 136.701543 139.730953 0
38.032928 136.707843 144.291052 0
33.704856 136.693170 144.380948 0
29.377249 136.691628 144.479731 0
25.049650 136.633967 144.562449 0
20.719686 136.672607 144.684103 0
16.386995 136.699364 144.805708 0
12.053285 136.662007 144.908400 0
7.750660 135.964110 144.776361 0
38.167591 136.702247 149.633139 0
33.826561 136.666541 149.714982 0
29.486421 136.672640 149.817085 0
25.145639 136.667087 149.919543 0
20.803245 136.673070 150.031029 0
16.459272 136.651505 150.136966 0
12.111513 136.655532 150.257240 0
7.809455 135.699077 150.022713 0
38.302884 136.672402 155.010100 0
33.949583 136.672817 155.105382 0
29.596497 136.636494 155.191701 0
25.242836 136.663574 155.307704 0
20.888433 136.628923 155.405128 0
16.531391 136.627012 155.520464 0
12.168908 136.680742 155.662624 0
42.791220 136.145803 160.145563 0
38.439741 136.663031 160.440702 0
34.073409 136.653540 160.532012 0
29.707481 136.681882 160.644139 0
25.340856 136.661011 160.742419 0
20.973340 136.632301 160.843349 0
16.602343 136.659588 160.972436 0
12.226192 136.720945 161.120995 0
42.929279 135.720016 165.446992 0
38.577785 136.652633 165.918841 0
34.198242 136.626450 166.003131 0
29.819470 136.642733 166.111167 0
25.440138 136.619948 166.209437 0
21.059150 136.628511 166.326939 0
16.674452 136.675744 166.466744 0
12.286595 136.698392 166.602824 0
43.087192 135.893860 171.041592 0
38.716962 136.636136 171.444331 0
34.324493 136.626526 171.535273 0
29.932473 136.634718 171.640606 0
25.539665 136.642915 171.752804 0
21.146317 136.596514 171.848689 0
16.749337 136.623317 171.982588 0
12.363355 136.290433 171.970382 0
43.266138 136.682271 176.961432 0
38.857585 136.626210 177.024538 0
34.452094 136.640876 177.125933 0
30.046540 136.626844 177.222176 0
25.640507 136.628904 177.332877 0
21.232195 136.668453 177.467448 0
16.821364 136.686628 177.600145 0
12.447535 135.712088 177.304856 0
43.421708 136.676243 182.598895 0
39.000662 136.666556 182.681534 0
34.580693 136.632789 182.761271 0
30.161718 136.624452 182.860424 0
25.741900 136.659260 182.987024 0
21.321202 136.627665 183.091686 0
16.896683 136.665948 183.235934 0
12.498018 135.970927 183.056843 0
43.578916 136.672622 188.293947 0
39.144126 136.658293 188.373684 0
34.710240 136.595360 188.439393 0
30.278045 136.615670 188.552261 0
25.845164 136.599851 188.656925 0
21.410373 136.622553 188.788076 0
16.971894 136.673476 188.940989 0
48.166575 136.171794 193.734043 0
43.738764 136.699993 194.062598 0
39.288090 136.606158 194.103568 0
34.841698 136.607690 194.199153 0
30.395570 136.607300 194.302953 0
25.948820 136.611274 194.417994 0
21.499782 136.652344 194.559962 0
17.047299 136.700633 194.714623 0
48.318950 135.666670 199.297477 0
43.897929 136.655116 199.857806 0
39.434807 136.608882 199.920211 0
34.974524 136.616885 200.018950 0
30.514325 136.589346 200.109957 0
26.053792 136.599272 200.229123 0
21.591056 136.635855 200.371188 0
17.125209 136.671314 200.522534 0
48.506449 135.924576 205.295479 0
44.060627 136.664140 205.742676 0
39.583073 136.609076 205.799330 0
35.108637 136.612376 205.895756 0
30.634465 136.618930 206.004165 0
26.159866 136.591883 206.105952 0
21.682515 136.661470 206.266990 0
17.229943 135.764618 205.949323 0
48.719948 136.717358 211.644073 0
44.224397 136.650679 211.682357 0
39.732397 136.583095 211.731074 0
35.243891 136.579214 211.823762 0
30.755883 136.608467 211.944607 0
26.266850 136.618310 212.066362 0
21.774709 136.703587 212.238343 0
17.307351 135.804571 211.909431 0
48.898108 136.662551 217.632443 0
44.390162 136.640257 217.692106 0
39.884024 136.581848 217.744071 0
35.381608 136.615669 217.856751 0
30.878771 136.625676 217.968328 0
26.375044 136.650305 218.099322 0
21.869524 136.663869 218.236059 0
49.081221 136.670600 223.725188 0
44.559638 136.680042 223.800557 0
40.038907 136.640941 223.861562 0
35.538810 137.976880 224.687552 0
31.003064 136.619709 224.051366 0
26.484902 136.636353 224.179558 0
21.964075 136.698249 224.344850 0
49.264740 136.638635 229.870072 0
44.726686 136.591332 229.912343 0
40.193523 136.610673 230.004881 0
35.660195 136.552393 230.066667 0
31.128702 136.559514 230.178068 0
26.596650 136.548408 230.292120 0
22.060389 136.700474 230.510927 0
44.870339 135.785973 235.685837 0
40.342376 136.270694 236.046026 0
35.802208 136.530708 236.290356 0
31.255950 136.519360 236.391803 0
26.716489 135.532561 235.943803 0
-146.514105 29.136779 -7.195263 7
-141.211082 28.695375 -8.310608 7
-135.979997 28.288360 -9.438550 7
-130.905436 27.851628 -10.524280 7
-126.081066 27.308945 -11.504514 7
-121.327404 26.788764 -12.490434 7
-117.327685 25.751222 -13.031403 7
-106.081649 30.592522 -18.436434 8
-101.433777 30.315266 -19.552332 8
-97.168907 29.797148 -20.458181 8
-93.100275 29.179837 -21.273870 8
-89.041565 28.617068 -22.125118 8
-85.045219 28.063066 -22.974957 8
-81.169862 27.462645 -23.780170 8
-77.420894 26.805530 -24.534057 8
-64.235116 35.135560 -32.258234 9
-57.673348 37.494285 -35.267806 9
-52.104160 39.050406 -37.622941 9
-48.088274 39.184660 -38.869760 9
-44.632810 38.823950 -39.731477 9
-41.600433 38.078789 -40.299788 9
-38.587641 37.354836 -40.882054 9
-35.519064 36.734133 -41.538423 9
-32.552010 36.046217 -42.143190 9
-29.613996 35.367706 -42.753163 9
-26.718289 34.682232 -43.356702 9
-26.236237 31.174774 -41.951193 9
-23.877268 29.862274 -42.125844 9
-21.135570 29.037665 -42.648407 9
-18.370528 28.277294 -43.216589 9
-16.153118 26.847141 -43.323470 9
-13.482941 26.021405 -43.851753 9
-10.854990 25.172046 -44.365585 9
-8.291244 24.266022 -44.843294 9
-5.749862 23.357248 -45.321985 9
-3.242008 22.428363 -45.790373 9
-0.753435 21.497846 -46.261099 9
1.667585 20.491982 -46.686277 9
4.081564 19.497568 -47.123407 9
6.445381 18.446646 -47.528847 9
8.785724 17.377240 -47.927834 9
11.117810 16.312181 -48.335220 9
13.383567 15.153114 -48.689461 9
15.638046 13.987350 -49.046390 9
17.852900 12.763595 -49.374626 9
20.040004 11.498320 -49.685246 9
22.174757 10.142206 -49.949098 9
24.312416 8.792669 -50.226251 9
26.401342 7.349174 -50.456768 9
28.452596 5.826020 -50.650624 9
30.478975 4.242728 -50.820562 9
32.455357 2.541415 -50.933920 9
34.376864 0.701816 -50.980857 9
36.270376 -1.228027 -50.990981 9
38.071750 -3.401441 -50.878787 9
39.797415 -5.800394 -50.658067 9
41.407606 -8.539321 -50.268431 9
42.815058 -11.862732 -49.579840 9
43.711181 -16.605846 -48.143509 9
42.174346 -27.925760 -43.181028 9
43.565012 -31.957191 -42.246022 9
45.943820 -33.408225 -42.723319 9
-146.978114 30.100006 -2.558617 7
-141.302715 29.870397 -3.936625 7
-135.724244 29.668548 -5.316463 7
-130.515594 29.291224 -6.519134 7
-125.381815 28.944997 -7.730393 7
-120.494315 28.496654 -8.834849 7
-117.364848 26.751615 -8.808019 7
-105.072258 32.362035 -15.058728 8
-100.539548 31.966411 -16.128373 8
-96.113490 31.558090 -17.173443 8
-91.885678 31.055332 -18.126874 8
-87.716045 30.571046 -19.084380 8
-83.655410 30.058631 -20.008036 8
-79.746327 29.475182 -20.864146 8
-68.053755 36.146375 -27.550247 9
-61.139585 38.672582 -30.824782 9
-54.552252 41.070218 -33.950364 9
-49.875807 41.768268 -35.696699 9
-46.243297 41.524734 -36.687579 9
-43.042215 40.904599 -37.377933 9
-39.850268 40.323554 -38.093857 9
-36.804664 39.635774 -38.724070 9
-33.798541 38.949217 -39.352292 9
-30.745709 38.358238 -40.049417 9
-27.866229 37.617202 -40.631656 9
-24.998527 36.902393 -41.231805 9
-22.073061 36.296418 -41.910027 9
-19.236168 35.627629 -42.540258 9
-16.482400 34.897146 -43.124653 9
-15.195821 32.351398 -42.413444 9
-13.660484 30.085293 -41.920439 9
-10.991621 29.284183 -42.473225 9
-8.334269 28.501814 -43.039881 9
-6.155808 27.094544 -43.175525 9
-3.575032 26.259866 -43.711605 9
-1.031775 25.402598 -44.234100 9
1.462722 24.503471 -44.730571 9
3.916056 23.569909 -45.206852 9
6.365576 22.655926 -45.699533 9
8.752951 21.669969 -46.148180 9
11.131057 20.691143 -46.605784 9
13.458595 19.650860 -47.027949 9
15.785358 18.627818 -47.466384 9
18.056565 17.527648 -47.860809 9
20.323679 16.434933 -48.266059 9
22.548489 15.280069 -48.638511 9
24.746693 14.086765 -48.994016 9
26.916959 12.848810 -49.329469 9
29.070721 11.584394 -49.656815 9
31.169034 10.212737 -49.927583 9
33.277293 8.859228 -50.218965 9
35.323588 7.372978 -50.440793 9
37.362257 5.860456 -50.658175 9
39.353393 4.230215 -50.817987 9
41.293585 2.464235 -50.911632 9
43.198987 0.588708 -50.956350 9
44.938169 -1.723928 -50.766659 9
46.491913 -4.559822 -50.300346 9
47.834273 -8.031757 -49.501913 9
48.877985 -12.427091 -48.220857 9
49.379267 -18.493531 -46.058259 9
49.804313 -25.077569 -43.669638 9
51.199735 -29.191778 -42.681846 9
53.506388 -30.765047 -43.096848 9
-149.095372 29.941163 3.182810 7
-142.653812 30.171516 1.288444 7
-136.601359 30.243338 -0.426951 7
-131.002066 30.094522 -1.912150 7
-125.488260 29.981147 -3.404532 7
-120.243986 29.760860 -4.777142 7
-117.400931 27.761034 -4.552011 7
-104.460192 33.814805 -11.405193 8
-99.769954 33.516682 -12.614294 8
-95.315734 33.104397 -13.707672 8
-90.943983 32.697647 -14.791037 8
-86.802955 32.165532 -15.753892 8
-82.636074 31.723930 -16.781229 8
-78.604129 31.230871 -17.753280 8
-65.440044 39.214527 -25.728395 9
-58.239555 42.012510 -29.321487 9
-52.374275 43.727878 -31.979732 9
-48.192013 43.945007 -33.390663 9
-44.668389 43.589553 -34.325981 9
-41.445187 42.988394 -35.057042 9
-38.322987 42.331840 -35.738930 9
-35.216742 41.705132 -36.439665 9
-32.116021 41.119763 -37.167931 9
-29.068364 40.523795 -37.883376 9
-26.129375 39.851688 -38.536567 9
-23.241845 39.163156 -39.174385 9
-20.313253 38.565094 -39.877614 9
-17.536604 37.828367 -40.474399 9
-14.782054 37.102803 -41.078112 9
-11.950001 36.513458 -41.780377 9
-9.264268 35.779069 -42.374757 9
-6.578332 35.081732 -42.995254 9
-4.850854 33.130476 -42.718770 9
-3.843105 30.169090 -41.739963 9
-1.198986 29.448583 -42.362578 9
1.362642 28.645741 -42.927783 9
3.508729 27.262962 -43.092830 9
5.976577 26.370241 -43.602124 9
8.465677 25.537601 -44.154880 9
10.883807 24.622629 -44.654104 9
13.273293 23.686702 -45.142455 9
15.632822 22.725086 -45.617305 9
17.993094 21.786867 -46.111594 9
20.292369 20.765695 -46.555588 9
22.574303 19.732002 -46.996449 9
24.852887 18.709393 -47.449711 9
27.082884 17.613386 -47.861473 9
29.279225 16.466039 -48.246999 9
31.470249 15.318161 -48.639109 9
33.634758 14.126244 -49.010891 9
35.761599 12.862957 -49.346310 9
37.863734 11.549327 -49.659473 9
39.935502 10.168233 -49.940905 9
42.005551 8.777615 -50.226616 9
43.983278 7.167488 -50.391678 9
45.836717 5.242797 -50.383386 9
47.540669 2.914384 -50.154404 9
49.120260 0.209437 -49.726767 9
50.539831 -2.997901 -49.033790 9
51.765434 -6.843661 -48.005487 9
52.757519 -11.495366 -46.556754 9
53.231742 -17.834867 -44.205198 9
54.567865 -21.984992 -43.131183 9
56.011037 -26.005920 -42.167089 9
58.342203 -27.437883 -42.653695 9
-146.545180 28.723377 8.276609 7
-139.361859 29.493583 5.790099 7
-132.743774 29.997533 3.598102 7
-126.771733 30.151946 1.769438 7
-121.051091 30.228533 0.043898 7
-117.443408 28.774021 -0.256713 7
-104.391758 34.839909 -7.350120 8
-102.581589 32.171407 -6.497965 8
-94.965430 34.282386 -9.907363 8
-90.485342 33.932646 -11.095098 8
-86.032853 33.637278 -12.313522 8
-81.880537 33.156815 -13.355003 8
-77.665006 32.802990 -14.491766 8
-63.016309 42.097647 -23.819939 9
-55.808699 44.900642 -27.521258 9
-50.586206 46.004977 -29.745039 9
-46.634066 45.994439 -31.012430 9
-43.291347 45.453376 -31.827968 9
-40.023639 44.889916 -32.617488 9
-36.789411 44.343836 -33.414053 9
-33.680714 43.716427 -34.138554 9
-30.588464 43.119004 -34.881555 9
-27.574101 42.483556 -35.589182 9
-24.591022 41.858653 -36.300538 9
-21.663448 41.215236 -36.993212 9
-18.702015 40.656123 -37.747038 9
-15.874374 39.982574 -38.408997 9
-13.080822 39.308524 -39.067830 9
-10.290786 38.670999 -39.751651 9
-7.628516 37.910625 -40.341321 9
-4.960630 37.193594 -40.962173 9
-2.213199 36.621127 -41.687883 9
0.399168 35.905746 -42.307083 9
2.961654 35.156313 -42.901081 9
4.910894 33.556818 -42.886913 9
5.702295 30.244046 -41.667039 9
8.252666 29.500752 -42.285659 9
10.764602 28.732302 -42.887155 9
12.849487 27.321275 -43.044625 9
15.266457 26.449241 -43.580686 9
17.649468 25.547794 -44.099193 9
20.030155 24.667377 -44.634907 9
22.345516 23.698891 -45.114551 9
24.667858 22.763571 -45.620332 9
26.952156 21.780660 -46.098643 9
29.218725 20.783572 -46.572270 9
31.441747 19.720643 -47.008115 9
33.656626 18.655580 -47.448355 9
35.851276 17.562878 -47.876915 9
38.013914 16.414970 -48.276961 9
40.163179 15.246283 -48.671098 9
42.286192 14.026066 -49.040685 9
44.309555 12.583792 -49.281574 9
46.227344 10.886053 -49.376981 9
48.042913 8.918156 -49.322132 9
49.719468 6.565627 -49.052597 9
51.311047 3.930507 -48.635218 9
52.743017 0.792721 -47.944554 9
54.105828 -2.651031 -47.103538 9
55.318671 -6.652963 -45.970659 9
56.309132 -11.473516 -44.404826 9
57.467318 -16.038129 -43.030848 9
58.689653 -20.634718 -41.682241 9
60.672432 -23.059048 -41.592927 9
61.722290 -28.629746 -39.780760 9
-138.302691 27.164306 11.860989 7
-130.443471 28.577795 8.705842 7
-123.598365 29.397798 6.170010 7
-117.483012 29.798164 4.072966 7
-105.007337 35.333517 -2.761891 8
-99.920779 35.261785 -4.309859 8
-95.017634 35.134366 -5.781853 8
-90.340622 34.907994 -7.141101 8
-85.825769 34.627598 -8.431239 8
-81.414332 34.337848 -9.694144 8
-68.878211 41.401513 -17.421314 9
-61.045548 44.557086 -21.603996 9
-60.924990 40.730149 -19.669658 9
-49.213398 47.880831 -27.202809 9
-45.415770 47.709343 -28.376720 9
-42.074997 47.154862 -29.212514 9
-38.796892 46.590903 -30.031738 9
-35.565017 46.031869 -30.847025 9
-32.341932 45.515810 -31.690054 9
-29.186406 44.979845 -32.509036 9
-26.105125 44.413309 -33.296166 9
-23.106647 43.802622 -34.041566 9
-20.149580 43.190934 -34.780862 9
-17.218858 42.594250 -35.527078 9
-14.358790 41.958351 -36.237800 9
-11.560059 41.290457 -36.919734 9
-8.695625 40.747125 -37.694436 9
-5.992745 40.042010 -38.341036 9
-3.281757 39.386328 -39.022968 9
-0.580746 38.757596 -39.722690 9
1.990039 37.990307 -40.316586 9
4.573855 37.275589 -40.948796 9
7.204343 36.664328 -41.655932 9
9.736293 35.947910 -42.284627 9
12.220372 35.194098 -42.885897 9
14.139813 33.599365 -42.885643 9
14.958594 30.253242 -41.652675 9
17.443900 29.517950 -42.288296 9
19.859034 28.699471 -42.866362 9
21.920508 27.307825 -43.049257 9
24.295930 26.463880 -43.616679 9
26.615983 25.547815 -44.137334 9
28.921016 24.626995 -44.658128 9
31.194090 23.668144 -45.157029 9
33.436709 22.670161 -45.634114 9
35.692150 21.714660 -46.143961 9
37.891561 20.664092 -46.596184 9
40.087778 19.620081 -47.058332 9
42.259088 18.535675 -47.500297 9
44.344289 17.271594 -47.834188 9
46.327420 15.775471 -48.029996 9
48.192936 13.990257 -48.055882 9
49.958573 11.932641 -47.926966 9
51.625750 9.581535 -47.634728 9
53.203409 6.933019 -47.181539 9
54.724622 4.046705 -46.608243 9
56.215993 0.972815 -45.948771 9
57.596956 -2.531535 -45.061792 9
58.867730 -6.507384 -43.929948 9
59.901478 -11.380452 -42.312120 9
61.977644 -13.282806 -42.460325 9
64.228204 -14.676049 -42.916783 9
66.483754 -16.067363 -43.385517 9
-140.274691 17.989354 22.752721 7
-122.717432 26.845740 12.287749 7
-106.762274 34.947243 2.737352 8
-100.660284 35.615381 0.403857 8
-95.603918 35.557563 -1.207536 8
-90.688541 35.478004 -2.771969 8
-86.003193 35.295376 -4.216099 8
-81.434015 35.098698 -5.624845 8
-67.447338 43.386696 -14.696751 9
-59.403940 46.710137 -19.156100 9
-52.520095 49.184839 -22.786254 9
-48.021045 49.582556 -24.525424 9
-44.343648 49.280697 -25.627302 9
-40.942309 48.771869 -26.535629 9
-37.609075 48.251012 -27.423192 9
-34.340706 47.718527 -28.291126 9
-31.109480 47.200907 -29.162575 9
-27.983908 46.622953 -29.974698 9
-24.886041 46.064881 -30.795879 9
-21.789080 45.556389 -31.650596 9
-18.794964 44.981150 -32.443219 9
-15.824594 44.426207 -33.246041 9
-12.950381 43.803757 -33.988501 9
-10.090285 43.208719 -34.747943 9
-7.284276 42.590865 -35.484490 9
-4.529565 41.950592 -36.199243 9
-1.781876 41.343177 -36.935911 9
0.952636 40.761012 -37.688312 9
3.554264 40.039066 -38.330148 9
6.177584 39.384347 -39.021259 9
8.790833 38.754272 -39.728644 9
11.278353 37.978092 -40.324826 9
13.779238 37.254559 -40.959709 9
16.334921 36.650396 -41.681491 9
18.778944 35.908687 -42.301418 9
21.178707 35.127569 -42.892990 9
22.991858 33.399372 -42.807920 9
23.957911 30.207684 -41.696897 9
26.350903 29.421871 -42.307786 9
28.703928 28.594083 -42.890698 9
30.749857 27.228233 -43.103345 9
33.064635 26.368792 -43.671825 9
35.342182 25.461970 -44.210794 9
37.575528 24.488995 -44.708580 9
39.816805 23.549974 -45.233459 9
42.019292 22.548613 -45.721141 9
44.178684 21.469391 -46.162632 9
46.198381 20.090353 -46.414617 9
48.127919 18.497840 -46.538066 9
49.939876 16.608091 -46.482925 9
51.690510 14.530332 -46.323634 9
53.364569 12.209364 -46.028573 9
55.003325 9.728843 -45.654060 9
56.584044 7.013753 -45.156285 9
58.153154 4.169039 -44.603548 9
59.685922 1.112731 -43.948095 9
61.486860 -1.285669 -43.717974 9
62.424600 -6.377660 -41.898509 9
64.861491 -7.053459 -42.746600 9
67.301324 -7.682820 -43.625266 9
68.990721 -10.797101 -43.060448 9
68.624637 -21.242938 -38.295912 9
-102.475691 35.125772 6.016547 8
-96.980869 35.349483 4.047226 8
-91.655567 35.543260 2.140958 8
-86.616050 35.601794 0.395382 8
-81.835222 35.535522 -1.204058 8
-66.495862 44.943145 -11.591275 9
-58.033615 48.612662 -16.505515 9
-51.529921 50.713754 -19.902789 9
-47.109374 51.016873 -21.615545 9
-43.478260 50.651203 -22.702027 9
-40.030472 50.169365 -23.670644 9
-36.606566 49.722543 -24.658102 9
-33.252963 49.262781 -25.622249 9
-29.999907 48.755009 -26.533545 9
-26.806326 48.238220 -27.427120 9
-23.625389 47.761436 -28.345450 9
-20.585756 47.180125 -29.166041 9
-17.566016 46.625328 -30.001387 9
-14.581382 46.079034 -30.836394 9
-11.639610 45.530615 -31.662551 9
-8.742213 44.976241 -32.477182 9
-5.891667 44.410605 -33.276502 9
-3.142836 43.760438 -34.002279 9
-0.396116 43.149630 -34.755229 9
2.341758 42.570243 -35.528633 9
5.006442 41.934018 -36.253080 9
7.621341 41.268446 -36.951355 9
10.289761 40.719381 -37.736652 9
12.830811 40.025784 -38.407659 9
15.357982 39.347802 -39.088717 9
17.870676 38.684250 -39.778909 9
20.294728 37.916825 -40.390101 9
22.730928 37.200749 -41.039139 9
25.206929 36.584779 -41.761031 9
27.554084 35.786394 -42.348933 9
29.901415 35.016834 -42.958583 9
31.489114 32.908919 -42.612881 9
32.744497 30.146606 -41.820533 9
35.045271 29.290766 -42.392435 9
37.360045 28.487001 -43.002969 9
39.357160 27.075328 -43.195451 9
41.601962 26.165835 -43.741149 9
43.814933 25.209784 -44.258743 9
45.885719 23.962601 -44.584474 9
47.870052 22.522657 -44.789192 9
49.756335 20.845713 -44.847025 9
51.574120 18.980082 -44.793831 9
53.285805 16.816701 -44.561898 9
55.007472 14.619720 -44.326778 9
56.669475 12.205670 -43.971721 9
58.361301 9.793338 -43.639171 9
59.991009 7.129339 -43.169845 9
62.111709 5.768340 -43.536905 9
63.856916 3.285869 -43.221228 9
65.400765 0.095424 -42.494482 9
66.815341 -3.650667 -41.460719 9
68.338589 -7.231201 -40.562801 9
69.370158 -12.672206 -38.590333 9
69.383999 -22.053833 -34.344533 9
68.945418 -33.765151 -28.831708 9
-99.616848 34.140078 10.403286 8
-93.838624 34.616490 8.119109 8
-88.147317 35.142875 5.827094 8
-82.955652 35.360326 3.873120 8
-66.274870 45.853760 -7.864627 9
-57.093558 50.123661 -13.499895 9
-50.667446 52.124694 -16.908036 9
-46.396278 52.264070 -18.527819 9
-42.720391 51.918621 -19.675834 9
-39.138607 51.547603 -20.784262 9
-35.734055 51.062849 -21.774645 9
-32.370191 50.595150 -22.767698 9
-29.054423 50.135567 -23.755677 9
-25.755708 49.715866 -24.766978 9
-22.582380 49.217146 -25.697356 9
-19.459100 48.716779 -26.616175 9
-16.408358 48.186699 -27.499876 9
-13.345577 47.722532 -28.431022 9
-10.425597 47.140287 -29.253313 9
-7.526540 46.580116 -30.087058 9
-4.662103 46.024485 -30.917649 9
-1.793774 45.521597 -31.785058 9
0.963381 44.921553 -32.566267 9
3.723941 44.370475 -33.381886 9
6.348355 43.677342 -34.078023 9
9.011485 43.077750 -34.845317 9
11.655514 42.493178 -35.620269 9
14.235055 41.855840 -36.349872 9
16.769178 41.189316 -37.053765 9
19.313625 40.576710 -37.796735 9
21.789897 39.895448 -38.484519 9
24.255295 39.232553 -39.184539 9
26.686981 38.549783 -39.868018 9
29.064836 37.809696 -40.507737 9
31.433189 37.084604 -41.158351 9
33.832121 36.446841 -41.872724 9
36.127782 35.653768 -42.473484 9
38.424733 34.890703 -43.096990 9
39.714307 32.186487 -42.337011 9
41.268639 29.936210 -41.922570 9
43.538691 29.109708 -42.525658 9
45.768645 28.223199 -43.089263 9
47.476584 26.217979 -42.884679 9
49.942400 25.871566 -43.830524 9
51.282244 22.972489 -43.043305 9
53.051288 20.995115 -42.902446 9
54.822933 18.977368 -42.751014 9
56.790201 17.404555 -42.910361 9
58.934927 16.271892 -43.369840 9
60.646601 13.973788 -43.079705 9
62.344744 11.563172 -42.737469 9
64.348533 9.949677 -42.925414 9
66.533690 8.846206 -43.448688 9
68.663491 7.575058 -43.874099 9
69.227084 1.273368 -41.183383 9
69.352218 -6.877129 -37.419197 9
70.947418 -10.491462 -36.508389 5
72.018337 -16.185862 -34.374767 5
72.419357 -24.760328 -30.573014 5
-97.723341 32.311564 15.635701 8
-91.252731 33.376261 12.684997 8
-85.171995 34.256475 9.970841 8
-66.677551 46.220544 -3.566193 9
-56.588460 51.243383 -10.109315 9
-50.084017 53.279616 -13.659257 9
-45.813981 53.389979 -15.310218 9
-42.067897 53.086112 -16.543097 9
-38.526895 52.650750 -17.634350 9
-35.025062 52.239333 -18.732385 9
-31.538724 51.875374 -19.858941 9
-28.118076 51.506821 -20.966079 9
-24.877340 51.008044 -21.941037 9
-21.687150 50.510164 -22.905023 9
-18.508081 50.055449 -23.896118 9
-15.388053 49.589604 -24.866075 9
-12.316995 49.121607 -25.823521 9
-9.305774 48.636175 -26.755799 9
-6.364086 48.118154 -27.650793 9
-3.438826 47.630250 -28.563008 9
-0.637472 47.034119 -29.375605 9
2.159714 46.478285 -30.215491 9
4.929428 45.932416 -31.057062 9
7.650294 45.365937 -31.875373 9
10.339059 44.799367 -32.687946 9
12.977437 44.204535 -33.472384 9
15.583736 43.604930 -34.248427 9
18.130648 42.957088 -34.981979 9
20.684877 42.359853 -35.752175 9
23.178656 41.707275 -36.475564 9
25.645326 41.048262 -37.191411 9
28.110514 40.423923 -37.931689 9
30.537725 39.772657 -38.649092 9
32.922044 39.082237 -39.335178 9
35.264506 38.350056 -39.988996 9
37.605175 37.646036 -40.663493 9
39.925351 36.935413 -41.332781 9
42.237424 36.240675 -42.013631 9
44.493950 35.466062 -42.636665 9
46.699668 34.613369 -43.204857 9
47.369324 30.503662 -41.457667 9
50.642907 31.947655 -43.670903 9
51.422290 27.908513 -42.023287 9
53.684410 27.153818 -42.694714 9
55.577688 25.541641 -42.778244 9
57.573792 24.158312 -43.029902 9
58.657250 20.431264 -41.706805 9
60.912730 19.629925 -42.381311 9
62.829392 17.930457 -42.462118 9
64.220810 14.715082 -41.558079 9
66.430178 13.740982 -42.148283 9
68.633781 12.762194 -42.740869 9
69.364970 7.188843 -40.391846 9
70.131292 1.396688 -37.961512 5
72.127255 -0.609576 -37.977051 5
74.087757 -2.808322 -37.889843 5
75.982691 -5.332988 -37.620633 5
77.771512 -8.378687 -37.055289 5
79.342107 -12.457490 -35.891321 5
79.258193 -23.659660 -30.477735 5
81.499553 -25.718869 -30.640035 5
-103.571806 23.905980 27.643990 8
-90.117640 30.834027 18.579719 8
-82.911896 32.698076 14.785098 8
-56.709432 51.804871 -6.136011 9
-49.903480 54.067733 -10.026380 9
-45.513987 54.253779 -11.814453 9
-41.726133 53.957651 -13.105047 9
-38.045097 53.628793 -14.343972 9
-34.416099 53.317160 -15.580511 9
-30.878466 52.980864 -16.775508 9
-27.522712 52.520555 -17.837495 9
-24.077137 52.216949 -19.030401 9
-20.812083 51.781563 -20.086113 9
-17.556267 51.395285 -21.173156 9
-14.459220 50.887427 -22.136987 9
-11.375769 50.417988 -23.124159 9
-8.305682 49.987868 -24.135108 9
-5.344428 49.480246 -25.066812 9
-2.391435 49.014298 -26.025362 9
0.483698 48.501309 -26.933694 9
3.355748 48.034677 -27.873280 9
6.130577 47.488670 -28.736832 9
8.850549 46.914314 -29.569451 9
11.559097 46.369344 -30.420314 9
14.262453 45.863263 -31.297031 9
16.867988 45.259503 -32.087165 9
19.470536 44.693596 -32.903325 9
21.984199 44.032650 -33.637929 9
24.489559 43.396888 -34.389361 9
26.989901 42.792157 -35.162048 9
29.489936 42.227293 -35.962612 9
31.901071 41.550835 -36.672530 9
34.287627 40.866497 -37.374436 9
36.698615 40.261468 -38.135554 9
39.052251 39.587899 -38.842287 9
41.382447 38.903844 -39.539950 9
43.674249 38.177553 -40.205277 9
45.931628 37.412172 -40.841641 9
48.128739 36.549130 -41.406998 9
50.192589 35.421954 -41.782190 9
52.199848 34.175667 -42.077008 9
54.117249 32.723002 -42.231352 9
55.958806 31.077262 -42.258591 9
57.754567 29.292682 -42.200518 9
59.561634 27.498316 -42.149765 9
61.366778 25.659025 -42.082296 9
62.699956 22.519489 -41.138381 9
64.932661 21.720659 -41.815812 9
66.742406 19.742958 -41.701815 9
68.509903 17.581751 -41.482116 9
69.334419 12.467756 -39.326554 9
70.277247 7.432131 -37.275862 5
72.368716 5.873781 -37.539464 5
74.444979 4.230609 -37.760609 5
76.500221 2.471067 -37.920731 5
78.526756 0.551618 -37.994380 5
80.520575 -1.564265 -37.961480 5
82.472937 -3.938314 -37.787092 5
84.365047 -6.685563 -37.404791 5
86.122881 -10.186639 -36.588518 5
87.511819 -15.642542 -34.624297 5
88.268244 -24.643619 -30.591488 5
-57.858517 51.455262 -1.173374 9
-49.937440 54.665582 -6.158413 9
-45.322950 55.020526 -8.184709 9
-41.524493 54.699483 -9.503388 9
-41.081537 51.166717 -7.636256 9
-33.993840 54.210517 -12.226669 9
-30.447449 53.853619 -13.447563 9
-26.934701 53.528740 -14.680954 9
-23.528203 53.157693 -15.852546 9
-20.119004 52.854146 -17.071255 9
-16.838872 52.472538 -18.200339 9
-13.575528 52.133806 -19.354227 9
-10.435389 51.713646 -20.418651 9
-7.372332 51.259443 -21.439247 9
-4.402766 50.746436 -22.395133 9
-1.431634 50.288058 -23.389434 9
1.540672 49.885725 -24.422634 9
4.368996 49.349868 -25.327787 9
7.191491 48.855539 -26.260545 9
9.984173 48.370716 -27.192835 9
12.724340 47.862047 -28.096407 9
15.401578 47.310803 -28.956359 9
18.040853 46.749209 -29.801071 9
20.694507 46.254671 -30.695568 9
23.264912 45.677838 -31.515563 9
25.805459 45.096363 -32.326684 9
28.317461 44.510444 -33.129532 9
30.753637 43.838309 -33.858770 9
33.220150 43.255584 -34.656513 9
35.627715 42.609108 -35.400158 9
38.029387 41.989132 -36.162030 9
40.403615 41.355925 -36.911002 9
41.172008 37.662335 -35.299559 9
45.085800 40.071203 -38.388731 9
47.335172 39.296241 -39.024739 9
49.453968 38.275072 -39.476262 9
51.509825 37.130840 -39.839957 9
53.470456 35.779734 -40.056468 9
55.380966 34.305455 -40.191148 9
57.208249 32.617753 -40.180943 9
59.027095 30.878286 -40.146280 9
60.855873 29.128048 -40.117463 9
62.686320 27.344347 -40.078732 9
64.489956 25.447174 -39.974691 9
66.329986 23.600259 -39.921309 9
68.142344 21.624703 -39.794479 9
69.028600 16.831111 -37.759425 9
70.087956 12.301936 -35.953925 5
72.242972 11.026963 -36.379941 5
74.369953 9.648167 -36.745543 5
76.487859 8.217773 -37.087156 5
78.592713 6.714230 -37.391750 5
80.685040 5.129363 -37.655451 5
82.754130 3.409672 -37.845465 5
84.801393 1.541846 -37.955796 5
86.822349 -0.514897 -37.963411 5
88.835046 -2.707388 -37.904897 5
90.795699 -5.264144 -37.641226 5
92.679459 -8.367680 -37.066770 5
94.399721 -12.566051 -35.857863 5
94.957096 -23.631629 -30.557840 5
97.219877 -25.828736 -30.667906 5
-61.430994 48.962624 6.147435 9
-50.455072 54.830257 -1.785566 9
-45.581546 55.373864 -4.085626 9
-45.234510 51.715626 -2.058869 9
-37.617540 55.071972 -7.159290 9
-33.808335 54.871125 -8.607321 9
-30.091571 54.652947 -10.014591 9
-26.496981 54.382182 -11.347916 9
-22.925483 54.158245 -12.706373 9
-22.475863 50.590713 -10.820667 9
-19.004368 50.322629 -12.126279 9
-12.972708 53.058842 -16.257669 9
-9.744861 52.716533 -17.431847 9
-6.538851 52.411366 -18.625177 9
-3.502060 51.962463 -19.670707 9
-0.482127 51.548958 -20.736214 9
2.436120 51.061957 -21.722828 9
5.334393 50.601880 -22.722969 9
8.221493 50.180612 -23.747085 9
11.018419 49.689589 -24.699053 9
13.763005 49.175356 -25.621651 9
16.512473 48.717541 -26.584856 9
19.179420 48.188246 -27.477973 9
21.829050 47.679870 -28.381703 9
24.425474 47.136002 -29.248365 9
26.993412 46.591904 -30.108632 9
29.540739 46.058869 -30.972248 9
32.021280 45.457909 -31.774356 9
34.503042 44.900176 -32.607395 9
35.263932 41.312967 -30.986059 9
39.316438 43.640220 -34.144132 9
41.702135 43.028683 -34.922529 9
44.069022 42.419495 -35.699830 9
46.362957 41.703473 -36.390957 9
48.600148 40.903110 -37.015750 9
50.714999 39.871218 -37.463077 9
52.743034 38.663056 -37.779808 9
54.667801 37.224799 -37.928935 9
56.574513 35.731052 -38.045791 9
58.423920 34.082664 -38.057983 9
60.258142 32.367795 -38.033456 9
62.102316 30.643428 -38.015142 9
63.956536 28.908649 -38.002656 9
65.818600 27.156222 -37.991099 9
67.682345 25.366810 -37.967153 9
68.523859 20.562008 -35.832890 9
69.686118 16.454491 -34.237172 5
71.878105 15.341274 -34.757561 5
74.054890 14.181139 -35.252124 5
76.214914 12.962111 -35.713736 5
78.363980 11.696237 -36.151750 5
80.493717 10.345917 -36.542036 5
82.620570 8.961898 -36.919875 5
84.734784 7.499759 -37.256853 5
86.827047 5.908728 -37.521462 5
88.913966 4.241927 -37.750367 5
90.987107 2.448363 -37.912447 5
93.044460 0.497618 -37.990788 5
95.085369 -1.640134 -37.969535 5
97.091747 -4.095403 -37.770919 5
99.057139 -6.963164 -37.342039 5
100.945186 -10.544268 -36.506531 5
102.447962 -16.990139 -33.976344 5
103.859297 -24.865808 -30.659648 5
-51.586944 54.448418 3.250383 9
-46.004961 55.583051 0.233372 9
-41.818690 55.536603 -1.492024 9
-37.732590 55.481474 -3.177573 9
-33.840913 55.319726 -4.724312 9
-29.982579 55.204618 -6.292229 9
-26.222921 55.068165 -7.812626 9
-22.669804 54.790631 -9.167764 9
-19.175364 54.520552 -10.509250 9
-15.656850 54.348240 -11.926129 9
-12.175939 54.207366 -13.352288 9
-8.960643 53.830234 -14.530530 9
-5.736328 53.526670 -15.762818 9
-2.576029 53.209882 -16.966060 9
0.487564 52.835376 -18.099672 9
3.307986 52.207857 -18.984778 9
6.269711 51.814145 -20.075355 9
9.163826 51.387055 -21.122978 9
11.943780 50.857464 -22.066636 9
14.758521 50.427270 -23.089863 9
17.566330 50.041335 -24.141913 9
20.240503 49.511855 -25.057200 9
22.882161 48.980679 -25.963069 9
25.551556 48.540540 -26.940067 9
28.144320 48.028566 -27.847121 9
30.712463 47.523269 -28.752877 9
33.194227 46.918550 -29.568300 9
35.698004 46.393696 -30.445481 9
38.162038 45.843001 -31.295625 9
40.577172 45.245787 -32.102674 9
42.985916 44.676982 -32.928848 9
45.331044 44.026055 -33.684786 9
47.617094 43.293420 -34.372829 9
49.811939 42.404221 -34.935641 9
51.897409 41.304587 -35.334360 9
53.899902 40.031994 -35.602643 9
55.844187 38.625397 -35.774215 9
57.705169 37.013194 -35.797094 9
59.578604 35.404782 -35.834359 9
61.456856 33.781306 -35.871858 9
63.357098 32.184862 -35.941387 9
65.205669 30.423077 -35.900296 9
67.085668 28.705759 -35.905653 9
68.927839 26.841258 -35.817440 9
69.384368 20.856137 -32.776237 9
71.351919 19.111120 -32.829899 5
73.558782 18.077047 -33.400691 5
75.764285 17.046583 -33.979198 5
77.933897 15.900839 -34.482849 5
80.101995 14.746546 -34.987527 5
82.272063 13.594376 -35.500854 5
84.409752 12.310122 -35.932068 5
86.542595 10.986064 -36.345668 5
88.673131 9.626223 -36.745205 5
90.793665 8.189815 -37.104588 5
92.901394 6.650712 -37.408265 5
94.999957 5.009244 -37.658422 5
97.088258 3.241361 -37.841581 5
99.172180 1.356308 -37.965985 5
101.239948 -0.738074 -37.975779 5
103.298085 -3.042994 -37.873998 5
105.291625 -5.973371 -37.407934 5
107.095291 -10.577596 -35.946545 5
108.219194 -21.094071 -30.947839 5
-62.254471 45.456839 17.815089 9
-47.044182 55.232491 5.236919 9
-42.515029 55.446746 3.154922 9
-38.249971 55.508222 1.273847 9
-34.103926 55.546110 -0.548317 9
-30.115899 55.515409 -2.266772 9
-26.287014 55.406530 -3.874928 9
-8.173815 70.592079 -21.076677 1
-5.744946 69.485937 -21.475907 1
-3.332956 68.385901 -21.877589 1
-0.966120 67.258821 -22.249067 1
1.404704 66.159011 -22.644938 1
-2.411652 57.665911 -15.831648 4
-0.092837 56.369411 -16.098596 4
1.963693 54.758870 -16.065689 4
4.207576 53.389555 -16.268034 9
7.006609 52.764373 -17.172361 9
9.947857 52.379134 -18.290511 9
12.886826 52.049566 -19.446905 9
15.722912 51.634678 -20.511731 9
18.466957 51.141585 -21.494080 9
21.181834 50.656259 -22.473631 9
23.924946 50.265456 -23.527986 9
26.600623 49.824086 -24.527241 9
29.182060 49.282858 -25.429872 9
31.737979 48.745881 -26.328973 9
34.311997 48.286048 -27.287566 9
36.836992 47.790484 -28.208035 9
39.293556 47.219514 -29.058013 9
41.753518 46.697837 -29.944064 9
44.196619 46.189496 -30.835579 9
46.541771 45.535378 -31.601518 9
48.771653 44.686179 -32.205042 9
50.930202 43.714097 -32.709031 9
52.993021 42.554702 -33.064575 9
54.997198 41.271277 -33.326146 9
56.907109 39.770543 -33.422869 9
58.809877 38.234992 -33.502100 9
60.722882 36.702772 -33.594258 9
62.598049 35.053802 -33.607061 9
64.504761 33.454838 -33.670070 9
66.424755 31.862005 -33.749246 9
68.310372 30.143900 -33.746135 9
69.100458 25.249147 -31.396991 5
70.901905 23.078772 -31.108058 5
72.942554 21.567895 -31.319639 5
75.156860 20.584132 -31.923428 5
77.369083 19.605183 -32.534975 5
79.567798 18.590681 -33.125691 5
81.757247 17.550033 -33.703063 5
83.929647 16.449034 -34.243879 5
86.098924 15.333031 -34.780835 5
88.242505 14.105278 -35.248003 5
90.393077 12.889714 -35.731891 5
92.532180 11.602851 -36.176175 5
94.663867 10.251458 -36.586838 5
96.789315 8.829457 -36.961182 5
98.902689 7.291938 -37.271182 5
101.016639 5.688490 -37.551287 5
103.131658 4.008224 -37.795808 5
105.212528 2.005706 -37.849666 5
107.195881 -0.832587 -37.394114 5
109.057830 -4.883809 -36.207867 5
110.646088 -11.696242 -33.351902 5
112.440678 -17.753548 -31.035463 5
-48.978184 54.071326 11.252780 9
-43.818364 54.795534 8.514180 9
-39.084206 55.238781 6.134084 9
-34.685940 55.464817 4.032851 9
-9.326105 77.040438 -20.801663 1
-6.845731 75.993866 -21.262100 1
-4.459428 74.875589 -21.641438 1
-2.073347 73.781166 -22.041349 1
0.279300 72.674047 -22.424075 1
-1.832321 66.494721 -17.646591 4
2.863155 68.049904 -20.752393 1
0.959699 61.856334 -16.073207 4
2.949341 60.212656 -15.983163 4
4.750257 58.329517 -15.665397 4
6.466983 56.323287 -15.239467 4
8.131210 54.226439 -14.739945 4
10.713742 53.346300 -15.415240 9
13.657844 53.002604 -16.591563 9
16.510358 52.589862 -17.688968 9
19.375307 52.252384 -18.843660 9
22.162497 51.858840 -19.933580 9
24.895390 51.438725 -20.987531 9
27.530198 50.918797 -21.940513 9
30.194462 50.495628 -22.971400 9
32.847999 50.108371 -24.024357 9
35.381753 49.571690 -24.935952 9
37.886495 49.030611 -25.836552 9
40.408932 48.567306 -26.797692 9
42.884160 48.066189 -27.718946 9
45.311901 47.521656 -28.596785 9
47.676696 46.897785 -29.402279 9
49.898562 46.024055 -29.995133 9
52.012778 44.949887 -30.421978 9
54.066235 43.756351 -30.753897 9
56.034353 42.376906 -30.939509 9
57.985899 40.950118 -31.094665 9
59.885280 39.386881 -31.149263 9
61.809033 37.859533 -31.242869 9
63.723768 36.287247 -31.311351 9
65.649415 34.716817 -31.392202 9
67.588231 33.154097 -31.490023 9
68.558362 28.859896 -29.507628 9
70.630747 27.523412 -29.817459 5
72.854724 26.628439 -30.467644 5
75.091941 25.794039 -31.165559 5
77.053925 24.090850 -31.223108 5
78.919465 22.013921 -31.020156 5
81.124769 21.049693 -31.643886 5
83.325370 20.079528 -32.267545 5
85.507713 19.049162 -32.852711 5
87.697235 18.050796 -33.465949 5
89.854035 16.919657 -33.991304 5
92.021813 15.827380 -34.550733 5
94.168641 14.630077 -35.044581 5
96.320604 13.437049 -35.549580 5
98.460031 12.155843 -36.003279 5
100.595678 10.817231 -36.428094 5
102.728458 9.414169 -36.820553 5
104.846846 7.860115 -37.125024 5
106.894236 5.741589 -37.074729 5
108.862625 2.869770 -36.557979 5
110.708648 -1.280405 -35.252279 5
112.397740 -7.342741 -32.778608 5
114.164979 -13.673808 -30.203605 5
-45.842688 53.481915 14.749723 9
-40.702270 54.226290 11.928959 9
-9.135388 81.188834 -19.772477 1
-6.388863 80.412796 -20.537214 1
-3.687900 79.631315 -21.283086 1
-1.116353 78.753205 -21.913288 1
1.396341 77.846251 -22.503427 1
2.685795 75.611251 -21.689724 1
2.995397 72.226681 -19.698406 1
3.327541 68.778935 -17.683366 1
3.837518 65.451331 -15.832997 4
-1.004418 55.474543 -7.294368 9
7.289774 61.588054 -15.047272 4
8.810229 59.364638 -14.383063 4
10.235156 56.981914 -13.579778 4
11.672175 54.573822 -12.772249 4
14.355173 53.852634 -13.615373 9
17.320620 53.576641 -14.876013 9
20.169812 53.196013 -16.021485 9
22.970282 52.801477 -17.140405 9
25.716369 52.381049 -18.222530 9
28.496309 52.070018 -19.394017 9
31.177585 51.660059 -20.461987 9
31.999933 48.205220 -18.756262 9
36.354483 50.690594 -22.431461 9
38.924094 50.249018 -23.441420 9
41.472717 49.821680 -24.455037 9
43.954294 49.322071 -25.396630 9
46.422924 48.845714 -26.351225 9
48.750902 48.140747 -27.101879 9
50.925927 47.159788 -27.613673 9
53.069242 46.130157 -28.085348 9
55.078508 44.825113 -28.328082 9
57.048746 43.429264 -28.501576 9
58.963048 41.894251 -28.568111 9
60.897507 40.386509 -28.666791 9
62.861484 38.931289 -28.817615 9
64.832419 37.476205 -28.977548 9
66.766631 35.905994 -29.054982 9
68.718454 34.355526 -29.158859 9
69.786167 30.284855 -27.302047 5
72.040909 29.466948 -28.012647 5
74.314663 28.732739 -28.788559 5
76.546784 27.899184 -29.488857 5
78.755203 27.011391 -30.149840 5
80.973579 26.176141 -30.852766 5
83.104431 25.050809 -31.342503 5
84.973353 22.944743 -31.116786 5
87.021773 21.442555 -31.350456 5
89.212614 20.479647 -31.985238 5
91.397375 19.498635 -32.611585 5
93.569369 18.464890 -33.205452 5
95.731990 17.384354 -33.772211 5
97.890870 16.275740 -34.325987 5
100.043376 15.118408 -34.853219 5
102.192684 13.919535 -35.359913 5
104.331912 12.627696 -35.812104 5
106.423700 10.980424 -36.035128 5
108.438006 8.687860 -35.842493 5
110.374884 5.594306 -35.143346 5
112.220788 1.382308 -33.744690 5
114.018231 -3.881725 -31.709973 5
116.213905 -6.130378 -31.670428 5
118.089706 -12.180849 -29.234406 5
-10.480453 83.822594 -17.088537 1
-7.070830 83.656705 -18.580474 1
-4.277305 82.942518 -19.430021 1
-5.596346 78.025860 -15.607466 1
1.226073 81.561470 -21.136101 1
2.921749 79.793559 -20.796988 1
3.215640 76.459033 -18.781787 1
1.609257 70.874219 -14.411016 1
4.240770 70.033206 -15.133248 1
4.479315 66.369435 -12.895282 4
7.803677 66.382663 -14.510614 4
9.489944 64.418880 -14.072570 4
10.893778 62.071073 -13.257357 4
12.224146 59.585889 -12.324148 4
13.463708 56.929793 -11.243206 4
14.970931 54.588444 -10.498968 9
17.964545 54.325304 -11.809396 9
20.875237 54.008011 -13.050035 9
23.712608 53.644251 -14.230385 9
26.572253 53.375435 -15.487028 9
29.308227 52.975839 -16.604979 9
31.998610 52.559507 -17.694879 9
34.703105 52.222791 -18.847058 9
37.328961 51.810858 -19.917724 9
39.938742 51.425780 -21.002240 9
42.429560 50.880754 -21.931722 9
44.965237 50.466362 -22.970588 9
47.425471 49.960597 -23.919170 9
49.719372 49.172977 -24.612472 9
51.916321 48.217827 -25.157070 9
54.003277 47.050700 -25.518682 9
56.022933 45.743206 -25.763715 9
57.990925 44.316011 -25.913075 9
59.969855 42.901653 -26.081185 9
61.922272 41.411183 -26.193673 9
63.881715 39.919209 -26.314076 9
65.868650 38.477416 -26.484963 9
67.834350 36.961451 -26.604280 9
68.929858 33.031227 -24.787412 9
71.139131 32.067908 -25.385243 5
73.430990 31.364388 -26.191271 5
75.695081 30.610755 -26.956990 5
77.944855 29.842194 -27.711083 5
80.176529 29.042557 -28.441646 5
82.405579 28.259875 -29.186287 5
84.616132 27.437180 -29.901710 5
86.792372 26.507333 -30.538483 5
89.000823 25.717357 -31.282984 5
90.935607 23.813028 -31.206506 5
92.873546 21.832822 -31.091137 5
95.057314 20.882799 -31.740819 5
97.233604 19.902709 -32.373414 5
99.401743 18.882001 -32.982181 5
101.558339 17.792815 -33.548414 5
103.721195 16.723581 -34.135497 5
105.840361 15.365929 -34.529356 5
107.899015 13.542459 -34.613674 5
109.882495 11.037130 -34.250204 5
111.791893 7.686237 -33.341312 5
113.683530 3.739440 -32.069709 5
115.584752 -0.721681 -30.500479 5
117.922683 -1.434222 -31.440972 5
119.828401 -7.125595 -29.147627 6
121.908835 -11.826469 -27.556698 6
123.934046 -18.571352 -24.713899 6
-8.772400 85.931263 -15.496362 1
-5.619552 85.516970 -16.738337 1
-2.625411 85.004343 -17.843181 1
0.318913 84.495666 -18.931492 1
3.122319 83.892680 -19.893725 1
4.258153 81.534427 -18.886544 1
0.786244 74.027778 -12.231702 1
2.769363 72.423751 -12.146747 1
4.519716 70.549115 -11.774401 1
8.126325 70.877769 -13.769267 1
9.653805 68.757856 -13.136082 1
11.041212 66.433786 -12.304887 4
12.728163 64.456290 -11.854101 4
13.948694 61.840825 -10.759775 4
15.061118 59.023369 -9.485007 4
15.673670 55.444157 -7.469609 9
18.499900 54.917542 -8.553654 9
21.478161 54.668118 -9.899119 9
24.407788 54.414138 -11.222140 9
27.261601 54.110745 -12.479851 9
30.060759 53.785044 -13.700392 9
32.849566 53.505141 -14.950126 9
35.559072 53.156966 -16.120331 9
38.197181 52.746051 -17.218528 9
40.821795 52.367543 -18.335441 9
43.416256 51.991780 -19.443398 9
45.916632 51.496763 -20.431227 9
46.905311 48.126222 -18.803110 9
50.640143 50.106779 -22.021977 9
52.843816 49.143323 -22.571046 9
54.932581 47.956131 -22.922451 9
56.921284 46.555049 -23.090271 9
58.948671 45.231624 -23.332601 9
60.922614 43.777983 -23.469047 9
62.898080 42.312731 -23.603843 9
64.894273 40.881971 -23.776365 9
66.896144 39.449880 -23.955982 9
68.888036 37.973777 -24.107427 9
70.104821 34.325828 -22.479851 5
72.439619 33.708730 -23.366446 5
74.748626 33.057304 -24.222397 5
77.028725 32.355856 -25.036137 5
79.278787 31.592698 -25.799705 5
81.544481 30.912271 -26.628494 5
83.773367 30.138994 -27.383874 5
86.002953 29.396414 -28.163689 5
88.216821 28.623791 -28.920930 5
90.404045 27.770734 -29.618103 5
92.575307 26.868503 -30.280635 5
94.763282 26.053418 -31.011633 5
96.816047 24.622577 -31.288759 5
98.766447 22.631490 -31.165127 5
100.850660 21.224786 -31.484992 5
103.025515 20.271326 -32.142460 5
105.168646 19.128006 -32.669133 5
107.265169 17.656505 -32.970866 5
109.286851 15.585031 -32.863295 5
111.273576 13.063416 -32.462256 5
113.184123 9.637701 -31.463412 5
115.334993 7.868004 -31.632816 5
117.205699 3.157250 -29.827703 6
119.415232 1.276938 -29.973801 6
121.628756 -0.815540 -29.996698 6
123.845132 -3.232280 -29.826695 6
126.063132 -6.162640 -29.346456 6
128.273918 -10.103178 -28.244850 6
130.380850 -18.285018 -24.473423 6
132.843649 -19.404612 -25.272379 6
-8.327686 93.616400 -17.124922 3
-5.176473 93.200407 -18.389177 3
-2.724781 92.177931 -18.899302 3
-0.584428 90.880733 -19.073010 3
-1.554664 86.480336 -15.600123 1
1.542599 86.119393 -16.893714 1
