ply
format ascii 1.0
element vertex 1365
property float x
property float y
property float z
property int scalar_Label
end_header
-78.408120 31.094794 22.098952 8
-73.726779 31.456487 21.421818 8
-69.035779 31.891358 20.754944 8
-65.084869 33.194183 20.322316 9
-64.177495 37.714983 20.799471 9
-61.027935 39.874126 20.610822 9
-57.870775 42.044353 20.424369 9
-54.580621 44.103472 20.204139 9
-51.331794 46.227225 20.000974 9
-47.409437 47.739058 19.612518 9
-42.638610 48.514537 18.994959 9
-37.248069 48.806707 18.218161 9
-31.698142 49.056762 17.413260 9
-26.050608 49.325237 16.598092 9
-16.352470 46.236242 14.704525 9
-14.352212 49.837969 14.909411 9
-8.673386 50.397880 14.136258 9
-8.097994 55.168082 14.723339 4
-7.041221 59.494509 15.177694 4
-11.735862 68.222365 17.116136 1
-8.762746 70.916584 17.057071 1
-2.081620 70.875397 16.058995 1
31.632923 51.301293 8.261540 9
39.105440 51.356808 7.164112 9
47.374840 51.000217 5.891888 9
77.996119 35.534861 -0.851665 5
86.745528 35.503919 -2.143063 5
95.897783 35.378868 -3.504888 5
105.215417 35.326499 -4.877967 5
122.818535 30.257282 -8.192568 6
133.894921 29.597287 -9.906518 6
145.196325 29.024364 -11.637927 6
-127.788276 -0.834985 29.983069 7
-125.239849 1.932669 29.923377 7
-122.260504 4.025913 29.717401 7
-119.038216 5.762432 29.432757 7
-117.467741 9.880580 29.694635 8
-115.367964 13.173900 29.776712 8
-113.471299 16.699278 29.920425 8
-111.449526 20.000546 30.019675 8
-109.150898 22.890801 30.028354 8
-106.038452 24.700184 29.782346 8
-101.946383 25.283526 29.238633 8
-97.906793 25.997753 28.721243 8
-93.666216 26.528926 28.153044 8
-89.380891 27.076917 27.582437 8
-85.006537 27.591625 26.996577 8
-80.576750 28.116336 26.405944 8
-75.944361 28.487715 25.768163 8
-71.308706 28.937608 25.142080 8
-66.645865 29.438712 24.520755 8
-65.781392 34.050077 24.983132 9
-62.716991 36.295061 24.823218 9
-59.690809 38.593516 24.677992 9
-56.534499 40.775281 24.501071 9
-53.461649 43.058038 24.351555 9
-49.949783 44.934759 24.088206 9
-45.897389 46.334731 23.687212 9
-40.852154 46.869242 23.032869 9
-35.495567 47.209573 22.310779 9
-30.003653 47.527392 21.568709 9
-24.391054 47.840912 20.811215 9
-18.628852 48.129945 20.031585 9
-12.747681 48.426054 19.238420 9
-6.742002 48.728896 18.430967 9
-0.903362 49.277682 17.682364 9
5.406880 49.558527 16.833996 9
12.238525 49.553708 15.876573 9
-6.008192 68.695231 21.014056 1
25.713966 50.078203 14.067775 9
32.805646 50.271982 13.108650 9
39.990993 50.533250 12.148351 9
48.424884 50.057744 10.916975 9
78.062194 35.250173 4.790847 5
86.476881 35.425912 3.657342 5
95.254364 35.523910 2.466147 5
104.402095 35.552429 1.217510 5
120.691193 31.272000 -1.605453 6
130.821302 31.143508 -3.004095 6
141.391540 30.947338 -4.468999 6
-113.726286 -15.140395 30.588027 8
-115.531173 -5.566930 31.927037 8
-113.803479 -1.462014 32.133502 8
-113.086122 4.008388 32.644942 8
-111.876842 8.654126 32.993734 8
-110.342861 12.753425 33.235756 8
-108.248444 16.021130 33.304229 8
-105.447834 18.314531 33.161707 8
-101.635887 19.297769 32.725654 8
-97.642422 20.101003 32.245362 8
-93.541633 20.829225 31.743615 8
-90.526981 22.941826 31.559826 8
-86.281118 23.594719 31.033853 8
-81.990889 24.263279 30.506034 8
-77.462357 24.726827 29.923193 8
-72.994136 25.335921 29.368594 8
-68.421098 25.902976 28.797012 8
-64.448603 27.196208 28.397989 9
-64.175392 32.462867 28.988809 9
-61.153615 34.768774 28.847808 9
-58.105417 37.060133 28.704078 9
-55.045137 39.353442 28.561588 9
-51.870041 41.549175 28.394238 9
-48.287986 43.373352 28.128891 9
-43.832561 44.409075 27.651295 9
-38.530522 44.728920 26.974010 9
-33.189245 45.109983 26.301692 9
-27.844933 45.584920 25.643322 9
-22.246982 45.933737 24.938089 9
-16.528533 46.281770 24.219474 9
-10.698531 46.640952 23.490245 9
-4.729131 46.992283 22.744405 9
1.411378 47.315366 21.975278 9
7.633244 47.687635 21.204595 9
14.173263 47.927946 20.378296 9
20.800655 48.224493 19.550749 9
27.464330 48.617476 18.733884 9
34.543023 48.830948 17.842968 9
41.661981 49.149074 16.963496 9
51.216131 47.897941 15.568357 9
78.871824 34.457323 10.252027 5
87.208114 34.678967 9.213037 5
95.828228 34.871928 8.137398 5
104.611560 35.123466 7.052198 5
120.659415 30.973288 4.460806 6
130.271706 31.142566 3.266574 6
140.239710 31.280569 2.026882 6
-109.809949 -6.856821 35.384636 8
-109.777363 -0.316347 36.056475 8
-108.723745 4.617662 36.421952 8
-106.897920 8.381574 36.561051 8
-104.112887 10.793441 36.428759 8
-100.433598 12.019731 36.051502 8
-96.652724 13.155528 35.653732 8
-92.752848 14.186149 35.231545 8
-88.818306 15.224536 34.808482 8
-84.787151 16.197129 34.368321 8
-80.666662 17.118742 33.913676 8
-76.487593 18.030697 33.453185 8
-72.207114 18.886944 32.976174 8
-67.833119 19.702151 32.485343 8
-65.287602 22.599954 32.467950 9
-64.989625 27.915349 33.016132 9
-62.091688 30.370123 32.909658 9
-59.181836 32.818606 32.804004 9
-56.308571 35.311758 32.711178 9
-53.310855 37.687130 32.592090 9
-49.999390 39.767026 32.402291 9
-46.066933 41.274320 32.070929 9
-41.226769 41.973369 31.534539 9
-35.946878 42.346308 30.907974 9
-30.612374 42.764872 30.282918 9
-25.161978 43.175855 29.645568 9
-19.603463 43.590509 28.998299 9
-13.903906 43.984632 28.334253 9
-8.042178 44.346017 27.649459 9
-2.066842 44.721003 26.955517 9
4.012902 45.120891 26.255007 9
10.152537 45.584220 25.558110 9
16.511186 45.988963 24.830796 9
23.070561 46.357578 24.078115 9
29.762932 46.747974 23.315439 9
36.719342 47.068953 22.515909 9
53.059210 40.818972 19.783382 9
61.623746 40.408430 18.707878 9
80.670420 32.986820 15.513899 5
88.882907 33.298956 14.578014 5
97.301167 33.629520 13.624034 5
106.047217 33.906646 12.628645 5
122.429292 29.541617 10.150402 6
131.639291 29.962598 9.127151 6
141.363910 30.245033 8.030329 6
-92.297161 -4.735589 37.693555 8
-91.077830 0.024222 37.992387 8
-88.338496 2.728221 37.898093 8
-85.112021 4.803039 37.683055 8
-81.661074 6.612140 37.416633 8
-77.986581 8.173631 37.100739 8
-74.161735 9.590849 36.754942 8
-70.205770 10.896584 36.384974 8
-66.156179 12.142351 36.000752 8
-64.671162 16.320097 36.236617 9
-65.189543 22.644056 36.943060 9
-62.539236 25.401229 36.896861 9
-59.809992 28.068899 36.835254 9
-57.066055 30.719822 36.773616 9
-54.148323 33.193717 36.675912 9
-51.081658 35.526608 36.548922 9
-47.616591 37.483189 36.337844 9
-43.121762 38.479344 35.905198 9
-38.078146 39.025981 35.362774 9
-32.873178 39.510477 34.798103 9
-27.588174 40.013843 34.229601 9
-22.143826 40.468263 33.640696 9
-16.553925 40.892549 33.035148 9
-10.874519 41.340537 32.425483 9
-4.986802 41.715487 31.787382 9
0.987809 42.125967 31.146991 9
7.034619 42.586414 30.507722 9
13.148521 43.102712 29.870934 9
19.542575 43.511366 29.194079 9
26.068556 43.936363 28.508129 9
32.898467 44.254070 27.779728 9
39.812595 44.636730 27.053430 9
47.369090 44.687511 26.221247 9
75.516549 30.468502 21.447486 5
83.354869 30.907584 20.638233 5
91.413059 31.343310 19.808939 5
99.881717 31.657759 18.924937 5
114.294384 28.303754 16.960410 5
125.865565 27.058340 15.562044 6
134.938950 27.590120 14.652953 6
144.324875 28.100508 13.712630 6
-65.508533 -19.673842 37.596010 9
-61.584975 -17.984209 37.270213 9
-66.074159 -6.044271 38.883708 9
-65.935348 0.024088 39.415842 9
-64.902629 4.914239 39.738333 9
-65.062213 11.080709 40.323008 9
-64.490763 16.288994 40.737245 9
-62.136451 19.433748 40.755193 9
-59.524790 22.279864 40.719224 9
-57.124768 25.341759 40.731968 9
-54.506171 28.160814 40.700503 9
-51.691088 30.774038 40.630874 9
-48.422762 32.937437 40.470481 9
-44.351812 34.335393 40.149367 9
-39.341511 34.882017 39.643875 9
-34.206523 35.397120 39.125396 9
-29.034974 35.967597 38.612384 9
-23.716327 36.493681 38.082831 9
-18.289821 37.016606 37.545274 9
-12.757720 37.542467 37.000685 9
-7.188961 38.134147 36.463031 9
-1.392419 38.631644 35.895478 9
4.532634 39.126393 35.318198 9
10.597891 39.613654 34.729582 9
16.907206 40.016440 34.110727 9
23.238370 40.516885 33.504324 9
29.698592 41.032909 32.890595 9
36.552045 41.372091 32.221669 9
43.297328 41.916386 31.590630 9
62.062986 33.986623 28.810637 9
79.534023 27.432255 26.318324 5
87.237655 28.003579 25.607319 5
95.373780 28.423788 24.841040 5
103.547181 28.969388 24.090244 5
122.878127 22.473716 21.438749 6
131.452195 23.214570 20.681064 6
140.330435 23.922189 19.895122 6
-56.030269 -24.571903 40.934231 9
-59.625359 -13.611654 42.230435 9
-60.608705 -6.079394 42.957066 9
-60.508340 -0.000162 43.447390 9
-59.538046 4.951165 43.751957 9
-58.011440 9.189345 43.939944 9
-56.168823 13.018696 44.063265 9
-54.129004 16.590417 44.147644 9
-51.870487 19.896361 44.190015 9
-49.214440 22.766119 44.156434 9
-45.936204 24.996175 44.005219 9
-41.696736 26.285208 43.674049 9
-36.842736 27.028500 43.234429 9
-31.862127 27.729068 42.782285 9
-26.789227 28.425040 42.324706 9
-21.620500 29.116871 41.861475 9
-19.239791 32.424746 41.927178 9
-13.789234 32.989118 41.432759 9
-8.218283 33.542987 40.929912 9
-2.572217 34.129760 40.427368 9
3.291285 34.632278 39.900028 9
9.209445 35.193709 39.377755 9
15.251216 35.759527 38.848683 9
21.466155 36.294909 38.304755 9
27.805236 36.844480 37.755228 9
34.299637 37.388720 37.195338 9
40.934386 37.944303 36.628333 9
65.300102 25.670387 33.100935 9
77.294812 22.886282 31.702996 5
84.799362 23.517345 31.078626 5
92.461510 24.174648 30.448065 5
100.434772 24.759926 29.787175 5
111.121517 23.701739 28.711947 5
133.537625 15.293858 25.801369 6
141.864207 16.316306 25.173148 6
-50.712685 -17.606305 45.789155 9
-53.598473 -7.841103 46.812342 9
-53.796377 -1.419849 47.312729 9
-53.031213 3.778583 47.627041 9
-51.693270 8.251167 47.832703 9
-49.788008 12.043963 47.933702 9
-47.330774 15.211367 47.935726 9
-44.055835 17.513166 47.793503 9
-39.643800 18.674105 47.453764 9
-34.947312 19.612656 47.073361 9
-30.126188 20.500895 46.681773 9
-25.241887 21.403851 46.290312 9
-20.221457 22.255107 45.886655 9
-15.100308 23.093674 45.477502 9
-9.823262 23.873673 45.053940 9
-4.463076 24.666793 44.628938 9
1.004365 25.454993 44.198848 9
6.655067 26.177365 43.751579 9
12.387570 26.926899 43.304596 9
18.263472 27.655531 42.848258 9
24.311374 28.345730 42.378595 9
30.510630 29.020605 41.899671 9
33.394248 32.375939 41.960930 9
39.934017 32.955182 41.454613 9
47.396773 32.962225 40.821244 9
82.992799 12.553347 35.874051 5
89.791467 13.729496 35.419894 5
96.805129 14.867849 34.950317 5
104.028593 15.979923 34.467049 5
138.401588 -1.066554 29.973446 6
143.284451 2.209494 29.908911 6
149.678075 4.560977 29.636281 6
-42.612708 -1.574710 50.959270 9
-40.135290 1.772795 50.959525 9
-36.802679 4.194474 50.821851 9
-33.035384 6.180028 50.619180 9
-28.949234 7.873680 50.372312 9
-24.687663 9.437255 50.105838 9
-20.231253 10.861440 49.817422 9
-15.593339 12.169504 49.510037 9
-10.829842 13.423526 49.193284 9
-5.886388 14.579246 48.859224 9
-0.803105 15.681785 48.514846 9
4.415300 16.741686 48.161479 9
9.780458 17.754715 47.797940 9
15.268115 18.747975 47.428518 9
20.964769 19.653794 47.040824 9
26.748254 20.581806 46.653826 9
32.709318 21.461666 46.254598 9
38.830563 22.314303 45.846424 9
45.840738 22.580154 45.324985 9
17.194657 -0.656139 50.982682 9
20.615233 2.298876 50.934722 9
24.851417 4.556748 50.782373 9
29.491586 6.511515 50.584679 9
34.612322 8.118759 50.332865 9
39.941297 9.625801 50.065130 9
41.390600 1.591283 -50.967476 9
38.012737 0.553240 -50.985450 9
34.688484 -0.339258 -50.987100 9
31.398338 -1.182623 -50.985972 9
28.157650 -1.852450 -50.964112 9
24.954926 -2.392551 -50.927566 9
21.764660 -2.977215 -50.901253 9
18.598607 -3.506834 -50.870786 9
15.455425 -3.972757 -50.834812 9
12.329377 -4.410807 -50.798419 9
9.220477 -4.803720 -50.759033 9
6.126526 -5.155769 -50.717199 9
3.040851 -5.545693 -50.684334 9
-0.031722 -5.892153 -50.648546 9
-3.095042 -6.242337 -50.616681 9
-6.148259 -6.557385 -50.583010 9
-9.191488 -6.775914 -50.538458 9
-12.230030 -7.037617 -50.503496 9
-15.262675 -7.227447 -50.461171 9
-18.291374 -7.471479 -50.430028 9
-21.316032 -7.707130 -50.400831 9
-24.338347 -7.897210 -50.368053 9
-27.358661 -8.085855 -50.338195 9
-30.378119 -8.260179 -50.309331 9
-33.394817 -8.473361 -50.289341 9
-36.415356 -8.611990 -50.261370 9
-39.433893 -8.792974 -50.242776 9
-42.459400 -8.899689 -50.216196 9
-45.579869 -8.011560 -50.044322 9
-48.954407 -4.864745 -49.538197 9
49.406935 -7.547617 -49.046463 9
45.531419 -11.150429 -49.465547 9
42.227360 -12.196465 -49.499913 9
39.090085 -12.494433 -49.423652 9
35.974401 -12.759223 -49.345694 9
32.868420 -13.054717 -49.275801 9
29.778247 -13.342471 -49.208026 9
26.704632 -13.611269 -49.140583 9
23.645349 -13.869278 -49.074678 9
20.603167 -14.086230 -49.005558 9
17.572101 -14.299750 -48.939008 9
14.549532 -14.528971 -48.877978 9
11.541369 -14.708591 -48.812236 9
8.539208 -14.916295 -48.753883 9
5.545696 -15.119336 -48.697771 9
2.560898 -15.305759 -48.641991 9
-0.415799 -15.467775 -48.585276 9
-3.387018 -15.636975 -48.532568 9
-6.353952 -15.839145 -48.487925 9
-9.312916 -15.938310 -48.429828 9
-12.269736 -16.095548 -48.383717 9
-15.222898 -16.233386 -48.337318 9
-18.173484 -16.353484 -48.290864 9
-21.122257 -16.474747 -48.247338 9
-24.068999 -16.626151 -48.211346 9
-27.016249 -16.723196 -48.169410 9
-29.962090 -16.857563 -48.136134 9
-32.912470 -16.907900 -48.092122 9
-35.861345 -17.016597 -48.060118 9
-38.812164 -17.120453 -48.030016 9
-41.766874 -17.204079 -47.999340 9
-44.759800 -16.909187 -47.910568 9
-47.869894 -15.578843 -47.658025 9
-51.191689 -12.647404 -47.150416 9
-54.933612 -6.799651 -46.175673 9
56.411769 -5.924976 -45.409408 9
51.384358 -14.147987 -46.621411 9
47.551960 -17.575129 -47.058168 9
44.195837 -19.042303 -47.178998 9
41.083986 -19.446469 -47.129006 9
38.027640 -19.647050 -47.048576 9
34.985836 -19.843527 -46.970391 9
31.964304 -19.995953 -46.887795 9
28.947351 -20.195210 -46.815783 9
25.949794 -20.342486 -46.737941 9
22.956753 -20.534524 -46.670298 9
19.976111 -20.712903 -46.603116 9
17.002708 -20.914990 -46.542598 9
14.046345 -21.046387 -46.472924 9
11.104003 -21.111272 -46.394701 9
8.158445 -21.287694 -46.337779 9
5.225218 -21.400116 -46.272669 9
2.296381 -21.535907 -46.214031 9
-0.625313 -21.646443 -46.153647 9
-3.544641 -21.811880 -46.105038 9
-6.455500 -21.884449 -46.043188 9
-9.365070 -22.026532 -45.995563 9
-12.270153 -22.121820 -45.942434 9
-15.172884 -22.221824 -45.892515 9
-18.073663 -22.323204 -45.845225 9
-20.973230 -22.408166 -45.797519 9
-23.872327 -22.487211 -45.751165 9
-26.770866 -22.583258 -45.710067 9
-29.668206 -22.711518 -45.676828 9
-32.569171 -22.774003 -45.634669 9
-35.471687 -22.842122 -45.595793 9
-38.373266 -22.954866 -45.566888 9
-41.286911 -22.945838 -45.519384 9
-44.211681 -22.869537 -45.462591 9
-47.224549 -21.999449 -45.271460 9
-50.375562 -20.103433 -44.905699 9
-53.739124 -16.825795 -44.303649 9
-57.158622 -13.667754 -43.723764 9
-60.979067 -8.179801 -42.743468 9
-64.143751 -7.780812 -42.643100 9
62.410029 -8.917820 -42.507389 9
58.367086 -12.343625 -42.976372 9
53.938525 -17.786566 -43.802921 9
49.974723 -21.701747 -44.369167 9
46.514353 -23.681892 -44.601776 9
43.332104 -24.544025 -44.641978 9
40.305558 -24.744223 -44.568754 9
37.309209 -24.857533 -44.482784 9
34.308322 -25.066855 -44.416271 9
31.336751 -25.177714 -44.334838 9
28.376647 -25.284077 -44.255025 9
25.417371 -25.455667 -44.189193 9
22.480175 -25.542449 -44.110655 9
19.540918 -25.716181 -44.049943 9
16.620615 -25.808387 -43.977005 9
13.706274 -25.916548 -43.909190 9
10.799507 -26.022547 -43.843238 9
7.899050 -26.134321 -43.780551 9
5.004923 -26.246600 -43.720162 9
2.118848 -26.324247 -43.655723 9
-0.763767 -26.423800 -43.597383 9
-3.640291 -26.488263 -43.534846 9
-6.516755 -26.648096 -43.491664 9
-9.386770 -26.735904 -43.437572 9
-12.253578 -26.793117 -43.380017 9
-15.118872 -26.874993 -43.328995 9
-17.982627 -26.942611 -43.277434 9
-20.845426 -27.020400 -43.229758 9
-23.707701 -27.099387 -43.184325 9
-26.569602 -27.189350 -43.142911 9
-29.432088 -27.272792 -43.102315 9
-32.298405 -27.302196 -43.053841 9
-35.164404 -27.376475 -43.015546 9
-38.034211 -27.428209 -42.975102 9
-40.907741 -27.472738 -42.935303 9
-43.794092 -27.419857 -42.879594 9
-46.743830 -26.809592 -42.723488 9
-49.800569 -25.405462 -42.423300 9
-53.023149 -22.923584 -41.926520 9
-56.368898 -19.934043 -41.337639 9
-59.403173 -19.606678 -41.240109 9
-62.577739 -18.453196 -40.992298 9
-68.250867 -2.080113 -37.940713 8
-71.415808 -2.241998 -37.937420 8
-74.594041 -2.370430 -37.930098 8
-77.790418 -2.448648 -37.915646 8
-80.993745 -2.542581 -37.906234 8
-84.206742 -2.640188 -37.899645 8
-87.436573 -2.711698 -37.890382 8
-90.670806 -2.816718 -37.889471 8
-93.923729 -2.895011 -37.885784 8
-97.191418 -2.967976 -37.883286 8
-100.481738 -3.009056 -37.877071 8
-103.800991 -3.001487 -37.864044 8
100.790345 4.765424 -37.691508 5
96.577981 2.874541 -37.882804 5
92.665148 1.679513 -37.952054 5
88.855142 0.653426 -37.994429 5
85.169083 -0.116803 -37.993710 5
81.537182 -0.828683 -37.985728 5
77.954165 -1.490640 -37.971888 5
74.433438 -2.047134 -37.941826 5
70.966082 -2.515399 -37.898537 5
63.547883 -17.997997 -40.637633 9
59.814586 -20.327712 -40.951370 9
56.591795 -20.823134 -40.928271 9
52.151333 -26.626397 -41.896544 9
48.300564 -30.382798 -42.489335 9
45.779735 -28.324943 -41.999766 9
42.696291 -28.884713 -42.001291 9
39.719613 -29.006752 -41.923156 9
36.745836 -29.182416 -41.857269 9
33.805742 -29.239731 -41.771256 9
30.867734 -29.347054 -41.696740 9
27.937186 -29.475326 -41.628248 9
24.637641 -32.256258 -42.064022 9
21.758232 -32.352140 -41.994270 9
18.894972 -32.387412 -41.914966 9
16.031499 -32.485798 -41.849569 9
13.178156 -32.560172 -41.781513 9
10.328969 -32.661071 -41.720398 9
7.492368 -32.690839 -41.647565 9
4.656552 -32.773649 -41.586696 9
1.825659 -32.861167 -41.528554 9
-0.996270 -32.871937 -41.457497 9
-3.819421 -32.972598 -41.405460 9
-6.637457 -33.041854 -41.349165 9
-9.452006 -33.087399 -41.290054 9
-12.265382 -33.182479 -41.242218 9
-15.075975 -33.202937 -41.181713 9
-17.886024 -33.252811 -41.128579 9
-20.695763 -33.290539 -41.074783 9
-23.503897 -33.406224 -41.037757 9
-26.314188 -33.435649 -40.985701 9
-29.125263 -33.480247 -40.938238 9
-31.939359 -33.499268 -40.887453 9
-34.751826 -33.586350 -40.851529 9
-37.571218 -33.603881 -40.803714 9
-40.391176 -33.659598 -40.764952 9
-43.215720 -33.703583 -40.725523 9
-46.068036 -33.518234 -40.642960 9
-49.002449 -32.685700 -40.435562 9
-52.033917 -31.245509 -40.110758 9
-55.222992 -28.881463 -39.606462 9
-58.487278 -26.371361 -39.074523 9
-61.821292 -23.784843 -38.528558 9
-65.244075 -21.023559 -37.949306 9
-69.844531 -11.804631 -36.104771 8
-72.943517 -11.889628 -36.085175 8
-76.059089 -11.935738 -36.059675 8
-79.178880 -12.012849 -36.041985 8
-82.309072 -12.090416 -36.026116 8
-85.455153 -12.146615 -36.007781 8
-88.615753 -12.192898 -35.989231 8
-91.786954 -12.249276 -35.974405 8
-94.977328 -12.283407 -35.956946 8
-98.186181 -12.303101 -35.938394 8
-101.406390 -12.338416 -35.924676 8
-104.653678 -12.335041 -35.905101 8
-108.631434 -9.924312 -35.412751 8
107.030112 -7.954650 -36.611988 5
102.921633 -9.553103 -36.777789 5
99.378365 -9.797585 -36.686360 5
95.840629 -10.106453 -36.610122 5
92.333938 -10.410492 -36.535686 5
88.852730 -10.722939 -36.465563 5
85.437259 -10.919797 -36.375573 5
82.024371 -11.184803 -36.301363 5
78.640456 -11.436730 -36.227089 5
75.288569 -11.661188 -36.149870 5
71.948994 -11.921101 -36.081977 5
68.641855 -12.144919 -36.009339 5
62.284955 -23.916029 -38.213580 9
58.446964 -26.848895 -38.684287 9
54.632966 -29.990090 -39.200244 9
51.028570 -32.572185 -39.609587 9
47.732342 -34.074881 -39.808420 9
44.691666 -34.584712 -39.812766 9
41.728501 -34.821278 -39.764830 9
38.803886 -34.939163 -39.695130 9
35.898255 -35.021861 -39.620197 9
33.004009 -35.103600 -39.546817 9
30.119411 -35.191294 -39.476349 9
27.253708 -35.222258 -39.396195 9
24.387818 -35.313508 -39.329794 9
21.529434 -35.416886 -39.267485 9
18.682458 -35.499368 -39.202602 9
15.843457 -35.580863 -39.139122 9
13.017031 -35.611658 -39.066979 9
10.189523 -35.715268 -39.011102 9
7.375681 -35.735926 -38.939973 9
4.562395 -35.809873 -38.881147 9
1.753100 -35.900225 -38.827155 9
-1.047169 -35.914300 -38.759145 9
-3.846666 -35.974507 -38.701967 9
-6.643340 -36.046447 -38.648629 9
-9.436766 -36.106787 -38.594362 9
-12.227700 -36.149518 -38.537916 9
-15.017197 -36.179564 -38.480273 9
-17.824682 -31.751443 -37.511176 9
-20.594452 -36.269274 -38.375184 9
-23.383540 -36.291099 -38.319965 9
-26.172340 -36.353384 -38.274400 9
-28.964649 -36.352897 -38.217278 9
-31.755060 -36.435471 -38.178564 9
-34.546918 -36.517345 -38.141046 9
-37.346887 -36.514443 -38.087380 9
-40.148446 -36.542009 -38.041292 9
-42.954272 -36.567017 -37.995971 9
-45.771282 -36.527878 -37.938679 9
-48.675978 -35.766387 -37.733222 9
-51.670865 -34.442383 -37.412330 9
-54.797991 -32.369842 -36.937198 9
-57.991110 -30.175919 -36.437525 9
-61.242316 -27.941114 -35.929985 9
-64.584599 -25.474631 -35.374970 9
-68.924547 -17.568651 -33.690324 8
-71.972966 -17.660808 -33.667763 8
-75.044712 -17.677711 -33.630906 8
-78.124322 -17.709840 -33.598559 8
-81.207332 -17.778857 -33.575239 8
-84.302429 -17.843646 -33.552393 8
-87.413351 -17.891498 -33.527368 8
-90.545946 -17.903263 -33.496165 8
-93.689015 -17.929943 -33.469421 8
-96.838845 -17.986327 -33.450234 8
-99.998197 -18.061482 -33.436332 8
-103.191456 -18.070531 -33.409980 8
-106.562369 -17.538525 -33.271835 8
-111.216464 -12.928148 -32.281671 8
-116.082576 -8.021757 -31.230192 8
-121.452466 -1.966663 -29.938866 7
-124.899463 -2.018849 -29.927296 7
-128.366002 -2.075392 -29.918121 7
-131.849765 -2.144631 -29.913100 7
-135.352676 -2.222583 -29.911410 7
-138.862367 -2.342973 -29.920136 7
-142.443872 -2.339939 -29.904509 7
-146.046448 -2.350816 -29.893336 7
-149.653200 -2.417177 -29.895355 7
115.355866 -6.100256 -32.637792 5
108.606307 -13.865784 -34.088084 5
104.264306 -16.074805 -34.411412 5
100.772321 -16.273496 -34.326988 5
97.320755 -16.440223 -34.238261 5
93.893558 -16.613714 -34.153108 5
90.489093 -16.796743 -34.072063 5
87.117660 -16.957556 -33.988537 5
83.770053 -17.119246 -33.907239 5
80.437911 -17.305473 -33.833026 5
77.153345 -17.412365 -33.744334 5
73.857836 -17.624763 -33.679458 5
70.616084 -17.727034 -33.593576 5
65.411170 -24.973386 -34.999448 9
61.464813 -28.135168 -35.558724 9
57.718576 -30.832767 -36.024640 9
54.031845 -33.574114 -36.503099 9
50.557507 -35.712177 -36.858263 9
47.349467 -36.920754 -37.020911 9
44.313493 -37.500643 -37.053429 9
41.388212 -37.653545 -36.997715 9
38.489981 -37.738489 -36.929152 9
35.612218 -37.776677 -36.852136 9
32.736765 -37.860668 -36.786200 9
29.872812 -37.939545 -36.720566 9
27.026636 -37.967981 -36.645584 9
24.182009 -38.043975 -36.582023 9
21.920832 -33.843981 -35.609507 9
18.542336 -38.005695 -36.418277 9
15.710449 -38.170680 -36.377551 9
12.903794 -38.180032 -36.304875 9
10.098363 -38.232913 -36.242718 9
7.296874 -38.306301 -36.186166 9
4.502108 -38.364189 -36.127497 9
1.711065 -38.437678 -36.073358 9
-1.075139 -38.505535 -36.019184 9
-3.854766 -38.514284 -35.953446 9
-6.635080 -38.605366 -35.906559 9
-9.410863 -38.649898 -35.850771 9
-12.185015 -38.712540 -35.799997 9
-14.957241 -38.748076 -35.744465 9
-17.728686 -38.797329 -35.692974 9
-20.499808 -38.834310 -35.639895 9
-23.270286 -38.909383 -35.596125 9
-26.041600 -38.959815 -35.548067 9
-28.816847 -38.942541 -35.486343 9
-31.593069 -38.960424 -35.433260 9
-34.370085 -39.007965 -35.387635 9
-37.150571 -39.043382 -35.340377 9
-39.931432 -39.114630 -35.301925 9
-42.717518 -39.163465 -35.259583 9
-45.532667 -38.969203 -35.165150 9
-48.401731 -38.380232 -34.985357 9
-51.369523 -37.131716 -34.662071 9
-54.442461 -35.328775 -34.217954 9
-57.604912 -33.202399 -33.703324 9
-60.787036 -31.278583 -33.233330 9
-64.067447 -29.041152 -32.694857 9
-68.021747 -23.219017 -31.369663 8
-71.027568 -23.279435 -31.335917 8
-74.051884 -23.292373 -31.292724 8
-77.081849 -23.331119 -31.256181 8
-80.115363 -23.404682 -31.228282 8
-83.173061 -23.418890 -31.188292 8
-86.233100 -23.477523 -31.159061 8
-89.316523 -23.491551 -31.120969 8
-92.394515 -23.581955 -31.100696 8
-95.511330 -23.575574 -31.060032 8
-98.627121 -23.630210 -31.033808 8
-101.756574 -23.690312 -31.009765 8
-104.900952 -23.753391 -30.987355 8
-108.419153 -22.656471 -30.709175 8
-113.208088 -17.706478 -29.578444 8
-118.785115 -10.750311 -28.003074 7
-122.131607 -10.848649 -27.990949 7
-125.530504 -10.853667 -27.959161 7
-128.927305 -10.926447 -27.943426 7
-132.365530 -10.946784 -27.917086 7
-135.814822 -11.000345 -27.899155 7
-139.279095 -11.076673 -27.887323 7
-142.787528 -11.104499 -27.865763 7
-146.323220 -11.130336 -27.844810 7
-149.873977 -11.184890 -27.831300 7
146.128109 -5.216633 -29.540562 6
142.109247 -5.540999 -29.474196 6
138.118290 -5.896865 -29.417027 6
134.202173 -6.186061 -29.348016 6
130.318686 -6.491052 -29.284709 6
126.482934 -6.777303 -29.219648 6
122.664043 -7.110195 -29.166832 6
115.385787 -15.525580 -30.859338 5
109.363122 -21.487833 -32.030191 5
106.409380 -20.358135 -31.672428 5
102.111382 -22.602593 -32.047064 5
98.737705 -22.653876 -31.948733 5
95.379939 -22.728917 -31.857236 5
92.029182 -22.851914 -31.777833 5
88.714758 -22.942068 -31.692904 5
85.446529 -22.965020 -31.594868 5
82.171231 -23.072132 -31.516759 5
78.926998 -23.150749 -31.433929 5
75.691973 -23.265791 -31.360572 5
72.500247 -23.304883 -31.271979 5
69.301915 -23.429674 -31.203648 5
64.618159 -28.956891 -32.328304 9
60.871111 -31.482402 -32.794724 9
57.197829 -33.984920 -33.258874 9
53.595525 -36.468630 -33.721603 9
50.188567 -38.401450 -34.064827 9
47.007887 -39.567031 -34.239954 9
44.070167 -39.774562 -34.203832 9
41.157666 -39.935127 -34.158466 9
38.276579 -40.006547 -34.094388 9
35.407659 -40.074713 -34.030674 9
32.557762 -40.096629 -33.957690 9
29.716506 -40.123176 -33.886766 9
26.869871 -40.242039 -33.837533 9
24.047775 -40.262314 -33.767221 9
21.230591 -40.303285 -33.702524 9
18.417753 -40.370104 -33.644599 9
15.616036 -40.405905 -33.580649 9
12.819457 -40.453737 -33.520333 9
10.026099 -40.531935 -33.467782 9
7.245849 -40.528911 -33.397799 9
4.465265 -40.584171 -33.341853 9
1.689028 -40.644720 -33.287976 9
-1.082384 -40.695461 -33.232736 9
-3.850572 -40.753867 -33.180076 9
-6.613792 -40.763228 -33.117113 9
-9.377095 -40.842914 -33.070928 9
-12.137025 -40.875591 -33.014863 9
-14.895622 -40.884137 -32.954085 9
-17.653722 -40.972144 -32.912179 9
-20.410877 -41.036430 -32.865642 9
-23.169861 -41.010104 -32.799172 9
-25.927939 -41.071082 -32.753370 9
-28.687115 -41.124789 -32.706642 9
-31.449651 -41.142192 -32.652323 9
-34.210972 -41.221158 -32.612815 9
-36.975494 -41.282994 -32.570092 9
-39.750293 -41.254580 -32.507342 9
-42.518907 -41.348000 -32.473247 9
-45.315816 -41.197150 -32.383655 9
-48.168636 -40.626428 -32.197990 9
-51.101342 -39.547489 -31.895646 9
-54.133000 -37.936159 -31.470756 9
-57.242921 -36.054191 -30.983430 9
-60.425421 -33.996781 -30.455509 9
-63.641227 -32.042056 -29.951194 9
-67.578659 -26.199352 -28.547352 8
-70.569490 -26.224106 -28.500458 8
-73.561102 -26.296577 -28.465251 8
-76.571138 -26.325923 -28.420688 8
-79.587214 -26.379086 -28.382272 8
-82.630823 -26.359732 -28.327642 8
-85.672820 -26.404341 -28.288469 8
-88.723246 -26.466443 -28.253973 8
-91.807310 -26.447795 -28.201297 8
-94.891357 -26.486930 -28.162657 8
-97.987432 -26.536153 -28.126960 8
-101.102018 -26.574171 -28.089243 8
-104.234197 -26.607611 -28.051042 8
-107.574203 -26.023074 -27.869122 8
-111.715013 -23.029817 -27.124780 8
-116.801505 -17.429797 -25.770624 8
-120.609147 -15.994537 -25.389731 7
-123.956946 -16.014853 -25.349742 7
-127.322651 -16.046218 -25.312922 7
-130.688054 -16.138502 -25.290961 7
-134.088759 -16.196346 -25.261520 7
-137.519267 -16.238725 -25.229033 7
-140.975856 -16.278244 -25.196452 7
-144.456078 -16.323165 -25.165717 7
-147.971307 -16.348904 -25.131049 7
146.718655 -12.610531 -27.224375 6
142.833949 -12.743308 -27.138789 6
138.972730 -12.907673 -27.062099 6
135.138510 -13.096321 -26.992640 6
131.367370 -13.233597 -26.913225 6
127.627025 -13.381818 -26.837918 6
123.928949 -13.514268 -26.760608 6
119.355891 -15.684317 -27.149296 5
113.135176 -21.832719 -28.449073 5
108.435584 -24.785296 -29.023703 5
104.869431 -25.211175 -29.023093 5
101.449118 -25.360313 -28.960562 5
98.084817 -25.437179 -28.882754 5
94.761402 -25.472992 -28.796745 5
91.444791 -25.554695 -28.722482 5
88.171560 -25.581220 -28.636678 5
84.889511 -25.696526 -28.572488 5
81.646600 -25.763033 -28.498161 5
78.420668 -25.842056 -28.427819 5
75.225638 -25.887736 -28.350817 5
72.040602 -25.963461 -28.281810 5
68.881409 -26.015396 -28.208292 5
64.081788 -31.997795 -29.515368 9
60.368395 -34.471415 -30.009516 9
56.758532 -36.803292 -30.472885 9
53.245148 -38.999774 -30.906795 9
49.914764 -40.674898 -31.220875 9
47.733831 -37.501213 -30.401938 9
43.822242 -42.057147 -31.393058 9
40.957408 -42.057395 -31.318801 9
38.085080 -42.150262 -31.267031 9
35.234596 -42.190314 -31.203615 9
32.396089 -42.221132 -31.138750 9
29.562177 -42.282080 -31.081686 9
26.744889 -42.298200 -31.014751 9
23.931972 -42.340440 -30.954645 9
21.124915 -42.399602 -30.899198 9
18.326024 -42.457039 -30.843997 9
15.537825 -42.485788 -30.782637 9
12.756534 -42.508457 -30.720444 9
9.977502 -42.566244 -30.667176 9
7.204585 -42.620259 -30.613605 9
4.442283 -42.602719 -30.543596 9
1.676515 -42.687295 -30.498426 9
-1.081797 -42.723762 -30.442357 9
-3.836946 -42.763215 -30.387531 9
-6.589069 -42.797798 -30.332061 9
-9.339224 -42.842884 -30.279604 9
-12.025551 -39.095577 -29.320546 9
-14.834292 -42.946695 -30.179434 9
-17.580034 -42.979942 -30.125597 9
-20.325712 -43.003511 -30.069895 9
-23.072308 -43.009118 -30.010322 9
-25.817755 -43.090541 -29.969388 9
-28.566446 -43.105172 -29.912834 9
-31.317413 -43.118328 -29.856328 9
-34.068093 -43.179593 -29.811807 9
-36.823388 -43.208969 -29.759999 9
-39.584977 -43.203879 -29.700252 9
-42.343690 -43.279866 -29.660445 9
-45.128189 -43.139383 -29.568680 9
-47.955158 -42.696696 -29.404063 9
-50.862165 -41.724264 -29.111292 9
-53.885017 -40.077057 -28.654878 9
-56.975763 -38.237709 -28.151489 9
-60.117902 -36.356607 -27.637521 9
-63.303887 -34.492205 -27.127148 9
-67.218208 -28.696608 -25.660223 8
-70.187209 -28.749218 -25.614758 8
-73.176725 -28.744568 -25.555644 8
-76.163564 -28.807914 -25.513374 8
-79.169975 -28.828529 -25.460963 8
-82.187968 -28.850632 -25.409174 8
-85.219315 -28.869174 -25.356766 8
-88.258764 -28.908615 -25.309709 8
-91.320076 -28.915204 -25.254850 8
-94.389581 -28.946588 -25.206283 8
-97.470324 -28.991390 -25.161225 8
-100.581508 -28.983803 -25.103527 8
-103.681982 -29.069616 -25.068950 8
-106.946846 -28.675437 -24.916633 8
-110.754674 -26.670061 -24.368105 8
-115.672704 -21.502220 -23.040651 8
-118.527330 -22.756252 -23.293134 7
-121.790870 -22.834287 -23.256364 7
-125.102343 -22.836460 -23.201050 7
-128.433865 -22.846009 -23.147689 7
-131.769383 -22.906006 -23.106917 7
-135.135871 -22.946582 -23.061478 7
-138.527900 -22.984785 -23.015572 7
-141.955096 -23.000114 -22.964110 7
-145.395862 -23.046490 -22.920434 7
-219.465977 135.757086 16.514932 0
-224.889365 135.818734 16.614605 0
-230.893036 137.017201 16.996540 0
148.564548 -17.440019 -24.424127 6
144.728395 -17.492689 -24.340731 6
140.907877 -17.589303 -24.268988 6
137.127122 -17.683060 -24.197709 6
133.381718 -17.780186 -24.128348 6
129.580303 -18.067552 -24.105689 6
125.821952 -18.346972 -24.082286 6
122.104923 -18.619052 -24.058245 6
118.428857 -18.881460 -24.032967 6
112.107422 -25.294154 -25.490833 5
107.767529 -27.453133 -25.926979 5
104.298861 -27.686159 -25.899970 5
100.917621 -27.778073 -25.839767 5
97.576238 -27.836094 -25.772185 5
94.276169 -27.850983 -25.694932 5
90.973576 -27.935698 -25.635361 5
87.713412 -27.968320 -25.563888 5
84.486140 -27.969047 -25.485361 5
81.262390 -28.020153 -25.419763 5
78.067820 -28.045022 -25.348441 5
74.870151 -28.141662 -25.295267 5
71.717007 -28.157582 -25.223032 5
68.570717 -28.210628 -25.160466 5
63.684549 -34.525722 -26.631243 9
60.038083 -36.805042 -27.116926 9
56.449522 -39.103761 -27.609037 9
53.000369 -41.093060 -28.026828 9
49.700260 -42.687842 -28.349124 9
46.608882 -43.568687 -28.497023 9
43.664288 -43.914362 -28.513999 9
40.796662 -43.978050 -28.462053 9
37.943254 -44.030586 -28.407793 9
35.105156 -44.061142 -28.348522 9
32.274126 -44.109253 -28.293985 9
29.454531 -44.148507 -28.237642 9
26.645360 -44.180028 -28.179752 9
23.842020 -44.229794 -28.126738 9
21.050304 -44.255315 -28.068053 9
18.271430 -44.236818 -27.998754 9
15.487264 -44.314332 -27.953617 9
12.715800 -44.340563 -27.896036 9
9.950137 -44.365740 -27.838475 9
7.190677 -44.378732 -27.778147 9
4.435485 -44.393330 -27.718471 9
1.681129 -44.454212 -27.670598 9
-1.066775 -44.477068 -27.613467 9
-3.811479 -44.496468 -27.555691 9
-6.554172 -44.528252 -27.501224 9
-9.294038 -44.536343 -27.441018 9
-12.033698 -44.605592 -27.396336 9
-14.770897 -44.595276 -27.331866 9
-17.508243 -44.587665 -27.268222 9
-20.245325 -44.646415 -27.221412 9
-22.982920 -44.674118 -27.166938 9
-25.721406 -44.702670 -27.112809 9
-28.462020 -44.714461 -27.054570 9
-31.202966 -44.762565 -27.005600 9
-33.947567 -44.784926 -26.950230 9
-36.696701 -44.787080 -26.889831 9
-39.446634 -44.827692 -26.839232 9
-42.200117 -44.870237 -26.789190 9
-44.966739 -44.825921 -26.717179 9
-47.776906 -44.453036 -26.561781 9
-50.678767 -43.444749 -26.244819 9
-53.674417 -41.934099 -25.799689 9
-56.738932 -40.206090 -25.298576 9
-59.859105 -38.394504 -24.775397 9
-63.029588 -36.552021 -24.243516 9
-66.931562 -30.763781 -22.704064 8
-69.898503 -30.760002 -22.639126 8
-72.877095 -30.750639 -22.572694 8
-75.850588 -30.821472 -22.526695 8
-78.846227 -30.836913 -22.466456 8
-81.851729 -30.861928 -22.408574 8
-84.871028 -30.881236 -22.349125 8
-87.900572 -30.912616 -22.292656 8
-90.934681 -30.979273 -22.245125 8
-93.999590 -30.981293 -22.180849 8
-97.067035 -31.030261 -22.128490 8
-100.162244 -31.035905 -22.064814 8
-103.250989 -31.119616 -22.021073 8
-106.453312 -30.888367 -21.895892 8
-110.087628 -29.384236 -21.441644 8
-114.768166 -24.884709 -20.212185 8
-117.868975 -25.340123 -20.262369 7
-121.041629 -25.623980 -20.268067 7
-124.339871 -25.606785 -20.195585 7
-127.635041 -25.659409 -20.140906 7
-130.947855 -25.724521 -20.089179 7
-134.276661 -25.807357 -20.041756 7
-137.663440 -25.806327 -19.972209 7
-142.511498 -22.406152 -19.017324 7
-144.467775 -25.917963 -19.861629 7
-147.900975 -25.993824 -19.811014 7
-225.810965 136.686338 22.730423 0
-231.294914 136.711200 22.847489 0
-236.793324 136.663819 22.946379 0
146.491630 -22.360385 -21.632139 6
142.725089 -22.370106 -21.559582 6
138.948837 -22.469596 -21.510207 6
135.236125 -22.519186 -21.448824 6
131.553834 -22.579357 -21.390647 6
127.916525 -22.618477 -21.327666 6
124.292835 -22.698850 -21.275612 6
120.730376 -22.718029 -21.208548 6
117.108605 -22.937125 -21.192603 5
111.422956 -27.951936 -22.394076 5
107.380446 -29.447987 -22.704610 5
103.882264 -29.777696 -22.719711 5
100.532244 -29.821692 -22.662616 5
97.218499 -29.838371 -22.598918 5
93.904716 -29.918480 -22.551714 5
90.647523 -29.911990 -22.482753 5
87.403206 -29.930596 -22.420484 5
84.163171 -29.999127 -22.371256 5
80.966960 -30.002342 -22.305604 5
77.779125 -30.040321 -22.249097 5
74.625394 -30.032299 -22.181043 5
71.469438 -30.090702 -22.130238 5
68.336284 -30.134764 -22.075976 5
63.368144 -36.753655 -23.711480 9
59.806553 -38.762576 -24.164448 9
56.268990 -40.899490 -24.651419 9
52.822175 -42.909861 -25.106881 9
49.538750 -44.469881 -25.447235 9
46.477478 -45.257625 -25.589079 9
43.532532 -45.643121 -25.627468 9
40.697487 -45.593924 -25.553733 9
37.861627 -45.597872 -25.493804 9
35.032583 -45.619990 -25.438647 9
32.207536 -45.676035 -25.392348 9
29.397462 -45.703242 -25.338634 9
26.600819 -45.702214 -25.277632 9
23.805765 -45.743839 -25.227732 9
21.024094 -45.747452 -25.167971 9
18.240039 -45.823973 -25.127187 9
15.472571 -45.825202 -25.066807 9
12.704074 -45.889881 -25.022946 9
9.948882 -45.884065 -24.960679 9
7.190842 -45.963570 -24.920646 9
4.444618 -45.963755 -24.859854 9
1.700853 -45.981493 -24.803584 9
-1.038044 -45.974483 -24.740760 9
-3.777393 -46.029674 -24.694141 9
-6.512445 -46.054708 -24.639532 9
-9.244523 -46.046268 -24.576032 9
-11.977470 -46.142478 -24.539898 9
-14.707219 -46.135275 -24.476474 9
-17.436891 -46.183602 -24.427513 9
-20.166327 -46.210665 -24.372812 9
-22.896767 -46.212123 -24.311200 9
-25.626540 -46.277619 -24.266302 9
-28.361202 -46.244459 -24.195184 9
-31.092648 -46.331830 -24.155703 9
-33.831802 -46.316278 -24.088814 9
-36.571463 -46.346223 -24.033734 9
-39.310976 -46.419345 -23.989866 9
-42.060301 -46.419853 -23.926516 9
-44.820808 -46.360765 -23.847077 9
-47.632132 -45.911564 -23.663670 9
-50.506256 -45.075166 -23.376784 9
-53.480954 -43.660271 -22.935210 9
-56.530888 -41.970864 -22.419508 9
-59.633273 -40.214431 -21.884792 9
-62.780620 -38.453635 -21.347719 9
-66.707733 -32.465995 -19.680271 8
-69.656562 -32.513136 -19.623131 8
-72.619372 -32.537361 -19.559472 8
-75.595521 -32.548225 -19.491822 8
-78.582463 -32.562357 -19.424615 8
-81.567245 -32.639521 -19.373875 8
-84.573646 -32.673249 -19.311035 8
-87.593741 -32.703842 -19.246881 8
-90.634538 -32.706955 -19.174843 8
-93.684763 -32.730462 -19.107778 8
-96.747246 -32.764305 -19.042973 8
-99.832968 -32.771725 -18.970497 8
-102.924658 -32.815522 -18.907277 8
-106.092852 -32.667177 -18.791528 8
-109.645937 -31.389661 -18.369446 8
-114.120624 -27.483449 -17.233816 8
-117.812163 -26.165866 -16.797497 7
-120.500965 -27.817065 -17.165758 7
-123.781889 -27.809644 -17.083466 7
-127.066691 -27.852862 -17.014216 7
-130.360118 -27.932282 -16.954095 7
-133.691637 -27.973304 -16.882776 7
-137.049498 -28.009843 -16.809457 7
-140.434461 -28.042631 -16.734309 7
-143.840072 -28.088967 -16.662035 7
-147.265592 -28.151591 -16.593371 7
-226.346654 136.701019 28.671152 0
-231.824423 136.670829 28.799880 0
-237.390645 136.723835 28.952941 0
-242.906993 136.570972 29.050975 0
145.541809 -25.205313 -18.395429 6
143.624313 -21.805768 -17.439354 6
138.083630 -25.232206 -18.292908 6
134.382355 -25.297952 -18.255520 6
130.741801 -25.314274 -18.205000 6
127.113441 -25.374736 -18.166186 6
123.532399 -25.406358 -18.119675 6
119.984627 -25.434875 -18.072295 6
116.505189 -25.379913 -18.002621 5
111.061772 -29.860662 -19.142061 5
107.069948 -31.255669 -19.459866 5
103.692797 -31.314292 -19.421326 5
100.339491 -31.380494 -19.384732 5
97.050199 -31.350374 -19.322304 5
94.824977 -28.592339 -18.529933 5
90.481904 -31.447041 -19.239060 5
87.238846 -31.478827 -19.192834 5
84.024706 -31.490595 -19.141109 5
80.833491 -31.495765 -19.087466 5
77.656594 -31.517658 -19.038153 5
74.487722 -31.575538 -18.998347 5
71.346082 -31.607668 -18.951461 5
68.238209 -31.586409 -18.890035 5
63.186054 -38.496151 -20.694605 9
59.602197 -40.611660 -21.209855 9
56.089380 -42.684210 -21.714136 9
52.698257 -44.502679 -22.150452 9
49.448416 -45.948378 -22.486597 9
46.402378 -46.694845 -22.634127 9
43.474116 -47.030561 -22.670636 9
40.632227 -47.041147 -22.619042 9
37.791936 -47.098887 -22.579970 9
34.971355 -47.112375 -22.528664 9
32.158868 -47.135836 -22.479797 9
29.361650 -47.125016 -22.421354 9
26.567748 -47.145387 -22.371090 9
23.780120 -47.179612 -22.324302 9
21.001529 -47.206668 -22.275269 9
18.227959 -47.252078 -22.230928 9
15.467228 -47.249344 -22.173161 9
12.708291 -47.282856 -22.124941 9
9.956705 -47.301254 -22.072265 9
7.213263 -47.284172 -22.009551 9
4.468228 -47.337209 -21.965630 9
1.731200 -47.341031 -21.907894 9
-1.005537 -47.395766 -21.863711 9
-3.737516 -47.428126 -21.813027 9
-6.466064 -47.442035 -21.756890 9
-9.192422 -47.443967 -21.697056 9
-11.918102 -47.471379 -21.643793 9
-14.642367 -47.457804 -21.578837 9
-17.366631 -47.521102 -21.534570 9
-20.090430 -47.556535 -21.482199 9
-22.815761 -47.535301 -21.413756 9
-25.542647 -47.524143 -21.347597 9
-28.270465 -47.542561 -21.289097 9
-30.996910 -47.627176 -21.248381 9
-33.731074 -47.609362 -21.178863 9
-36.464936 -47.648892 -21.124669 9
-39.201950 -47.689389 -21.070212 9
-41.946218 -47.691923 -21.004689 9
-44.698746 -47.662945 -20.929848 9
-47.493352 -47.316192 -20.766163 9
-50.361682 -46.477240 -20.464902 9
-53.331163 -45.056838 -20.000849 9
-56.371745 -43.392488 -19.467515 9
-59.465369 -41.654737 -18.912215 9
-62.600204 -39.933892 -18.360055 9
-65.775676 -38.234505 -17.812290 9
-69.475274 -33.934558 -16.536120 8
-72.432173 -33.958880 -16.466594 8
-75.397444 -33.994161 -16.399379 8
-78.378615 -34.006739 -16.325031 8
-81.372689 -34.015792 -16.248891 8
-84.368441 -34.071963 -16.185160 8
-87.380720 -34.111711 -16.115995 8
-90.397717 -34.185448 -16.055547 8
-93.442505 -34.205576 -15.979149 8
-96.499792 -34.235504 -15.904613 8
-99.566514 -34.287113 -15.835279 8
-102.649266 -34.338453 -15.764941 8
-105.818253 -34.166386 -15.630456 8
-109.298308 -33.098388 -15.241164 8
-113.709626 -29.365063 -14.094635 8
-117.851487 -26.712841 -13.251523 7
-120.089284 -29.641553 -13.991169 7
-123.352918 -29.654823 -13.902338 7
-126.636422 -29.675153 -13.814365 7
-129.919097 -29.757264 -13.742827 7
-133.253620 -29.766666 -13.649370 7
-136.602840 -29.801664 -13.561981 7
-139.979605 -29.832038 -13.472007 7
-143.366883 -29.899391 -13.391327 7
-146.797243 -29.930215 -13.298863 7
-227.585663 138.238051 35.087357 0
-232.396426 136.713256 34.813353 0
-237.960197 136.718579 34.980978 0
-243.590217 136.754114 35.159682 0
148.734420 -27.354119 -15.048480 6
144.968783 -27.352651 -15.013794 6
141.212819 -27.404050 -14.993267 6
137.496910 -27.451914 -14.971202 6
133.858196 -27.421191 -14.926680 6
130.244369 -27.408106 -14.886509 6
126.636288 -27.450818 -14.861342 6
123.059471 -27.497691 -14.836788 6
119.527193 -27.518100 -14.804297 6
116.132118 -27.302834 -14.705405 5
110.845148 -31.434332 -15.820956 5
106.951332 -32.609721 -16.110342 5
103.547349 -32.741025 -16.107359 5
100.212341 -32.773060 -16.076072 5
96.908779 -32.789942 -16.039996 5
93.632264 -32.799474 -16.001313 5
90.378930 -32.809058 -15.962090 5
87.139817 -32.841201 -15.928642 5
83.917452 -32.888476 -15.898890 5
80.732828 -32.887915 -15.855156 5
77.546280 -32.953444 -15.829427 5
74.409775 -32.925242 -15.776799 5
71.266918 -32.975379 -15.745626 5
68.147515 -33.008858 -15.709205 5
63.098838 -39.897931 -17.602833 9
59.525093 -41.987518 -18.145753 9
56.046757 -43.940148 -18.650177 9
52.641715 -45.822389 -19.134825 9
49.408407 -47.213515 -19.480906 9
46.350605 -48.026367 -19.663556 9
43.458938 -48.217568 -19.670218 9
40.615957 -48.250287 -19.631549 9
37.776318 -48.323737 -19.603831 9
34.970489 -48.280612 -19.542538 9
32.159120 -48.317220 -19.503224 9
29.361510 -48.330454 -19.456691 9
26.569315 -48.364802 -19.415544 9
23.788505 -48.380644 -19.368538 9
21.020393 -48.360376 -19.310655 9
18.252226 -48.390706 -19.266518 9
15.492250 -48.410195 -19.218668 9
12.740957 -48.406264 -19.163512 9
9.991736 -48.433812 -19.116667 9
7.249194 -48.445163 -19.064552 9
4.512678 -48.435653 -19.005817 9
1.775260 -48.490781 -18.964851 9
-0.952129 -48.445444 -18.894514 9
-3.680977 -48.466902 -18.842555 9
-6.409276 -48.541453 -18.805088 9
-9.132344 -48.538229 -18.744660 9
-11.855245 -48.584040 -18.697553 9
-14.576288 -48.581460 -18.635845 9
-17.297403 -48.542800 -18.563027 9
-20.018147 -48.630926 -18.525847 9
-22.739642 -48.649407 -18.467909 9
-25.462695 -48.653499 -18.405050 9
-28.186613 -48.681599 -18.348305 9
-30.912122 -48.715950 -18.292561 9
-33.643272 -48.697039 -18.220641 9
-36.374202 -48.734741 -18.164215 9
-39.109570 -48.758354 -18.102879 9
-41.847514 -48.798150 -18.045365 9
-44.595559 -48.781324 -17.970595 9
-47.395143 -48.361167 -17.778060 9
-50.248455 -47.623903 -17.492430 9
-53.198330 -46.325146 -17.042494 9
-56.242079 -44.607484 -16.469197 9
-59.327001 -42.901521 -15.897381 9
-62.453350 -41.207890 -15.327204 9
-65.630616 -39.474202 -14.743373 9
-69.346345 -35.070780 -13.378889 8
-72.295250 -35.120873 -13.310900 8
-75.260466 -35.140789 -13.233003 8
-78.241244 -35.141220 -13.148276 8
-81.231803 -35.153200 -13.065766 8
-84.231750 -35.179550 -12.986287 8
-87.238944 -35.229712 -12.912599 8
-90.277638 -35.209311 -12.816977 8
-93.322102 -35.224986 -12.730688 8
-96.378163 -35.254194 -12.647103 8
-99.454584 -35.267639 -12.557574 8
-102.541369 -35.302574 -12.473049 8
-105.658852 -35.293898 -12.374291 8
-109.108067 -34.316430 -11.987618 8
-115.139437 -25.732341 -9.346653 8
-117.826115 -27.449013 -9.751657 7
-119.843637 -30.996113 -10.699590 7
-123.102874 -31.009151 -10.598361 7
-126.374243 -31.049825 -10.503769 7
-129.661411 -31.108514 -10.412942 7
-132.994884 -31.109952 -10.303415 7
-136.347994 -31.125601 -10.196423 7
-139.701749 -31.201132 -10.105601 7
-143.088058 -31.260865 -10.008317 7
-146.522509 -31.273466 -9.895113 7
-227.386173 136.638644 40.642076 0
-232.944757 136.697607 40.850680 0
-238.515056 136.675137 41.037936 0
-243.617837 135.610552 40.914135 0
148.406332 -29.038974 -11.541223 6
144.651796 -29.028743 -11.524469 6
140.915419 -29.055269 -11.517308 6
137.227408 -29.061553 -11.503114 6
133.567095 -29.083834 -11.492483 6
129.948062 -29.093899 -11.477187 6
126.356049 -29.117534 -11.464772 6
122.810139 -29.113514 -11.443201 6
119.279244 -29.144019 -11.430660 6
116.018586 -28.647601 -11.262957 5
110.822047 -32.566217 -12.385768 5
106.935181 -33.723065 -12.700000 5
103.536125 -33.844050 -12.710193 5
100.218956 -33.834159 -12.681078 5
96.920541 -33.839084 -12.655302 5
93.643228 -33.851727 -12.630795 5
90.392268 -33.856394 -12.602965 5
87.173106 -33.834945 -12.566494 5
83.968158 -33.832658 -12.534661 5
80.779850 -33.841906 -12.505236 5
77.596571 -33.896785 -12.488236 5
74.466242 -33.848700 -12.440042 5
71.337116 -33.852884 -12.406225 5
68.211788 -33.903848 -12.385193 5
63.054583 -41.145279 -14.477572 9
59.527417 -43.070235 -15.006886 9
56.056217 -44.995781 -15.535957 9
52.632561 -46.951466 -16.073505 9
49.426626 -48.235493 -16.412813 9
46.387229 -48.973150 -16.590532 9
43.457905 -49.338214 -16.657677 9
40.628778 -49.318851 -16.610591 9
37.808121 -49.309294 -16.565474 9
34.992445 -49.326419 -16.527312 9
32.193389 -49.306892 -16.477398 9
29.399725 -49.306844 -16.432308 9
26.612743 -49.318412 -16.389722 9
23.830832 -49.351023 -16.352431 9
21.061060 -49.354450 -16.305563 9
18.297666 -49.362249 -16.259045 9
15.535594 -49.413595 -16.224490 9
12.791161 -49.365260 -16.159413 9
10.044992 -49.378103 -16.111518 9
7.300951 -49.423351 -16.072283 9
4.565198 -49.427961 -16.020001 9
1.830770 -49.468522 -15.977428 9
-0.897536 -49.472052 -15.922849 9
-3.623342 -49.480001 -15.868581 9
-6.347141 -49.495275 -15.815485 9
-9.072020 -49.618249 -15.793507 9
-11.791434 -49.634664 -15.738728 9
-14.509598 -49.608372 -15.670147 9
-17.227993 -49.679923 -15.629759 9
-19.946556 -49.656244 -15.559833 9
-22.664586 -49.720121 -15.515041 9
-25.385377 -49.704003 -15.445206 9
-28.109422 -49.665249 -15.367465 9
