ply
format ascii 1.0
element vertex 1381
property float x
property float y
property float z
property int scalar_Label
end_header
-114.209393 25.964898 10.609751 8
-112.252982 27.897437 10.382760 8
-110.313554 29.833087 10.163065 8
-108.380226 31.753385 9.950787 8
-106.086754 33.042890 9.751329 8
-103.368502 33.634924 9.563755 8
-100.277680 33.657932 9.385544 8
-97.184433 33.733847 9.211289 8
-94.007007 33.734557 9.041922 8
-90.823233 33.784612 8.876663 8
-87.589885 33.818606 8.715971 8
-84.337855 33.884444 8.559673 8
-81.000022 33.886174 8.408214 8
-77.655787 33.940820 8.261205 8
-74.246720 33.966973 8.118989 8
-70.775421 33.971795 7.981572 8
-67.229962 33.942807 7.849006 8
-66.041122 37.037146 7.719406 9
-65.794924 41.279445 7.597796 9
-63.404674 42.750811 7.484227 9
-61.024129 44.244672 7.377039 9
-58.553620 45.640953 7.276105 9
-56.119673 47.095314 7.181571 9
-53.654197 48.526774 7.093346 9
-51.091915 49.863521 7.011235 9
-48.199888 50.852297 6.934434 9
-44.893349 51.420941 6.862397 9
-41.064941 51.479086 6.794484 9
-37.113432 51.477232 6.732048 9
-33.108509 51.493303 6.675490 9
-29.017996 51.496293 6.624839 9
-24.881243 51.528836 6.580432 9
-20.625473 51.520912 6.542126 9
-16.285773 51.511285 6.510259 9
-15.884885 55.292983 6.503390 4
-15.917490 59.417122 6.505653 4
-15.920264 63.443100 6.514756 4
-14.614244 66.235734 6.524837 4
-14.017904 69.626824 6.544893 1
-10.496297 70.464791 6.559237 1
-10.452545 74.281972 6.595206 1
-10.417228 78.047390 6.637550 1
-12.652095 83.595504 6.694495 1
-16.782330 90.525843 6.763060 3
-14.669553 92.408412 6.815322 3
-13.952993 95.370931 6.878520 3
-7.978589 94.359112 6.933862 3
-9.679798 99.120425 7.016372 2
-9.630111 102.521600 7.099799 2
-7.339482 104.292357 7.185085 2
-2.289413 104.167857 7.274145 2
2.534192 104.292164 7.372839 2
7.886707 104.151424 7.480838 2
126.409729 30.202359 7.609517 6
134.300910 30.131530 7.793509 6
142.398142 30.077978 7.993268 6
-149.550120 -24.580309 20.341670 7
-147.582991 -21.302767 19.878163 7
-142.944004 -25.656979 19.734162 7
-141.221291 -21.754270 19.262482 7
-137.979080 -22.038084 18.963935 7
-134.709354 -22.319056 18.669896 7
-131.398749 -22.628813 18.381534 7
-148.859270 27.887200 16.311000 7
-146.233027 28.044919 16.065074 7
-141.911060 24.310601 15.953154 7
-140.899796 28.302162 15.589049 7
-138.183228 28.386441 15.359328 7
-135.464853 28.513906 15.132820 7
-132.711995 28.614376 14.911732 7
-129.939920 28.722661 14.695004 7
-127.150756 28.844082 14.482525 7
-124.328101 28.947192 14.275198 7
-121.491599 29.072468 14.071936 7
-118.632790 29.204200 13.873215 7
-112.047366 22.555446 13.846774 8
-111.592900 27.241180 13.543365 8
-109.778402 29.396953 13.310321 8
-107.776073 31.195174 13.093098 8
-105.375247 32.304493 12.898096 8
-102.504109 32.650171 12.725439 8
-99.448345 32.741003 12.563189 8
-96.322506 32.775078 12.406962 8
-93.172324 32.828375 12.255243 8
-89.969552 32.858732 12.108912 8
-86.744531 32.914460 11.967118 8
-83.502983 33.004279 11.829817 8
-80.160824 33.007985 11.699172 8
-76.820375 33.075811 11.572650 8
-73.428225 33.132687 11.451625 8
-69.999377 33.201439 11.335809 8
-66.469584 33.198546 11.226559 8
-66.003455 37.230968 11.063957 9
-65.367056 40.960042 10.914536 9
-62.940409 42.381340 10.805447 9
-60.502906 43.801759 10.703037 9
-58.100584 45.277640 10.606577 9
-55.638452 46.694964 10.517593 9
-53.217369 48.174635 10.434532 9
-50.604832 49.450364 10.360732 9
-47.709726 50.433028 10.297146 9
-44.385373 50.979769 10.245329 9
-40.559459 51.038683 10.205732 9
-36.638248 51.066669 10.172985 9
-32.632840 51.079424 10.147060 9
-28.548689 51.085929 10.128025 9
-24.384083 51.087513 10.116048 9
-20.174094 51.121513 10.110901 9
-15.845475 51.118691 10.113569 9
-14.384304 53.897053 10.092383 4
-14.379036 58.000365 10.063497 4
-14.391529 62.049964 10.042261 4
-14.404805 66.032258 10.028655 4
-11.832952 67.688885 10.049291 1
-10.984020 70.844369 10.059349 1
-7.313662 71.590016 10.105992 1
-6.633759 74.862356 10.128823 1
-12.140816 83.112782 10.093392 1
-15.796528 89.665547 10.083244 3
-15.778416 93.187802 10.118350 3
-12.594296 94.236033 10.194624 3
-8.066082 94.318850 10.293430 3
-3.329395 94.330376 10.402821 3
-6.780264 100.341732 10.425016 2
-6.434491 103.520519 10.496880 2
-2.652849 104.278482 10.617065 2
2.577984 104.109981 10.763826 2
121.495638 28.202028 12.392098 6
129.272815 28.080942 12.634451 6
137.345218 27.915333 12.895505 6
145.557766 27.812285 13.173836 6
-148.357834 -17.761404 23.169019 7
-145.171228 -18.154478 22.885602 7
-140.343420 -22.925617 22.830017 7
-138.814227 -18.666200 22.319178 7
-135.578822 -18.962465 22.045462 7
-149.479134 23.656512 19.715248 7
-147.667902 25.851629 19.374463 7
-144.998163 25.947637 19.139405 7
-142.371920 26.189537 18.902648 7
-139.702547 26.372701 18.673672 7
-137.019536 26.567809 18.449253 7
-134.286284 26.696929 18.232761 7
-131.526004 26.814932 18.021747 7
-128.745888 26.938899 17.815503 7
-125.936433 27.050988 17.614785 7
-123.117608 27.192641 17.417953 7
-120.295366 27.374859 17.224676 7
-117.407436 27.480148 17.039542 7
-112.716132 24.337840 16.980735 8
-110.896472 26.523453 16.727481 8
-109.099047 28.710854 16.482221 8
-107.001738 30.348170 16.264366 8
-104.484975 31.269546 16.078556 8
-101.550050 31.522230 15.921836 8
-98.446193 31.549659 15.778184 8
-95.330097 31.614274 15.638623 8
-92.152692 31.639818 15.505751 8
-88.941335 31.671865 15.378123 8
-85.704662 31.724700 15.255377 8
-82.391261 31.724184 15.139913 8
-77.098533 28.961510 15.114283 8
-75.775571 31.920459 14.920152 8
-72.351921 31.947096 14.821245 8
-68.875329 31.964959 14.728568 8
-66.066913 32.928185 14.614626 9
-64.983433 36.152967 14.442832 9
-64.712124 40.353091 14.251657 9
-62.281697 41.770426 14.147048 9
-59.927311 43.293284 14.046535 9
-57.518919 44.760713 13.954639 9
-55.141551 46.276872 13.868491 9
-52.652250 47.674831 13.792673 9
-49.996737 48.900565 13.728619 9
-47.058344 49.834838 13.679523 9
-43.544745 50.175621 13.653488 9
-39.767709 50.291689 13.640633 9
-35.770883 50.243571 13.639478 9
-31.803378 50.300223 13.642995 9
-27.688919 50.279701 13.656268 9
-23.511370 50.272415 13.677088 9
-19.213575 50.224544 13.707134 9
-14.889146 50.231011 13.744076 9
-11.520143 51.216878 13.762715 4
-6.719873 50.924218 13.825198 4
-11.595625 59.506677 13.648424 4
-11.695300 63.601615 13.602632 4
-10.169881 66.206727 13.605943 4
-7.782104 68.057949 13.638539 1
-6.426056 70.792666 13.653014 1
-1.850670 70.849315 13.755193 1
-11.497989 82.523057 13.511717 1
-16.280272 89.973888 13.396501 3
-14.222462 91.887596 13.458334 3
-12.744557 94.255653 13.512902 3
-8.175794 94.295291 13.652094 3
-3.484828 94.328229 13.802297 3
1.367700 94.330096 13.964815 3
6.228518 94.415154 14.136078 3
99.833482 32.925785 16.602586 5
118.473546 25.010969 17.171300 6
126.372549 24.710107 17.476772 6
134.431844 24.453050 17.800439 6
142.785613 24.158189 18.146498 6
-150.009076 -11.737362 26.223403 7
-148.290765 -8.229567 25.713607 7
-145.063418 -8.945528 25.481449 7
-141.845432 -9.542765 25.246272 7
-149.515973 17.810134 23.314417 7
-148.879705 23.076142 22.762482 7
-146.272112 23.335910 22.520834 7
-143.601990 23.484612 22.291216 7
-140.942020 23.699631 22.063179 7
-138.258722 23.902338 21.841345 7
-135.551359 24.093529 21.625653 7
-132.823600 24.283405 21.415532 7
-130.064651 24.451023 21.212131 7
-127.251180 24.551821 21.017801 7
-124.432869 24.691082 20.826882 7
-121.587751 24.824967 20.641764 7
-118.737699 24.997135 20.460236 7
-113.576140 20.904915 20.500084 8
-111.829802 23.276187 20.217294 8
-110.063996 25.566802 19.947032 8
-108.236499 27.708320 19.692388 8
-106.030108 29.167813 19.478673 8
-103.310963 29.764028 19.313299 8
-100.322803 29.950965 19.173491 8
-97.200464 29.971742 19.047339 8
-94.080848 30.053636 18.924194 8
-90.927005 30.137779 18.806903 8
-87.719156 30.195925 18.696827 8
-84.464327 30.241842 18.593399 8
-81.177520 30.299910 18.495617 8
-75.517313 27.035969 18.550342 8
-72.077920 27.062677 18.465494 8
-70.987771 30.370385 18.244914 8
-67.511996 30.410103 18.173680 8
-66.085624 33.214199 17.990764 9
-64.657009 35.974421 17.817825 9
-63.942334 39.601840 17.616099 9
-61.593783 41.124503 17.511455 9
-59.192875 42.591831 17.416560 9
-56.750175 44.020501 17.330711 9
-54.411749 45.585519 17.246589 9
-52.024179 47.103154 17.171936 9
-49.289089 48.238736 17.120774 9
-46.146886 48.948068 17.095005 9
-42.637336 49.299457 17.091906 9
-38.750758 49.304021 17.111227 9
-34.768280 49.278874 17.139910 9
-30.748617 49.288852 17.175448 9
-26.641200 49.283371 17.220200 9
-22.451191 49.271092 17.274050 9
-18.146995 49.224270 17.338452 9
-13.767801 49.185250 17.411874 9
-9.337610 49.179174 17.493501 9
-4.719428 49.080602 17.589122 9
-5.135540 53.637576 17.487880 4
2.818343 50.654247 17.731984 4
-10.553837 66.514203 17.131961 1
-10.582341 70.421991 17.075720 1
-10.604621 74.262435 17.028387 1
-10.547712 77.977583 16.992611 1
-16.913482 86.847646 16.713847 3
-16.983155 90.456927 16.689985 3
-13.132472 90.950125 16.826554 3
-11.627730 93.304384 16.879069 3
-8.301241 94.283565 17.010006 3
-3.495428 94.219331 17.206201 3
1.356987 94.210271 17.412155 3
6.292880 94.230973 17.629608 3
103.450770 30.209967 21.477197 5
126.167461 19.542752 22.427160 6
134.322869 19.157657 22.818547 6
142.783339 18.726763 23.235824 6
-150.010897 -2.263389 28.614697 7
-150.006704 5.525478 27.773926 7
-150.015380 12.974175 26.978332 7
-147.512936 13.672997 26.692953 7
-144.930426 14.187242 26.427689 7
-142.317595 14.652795 26.172392 7
-141.695378 19.837051 25.592134 7
-139.020561 20.098083 25.367665 7
-136.316194 20.331266 25.151099 7
-133.632706 20.650406 24.934664 7
-130.879844 20.858190 24.731819 7
-128.124432 21.103239 24.532469 7
-125.303115 21.255464 24.345272 7
-122.471045 21.432508 24.162416 7
-119.622333 21.622819 23.984732 7
-114.037821 16.654065 24.142198 8
-112.397880 19.297510 23.818621 8
-108.985463 18.655928 23.709831 8
-109.105751 24.391194 23.210743 8
-107.112669 26.255256 22.962050 8
-104.696443 27.374964 22.766755 8
-101.894625 27.859948 22.617082 8
-98.835190 27.959893 22.497156 8
-95.684739 27.966999 22.389101 8
-92.532273 28.028495 22.284163 8
-89.335771 28.078218 22.186391 8
-86.099522 28.125153 22.095340 8
-82.827695 28.177476 22.010631 8
-79.488155 28.190122 21.934982 8
-76.184200 28.314255 21.859767 8
-72.773027 28.346143 21.796867 8
-69.316157 28.377193 21.741120 8
-66.082583 28.770514 21.671982 9
-65.554793 32.776384 21.405244 9
-65.353436 37.118020 21.128014 9
-63.034770 38.677715 21.016464 9
-60.714654 40.242192 20.912400 9
-58.369627 41.783418 20.817421 9
-55.986001 43.287171 20.732345 9
-53.587208 44.783997 20.655476 9
-51.180354 46.283440 20.586306 9
-48.319468 47.281122 20.553443 9
-45.099068 47.910813 20.549541 9
-41.389081 48.052241 20.581748 9
-37.475542 48.040599 20.631362 9
-33.467918 48.001796 20.691488 9
-29.397409 47.972092 20.760302 9
-25.266513 47.956165 20.837787 9
-21.027089 47.908046 20.926888 9
-16.744742 47.896375 21.023895 9
-12.326125 47.832475 21.134325 9
-7.839682 47.786595 21.254371 9
-3.238101 47.717062 21.386864 9
1.453654 47.650971 21.530552 9
6.223295 47.602332 21.684944 9
-10.203415 66.179478 20.689493 4
-9.909480 69.805459 20.622217 1
-9.965787 73.674927 20.545260 1
-0.265656 69.415827 21.000825 1
-8.211655 79.718736 20.518394 1
-15.184503 88.948243 20.099939 3
-13.264284 90.966492 20.164103 3
-8.689582 90.955761 20.376438 3
-4.123210 91.034997 20.595542 3
-3.675106 94.235060 20.604796 3
5.234991 91.276098 21.068411 3
101.271181 26.682214 26.136439 5
129.892324 11.604542 27.660531 6
139.455800 10.247358 28.191876 6
149.983000 8.437106 28.787573 6
-129.392325 5.654546 29.452560 7
-127.053122 7.066347 29.147447 7
-124.530114 8.074600 28.882673 7
-121.911945 8.892743 28.640578 7
-119.230197 9.599174 28.414655 7
-115.167023 7.586445 28.406763 8
-113.791131 10.935143 27.990643 8
-112.478165 14.311919 27.582759 8
-110.988777 17.270235 27.216822 8
-109.579355 20.302481 26.854934 8
-107.832693 22.662119 26.552890 8
-105.692072 24.292808 26.313788 8
-103.045232 25.049153 26.147309 8
-99.886644 24.976839 26.048971 8
-96.843911 25.153772 25.939060 8
-93.702577 25.223231 25.843888 8
-90.549939 25.330358 25.752928 8
-87.340347 25.404486 25.671407 8
-84.103143 25.493585 25.595957 8
-80.796801 25.537243 25.531021 8
-77.476262 25.619569 25.470686 8
-74.086207 25.661631 25.420714 8
-70.653473 25.705062 25.378260 8
-67.190770 25.769131 25.342097 8
-66.096770 29.070626 25.084639 9
-64.507593 31.660770 24.885958 9
-64.147840 35.805005 24.585654 9
-61.950251 37.531650 24.464452 9
-59.582929 39.047907 24.366229 9
-57.261801 40.629604 24.271499 9
-54.983495 42.269988 24.180749 9
-52.623727 43.820659 24.104527 9
-50.075897 45.164473 24.051253 9
-47.104974 46.047671 24.039239 9
-43.707189 46.492522 24.067316 9
-39.833277 46.470897 24.138035 9
-35.897063 46.453629 24.217988 9
-31.863187 46.405784 24.309974 9
-27.752333 46.352945 24.412434 9
-23.574803 46.308474 24.524683 9
-19.280651 46.224937 24.650537 9
-14.904646 46.141227 24.787477 9
-10.473739 46.086120 24.933679 9
-5.946542 46.022063 25.092305 9
-1.295293 45.926931 25.265450 9
3.457950 45.825599 25.451658 9
8.280101 45.751169 25.648774 9
13.260140 45.627721 25.863194 9
18.275915 45.566304 26.086620 9
-1.121221 66.171596 24.646160 4
28.816564 45.297970 26.589040 9
34.274847 45.157933 26.863855 9
-11.422811 85.874371 23.697457 3
-11.449815 89.461299 23.632925 3
-8.841633 90.975056 23.753684 3
-4.251093 91.023174 24.014472 3
0.583743 90.973870 24.298735 3
100.642951 22.052449 30.920104 5
-113.121809 -2.065094 32.782322 8
-113.577228 5.128309 31.980048 8
-113.036657 10.130551 31.388582 8
-111.226473 12.565576 31.037557 8
-110.625320 17.190478 30.502192 8
-108.695110 19.264211 30.202557 8
-106.712337 21.212560 29.922669 8
-103.729512 21.398441 29.805014 8
-98.051955 17.050652 30.088129 8
-97.460017 21.408476 29.622696 8
-94.323264 21.495227 29.535351 8
-91.169306 21.609071 29.453102 8
-87.948884 21.672985 29.382671 8
-84.717932 21.777584 29.316396 8
-81.437255 21.863302 29.259492 8
-78.165746 22.019969 29.204436 8
-74.795022 22.088503 29.164890 8
-71.346346 22.106022 29.137811 8
-67.877544 22.157871 29.116101 8
-66.154874 24.655192 28.895714 9
-64.469825 27.172832 28.682213 9
-65.065194 32.656695 28.225917 9
-62.914532 34.459418 28.089794 9
-60.629382 36.089201 27.976751 9
-58.384710 37.773618 27.867506 9
-56.080625 39.388718 27.772610 9
-53.846121 41.093421 27.678546 9
-51.459662 42.623526 27.607915 9
-48.761153 43.804922 27.575868 9
-45.607982 44.496361 27.595000 9
-41.946138 44.665984 27.668735 9
-38.011625 44.601446 27.772839 9
-33.998331 44.525388 27.888388 9
-29.936873 44.473154 28.012578 9
-25.772413 44.389457 28.150583 9
-21.595156 44.370073 28.294230 9
-17.254224 44.264142 28.457306 9
-12.826856 44.154599 28.632828 9
-8.311063 44.042666 28.821074 9
-3.694750 43.920101 29.023213 9
1.029100 43.784110 29.239959 9
5.874229 43.626169 29.472598 9
10.814319 43.474258 29.719012 9
15.910021 43.278444 29.984483 9
21.063540 43.128681 30.260942 9
26.408723 42.913323 30.559781 9
31.883746 42.690946 30.875996 9
37.499841 42.456816 31.210730 9
43.148201 42.302451 31.555328 9
83.014059 15.490176 34.688785 5
91.022713 14.234110 35.229014 5
99.675795 12.655818 35.829634 5
-109.634065 -1.963384 36.099081 8
-110.311504 5.525926 35.203656 8
-109.716147 10.340744 34.594211 8
-108.503627 13.863550 34.127041 8
-106.799544 16.403182 33.769206 8
-104.480978 17.804004 33.535060 8
-101.512241 18.075834 33.422369 8
-98.456604 18.245661 33.327640 8
-95.367154 18.409602 33.241313 8
-92.239250 18.562131 33.164029 8
-89.038073 18.650076 33.101151 8
-85.809746 18.751163 33.045072 8
-82.534337 18.835851 32.998838 8
-79.198092 18.886251 32.964334 8
-75.826142 18.943240 32.937664 8
-72.366086 18.932628 32.926280 8
-68.890637 18.963272 32.919618 8
-66.078583 19.978244 32.824975 9
-64.594644 22.829726 32.558397 9
-65.579400 28.940587 31.979124 9
-63.487542 30.848510 31.822674 9
-61.336461 32.673076 31.683165 9
-59.094210 34.379153 31.564114 9
-56.886406 36.129827 31.449399 9
-54.720588 37.932570 31.338254 9
-52.419115 39.572930 31.252082 9
-49.976426 41.054026 31.190760 9
-47.005629 41.939844 31.198456 9
-43.649244 42.425140 31.256334 9
-39.767317 42.377975 31.378568 9
-35.760935 42.266492 31.518376 9
-31.695344 42.166479 31.668380 9
-27.536675 42.044304 31.832367 9
-23.293339 41.912489 32.009422 9
-18.973022 41.782065 32.198771 9
-14.564990 41.645094 32.401634 9
-10.050410 41.486418 32.620044 9
-5.511846 41.389368 32.845525 9
-0.789748 41.203438 33.094676 9
4.070105 40.978893 33.362726 9
9.029466 40.755849 33.645865 9
14.102488 40.525041 33.945660 9
19.310163 40.272066 34.264328 9
24.634207 40.017503 34.600199 9
30.212610 39.648891 34.966920 9
35.808873 39.372194 35.341525 9
41.579890 39.059061 35.739552 9
49.803589 36.899469 36.379619 9
-65.067829 -13.201802 40.050088 9
-65.984968 -6.079915 39.231947 9
-66.074870 -0.410647 38.586991 9
-66.036702 4.916435 37.990242 9
-66.091664 10.238332 37.403546 9
-66.036193 15.265512 36.858980 9
-64.429311 18.012753 36.579087 9
-65.532125 24.410848 35.897884 9
-63.526358 26.479300 35.711707 9
-61.469170 28.467060 35.543608 9
-59.511054 30.572755 35.371159 9
-57.352372 32.411985 35.237811 9
-55.271785 34.345358 35.102799 9
-53.127549 36.195894 34.986212 9
-50.737404 37.751090 34.912499 9
-48.007698 38.918035 34.892781 9
-44.999891 39.789649 34.916991 9
-41.035688 39.616840 35.072745 9
-37.030467 39.473698 35.236757 9
-32.963820 39.338901 35.411803 9
-28.762407 39.136103 35.607232 9
-24.500247 38.949347 35.813567 9
-20.167160 38.770010 36.032190 9
-15.754620 38.591854 36.264240 9
-11.259000 38.414078 36.510236 9
-6.663018 38.222729 36.772331 9
-1.880498 37.938938 37.060789 9
3.018442 37.636865 37.367163 9
8.043917 37.311463 37.692691 9
13.137352 37.020605 38.030666 9
18.350707 36.719661 38.387290 9
23.678262 36.417819 38.762037 9
29.389900 35.887034 39.185546 9
35.089065 35.478196 39.612917 9
40.932768 35.058880 40.062169 9
49.460800 32.569906 40.814877 9
-62.620609 0.294349 42.252425 9
-64.969956 8.993147 41.191930 9
-65.639068 15.051290 40.471681 9
-64.662854 18.663434 40.067889 9
-63.029458 21.309821 39.794814 9
-61.132535 23.569608 39.579724 9
-59.264606 25.847640 39.371504 9
-57.354322 28.051541 39.181838 9
-55.351322 30.122225 39.018304 9
-53.279076 32.096514 38.876320 9
-50.997177 33.809538 38.777215 9
-48.514734 35.287087 38.718077 9
-45.388384 36.023437 38.764981 9
-41.825503 36.298572 38.882916 9
-37.779723 36.086893 39.076388 9
-33.639131 35.847285 39.286262 9
-29.408287 35.588797 39.511772 9
-25.110839 35.340396 39.749491 9
-20.707728 35.063272 40.005018 9
-16.247495 34.811825 40.271504 9
-11.669434 34.526114 40.557499 9
-7.039824 34.276842 40.853870 9
-2.200173 33.910375 41.182288 9
2.774530 33.508063 41.532327 9
7.921507 33.040129 41.908894 9
13.195768 32.555183 42.305940 9
24.640232 26.572234 43.512639 9
30.634926 25.750869 44.004987 9
36.873123 24.837579 44.532483 9
43.632073 23.603607 45.130422 9
75.110668 136.719114 -211.138873 0
71.201014 136.776693 -210.906184 0
67.296261 136.825507 -210.685852 0
63.398104 136.891602 -210.480448 0
59.505511 136.976151 -210.290004 0
55.609196 136.948566 -210.101398 0
51.714849 136.870089 -209.920810 0
47.826149 136.806886 -209.754803 0
43.908360 135.798424 -209.508453 0
75.266257 135.868834 -206.268105 0
71.439756 136.802533 -206.118626 0
67.521099 136.830236 -205.899487 0
63.610026 136.881853 -205.695326 0
59.706991 136.981808 -205.508224 0
55.801630 136.996464 -205.326211 0
51.894506 136.904640 -205.147474 0
47.992914 136.819022 -204.981992 0
44.094828 136.705150 -204.826687 0
71.670560 136.753170 -201.333547 0
67.741920 136.795344 -201.118938 0
63.818491 136.834795 -200.916562 0
59.904958 136.944152 -200.732023 0
55.986910 136.936281 -200.550671 0
52.074614 136.953287 -200.383559 0
48.160908 136.865328 -200.220646 0
44.252519 136.797807 -200.071579 0
40.321689 135.754241 -199.860452 0
71.898937 136.684064 -196.556056 0
67.963999 136.778660 -196.348253 0
64.029939 136.828898 -196.149486 0
60.100316 136.875743 -195.962496 0
56.176047 136.942398 -195.788774 0
52.253566 136.985371 -195.625379 0
48.328467 136.907357 -195.465909 0
44.406401 136.790349 -195.315799 0
40.489041 136.680589 -195.178047 0
72.042229 135.777528 -191.738984 0
68.182691 136.728694 -191.582721 0
64.241512 136.828181 -191.389514 0
60.296059 136.817296 -191.201748 0
56.361699 136.898262 -191.030680 0
52.426205 136.906611 -190.867131 0
48.495401 136.940111 -190.716466 0
44.561969 136.835231 -190.569763 0
40.633992 136.771745 -190.436796 0
68.406386 136.736223 -186.826393 0
64.447519 136.763429 -186.632179 0
60.497983 136.846459 -186.451718 0
56.547873 136.866194 -186.279633 0
52.601306 136.877228 -186.118341 0
48.659849 136.922601 -185.969673 0
44.717126 136.872958 -185.827987 0
40.776167 136.766380 -185.694964 0
36.821468 135.711957 -185.532774 0
68.536318 135.736562 -182.039684 0
64.655702 136.727783 -181.881595 0
60.696283 136.828916 -181.703822 0
56.737256 136.886566 -181.535389 0
52.777135 136.864275 -181.375112 0
48.822815 136.876779 -181.226740 0
44.872133 136.909756 -181.089737 0
40.919820 136.818664 -180.959476 0
36.970511 136.702324 -180.839130 0
64.865670 136.715445 -177.135485 0
60.890286 136.755928 -176.958252 0
56.921805 136.834755 -176.792300 0
52.952669 136.848366 -176.635311 0
48.987184 136.864043 -176.488739 0
45.024022 136.865700 -176.352208 0
41.062338 136.833080 -176.225281 0
37.102399 136.764964 -176.107929 0
33.137875 135.980671 -175.986506 0
65.072015 136.661462 -172.391153 0
61.090599 136.768818 -172.217269 0
57.109804 136.837205 -172.052969 0
53.127727 136.825624 -171.897827 0
49.152110 136.864814 -171.753205 0
45.177146 136.856756 -171.618058 0
41.205220 136.862030 -171.492970 0
37.233465 136.786065 -171.377029 0
33.257499 136.034351 -171.264937 0
65.208574 135.788262 -167.648446 0
61.289755 136.766746 -167.476838 0
57.294382 136.788580 -167.314456 0
53.305444 136.850446 -167.161688 0
49.315594 136.835941 -167.018569 0
45.330696 136.859885 -166.884986 0
41.345358 136.796566 -166.761073 0
37.365020 136.832694 -166.646522 0
33.383782 136.731420 -166.541731 0
61.484058 136.700793 -162.736832 0
57.480053 136.756767 -162.576524 0
53.481413 136.844267 -162.425072 0
49.480262 136.831984 -162.283994 0
45.483854 136.852570 -162.151707 0
41.487876 136.813500 -162.029323 0
37.495220 136.809644 -161.915632 0
33.503321 136.756084 -161.811701 0
29.511713 135.719507 -161.730062 0
61.610556 135.750071 -158.016385 0
57.669659 136.783036 -157.836519 0
53.655209 136.799652 -157.688016 0
49.642830 136.783688 -157.549093 0
45.634872 136.789386 -157.418473 0
41.630645 136.837075 -157.295619 0
37.625451 136.786890 -157.183831 0
33.623064 136.794957 -157.079368 0
29.620919 136.697503 -156.986180 0
57.852463 136.706891 -153.096737 0
53.829358 136.760051 -152.949160 0
49.808043 136.788483 -152.810839 0
45.788393 136.788764 -152.681882 0
41.771893 136.806814 -152.560683 0
37.756464 136.799385 -152.448718 0
33.742187 136.770532 -152.345838 0
29.729053 136.760603 -152.250601 0
58.038942 136.683482 -148.352485 0
54.005273 136.748733 -148.206122 0
49.974774 136.821396 -148.067429 0
45.941591 136.776944 -147.942057 0
41.914292 136.811471 -147.821063 0
37.886395 136.754740 -147.712224 0
33.862053 136.803936 -147.606423 0
29.837209 136.776805 -147.512072 0
25.820411 135.716458 -147.474072 0
58.165048 135.776681 -143.653119 0
54.181750 136.743953 -143.458011 0
50.138727 136.794290 -143.321736 0
46.094243 136.747756 -143.198549 0
42.055663 136.777681 -143.078612 0
38.018012 136.784539 -142.967541 0
33.981077 136.753553 -142.866179 0
29.945386 136.749916 -142.770765 0
25.909788 136.729325 -142.683832 0
54.359181 136.751448 -138.703045 0
50.302495 136.759639 -138.571036 0
46.248022 136.742048 -138.447991 0
42.197887 136.766230 -138.329293 0
38.148844 136.769126 -138.219200 0
34.100853 136.755206 -138.117397 0
30.053678 136.718684 -138.024273 0
26.006398 136.784571 -137.931183 0
21.965032 136.366357 -137.878706 0
54.483620 135.869408 -134.010403 0
50.465702 136.709350 -133.815041 0
46.402399 136.745288 -133.689566 0
42.341173 136.781979 -133.570795 0
38.278663 136.698525 -133.468327 0
34.220351 136.719384 -133.364305 0
30.162226 136.725464 -133.268171 0
26.104302 136.672738 -133.183449 0
22.060494 135.763498 -133.174343 0
54.686107 136.288568 -129.212315 0
50.631474 136.704534 -129.047590 0
46.555544 136.711902 -128.925898 0
42.482168 136.716981 -128.810788 0
38.410992 136.732819 -128.701052 0
34.340093 136.687595 -128.603194 0
30.270816 136.681602 -128.508086 0
26.201470 136.693190 -128.417665 0
22.131756 136.665489 -128.337114 0
50.795982 136.668472 -124.273722 0
46.710329 136.711028 -124.150009 0
42.624572 136.688305 -124.038881 0
38.541690 136.681560 -123.932080 0
34.460685 136.704318 -123.828189 0
30.379904 136.728716 -123.730020 0
26.283507 139.164472 -123.390295 3
22.177614 139.207236 -123.301497 3
50.914034 135.723984 -119.591840 0
46.864863 136.695761 -119.364883 0
42.849110 139.191036 -118.970963 3
38.730743 139.185422 -118.864295 3
34.614254 139.208276 -118.759945 3
30.497786 139.171082 -118.667928 3
26.381708 139.179259 -118.576268 3
22.265099 139.161979 -118.492996 3
47.126746 139.210126 -114.254647 3
42.994610 139.211118 -114.142892 3
38.864964 139.227891 -114.034322 3
34.735869 139.204291 -113.935902 3
30.607887 139.173041 -113.843552 3
26.479931 139.234145 -113.744755 3
22.351501 139.199970 -113.662939 3
18.221277 139.204038 -113.581398 3
43.138668 139.174916 -109.308601 3
38.998300 139.215554 -109.197447 3
34.857574 139.182410 -109.101004 3
30.718335 139.184999 -109.004398 3
26.578926 139.203912 -108.910233 3
22.439489 139.150650 -108.830566 3
18.296773 139.210402 -108.740105 3
43.285709 139.215746 -104.449189 3
39.131764 139.191810 -104.347896 3
34.980060 139.190915 -104.247505 3
30.829052 139.180532 -104.152774 3
26.678144 139.185368 -104.060043 3
22.526387 139.190077 -103.971557 3
18.373570 139.173466 -103.890437 3
14.217596 139.193036 -103.808163 3
43.430662 139.179583 -99.585117 3
39.266920 139.220985 -99.474614 3
35.103019 139.204101 -99.377183 3
30.940373 139.229166 -99.276934 3
26.777558 139.190307 -99.190651 3
22.614427 139.172862 -99.104776 3
18.448986 139.202487 -99.015190 3
14.282403 139.183160 -98.937176 3
39.400863 139.179950 -94.595407 3
35.226349 139.212471 -94.490212 3
31.051676 139.188196 -94.398067 3
26.877425 139.174733 -94.307473 3
22.701896 139.215500 -94.211004 3
18.525762 139.187053 -94.129688 3
14.347592 139.168655 -94.050005 3
39.537696 139.236672 -89.680962 3
35.350008 139.211386 -89.586299 3
31.163703 139.210538 -89.490175 3
26.977506 139.192598 -89.400107 3
22.790791 139.183405 -89.311385 3
18.601891 139.210119 -89.219041 3
14.412593 139.166814 -89.142358 3
10.217814 139.199464 -89.054714 3
39.672247 139.178471 -84.767559 3
35.474132 139.208093 -84.663053 3
31.275981 139.193348 -84.569622 3
27.077978 139.215363 -84.471601 3
22.879186 139.210730 -84.381217 3
18.679625 139.179518 -84.298456 3
14.475730 139.227923 -84.202734 3
10.271392 139.195401 -84.125144 3
35.598747 139.202225 -79.719291 3
31.388773 139.183453 -79.626856 3
27.179042 139.202478 -79.528752 3
22.969128 139.155500 -79.446214 3
18.756247 139.209076 -79.345094 3
14.543107 139.171743 -79.264637 3
10.325823 139.176925 -79.177455 3
35.724376 139.224962 -74.747011 3
31.502225 139.199401 -74.656257 3
27.280458 139.214887 -74.558249 3
23.058400 139.176689 -74.473455 3
18.834813 139.171629 -74.383073 3
14.608868 139.172268 -74.293021 3
10.378134 139.212951 -74.195821 3
6.147712 139.160897 -74.120298 3
31.615898 139.161646 -69.673662 3
27.382552 139.177465 -69.574956 3
23.147769 139.223059 -69.470590 3
18.912200 139.199885 -69.383036 3
14.675123 139.167442 -69.298719 3
10.431597 139.228504 -69.194113 3
6.188813 139.180605 -69.115514 3
31.730653 139.205480 -64.647149 3
27.485027 139.174140 -64.559096 3
23.239240 139.147562 -64.470597 3
18.990397 139.210746 -64.361226 3
14.740951 139.185567 -64.273708 3
10.487206 139.200692 -64.177139 3
6.247493 138.872490 -64.163827 3
31.845632 139.188216 -59.608256 3
27.587991 139.187564 -59.512404 3
23.332892 138.940378 -59.478799 3
19.088419 138.380145 -59.524340 3
14.864404 137.467648 -59.659100 3
10.675828 136.080366 -59.914206 3
6.514842 134.620172 -60.188484 3
2.381720 133.105495 -60.477306 3
27.700028 136.349984 -55.187600 3
23.476809 134.876476 -55.479663 3
19.283161 133.327067 -55.792136 3
15.115648 131.852182 -56.085361 3
10.974128 130.385461 -56.376798 3
6.860840 128.865694 -56.682608 3
2.768062 127.429474 -56.966673 3
27.819278 130.593434 -51.703507 3
23.640764 129.141087 -52.007632 3
19.489543 127.698606 -52.308974 3
15.366193 126.215979 -52.621308 3
11.268216 124.762372 -52.925560 3
7.195153 123.315881 -53.227751 3
3.146871 121.863487 -53.531464 3
27.935923 125.008079 -48.276927 3
23.801094 123.542517 -48.602566 3
19.693466 122.107331 -48.918968 3
15.611913 120.685811 -49.230914 3
11.556440 119.250681 -49.546242 3
7.524756 117.839240 -49.854204 3
3.516161 116.439652 -50.158191 3
-0.467679 115.014077 -50.469109 3
28.050370 119.471148 -44.938167 3
23.958345 118.043900 -45.270330 3
19.892566 116.660224 -45.588482 3
15.852307 115.278798 -45.904976 3
11.839145 113.843300 -46.236704 3
7.844564 112.533189 -46.529819 3
3.877188 111.138386 -46.847353 3
-0.067197 109.742247 -47.164296 3
24.112208 112.676556 -41.997325 3
20.088097 111.304490 -42.328517 3
16.089219 109.939574 -42.656062 3
12.115169 108.568794 -42.984016 3
8.163492 107.228493 -43.301031 3
4.233950 105.896143 -43.614126 3
0.328680 104.529099 -43.936637 3
24.263247 107.400502 -38.791491 3
20.279128 106.085135 -39.120955 3
16.320312 104.742241 -39.457470 3
12.385025 103.416274 -39.786644 3
8.472082 102.106190 -40.108806 3
4.582064 100.783413 -40.433229 3
0.715440 99.436993 -40.763485 3
-3.133795 98.139712 -41.075910 3
24.411067 102.255159 -35.636047 3
20.466746 100.955881 -35.976146 3
16.547609 99.625569 -36.324390 3
12.650404 98.346690 -36.653047 3
8.776237 97.054200 -36.983999 3
4.926195 95.725807 -37.324777 3
1.093862 94.455391 -37.643735 3
-2.720451 93.209270 -37.952203 3
24.556547 97.171323 -32.550078 3
20.651415 95.897721 -32.897199 3
16.771090 94.591467 -33.252987 3
12.913089 93.318315 -33.594529 3
9.070565 92.176568 -33.887469 3
5.236710 91.199706 -34.120000 3
1.406139 90.382595 -34.293775 3
-2.424689 89.700238 -34.417401 3
20.825325 91.278518 -29.748508 3
16.964556 90.471985 -29.939443 3
13.111409 89.809167 -30.075051 3
9.262118 89.263866 -30.164686 3
5.415434 88.786479 -30.226200 3
1.559416 88.503060 -30.213836 3
-2.299865 88.259108 -30.183438 3
-6.176528 88.185504 -30.087427 3
20.952226 88.823965 -25.868728 3
17.089694 88.502799 -25.887176 3
13.225452 88.312907 -25.852438 3
9.357842 88.194171 -25.786892 3
5.486323 88.108029 -25.704902 3
1.617717 87.935940 -25.650867 3
-2.257168 87.812075 -25.574481 3
-6.132600 87.650572 -25.507923 3
21.042849 88.083652 -21.349260 3
17.170439 87.951876 -21.296921 3
13.298788 87.798857 -21.248156 3
9.426441 87.650876 -21.192788 3
5.551415 87.525271 -21.124073 3
5.657448 32.299045 -42.414884 9
2.348589 32.124129 -42.374360 9
-0.972600 32.059889 -42.286813 9
-2.643673 15.968565 -48.426115 9
-5.653557 14.533089 -48.869887 9
-8.672061 13.348991 -49.212804 9
-11.715521 12.475423 -49.431519 9
-14.737095 11.518141 -49.679548 9
-17.781981 10.781325 -49.838125 9
-20.830127 10.098792 -49.971968 9
-23.867128 9.375830 -50.118085 9
-26.907027 8.691236 -50.245614 9
-29.961100 8.092896 -50.335677 9
-33.005534 7.450339 -50.439418 9
-36.053496 6.827387 -50.531750 9
-39.114042 6.258038 -50.599214 9
-42.170070 5.661382 -50.673628 9
-45.486490 6.092469 -50.337955 9
-53.730319 25.218584 -42.596617 9
54.798035 24.569395 -42.496877 9
50.562715 10.784825 -47.926157 9
47.121387 5.235464 -50.083756 9
43.984036 3.333565 -50.789486 9
40.949869 2.937662 -50.893106 9
37.932396 2.758928 -50.906547 9
34.920307 2.599408 -50.908478 9
31.911764 2.393647 -50.924951 9
28.907603 2.160973 -50.948292 9
25.907228 1.981591 -50.946532 9
22.911094 1.726377 -50.971148 9
19.916232 1.547602 -50.961387 9
16.927289 1.261634 -50.990555 9
13.936802 1.065959 -50.979759 9
10.950027 0.821246 -50.984664 9
7.960602 0.628479 -50.964854 9
4.981525 0.303737 -50.993990 9
1.998735 0.036096 -50.996325 9
-0.988733 -0.187933 -50.977194 9
-3.969895 -0.482070 -50.982243 9
-6.950135 -0.790063 -50.988894 9
-9.933588 -1.082346 -50.985228 9
-12.916824 -1.390067 -50.983760 9
-15.907185 -1.666745 -50.965715 9
-18.901335 -1.941993 -50.942989 9
-21.887201 -2.287866 -50.944705 9
-24.886244 -2.581035 -50.920961 9
-27.878583 -2.933570 -50.917106 9
-30.886905 -3.230582 -50.886525 9
-33.894359 -3.559900 -50.864811 9
-36.901158 -3.918841 -50.850883 9
-39.928068 -4.219893 -50.809050 9
-42.962580 -4.522806 -50.763569 9
-46.207378 -4.058524 -50.399776 9
-49.924578 -1.964403 -49.362732 9
-55.079721 4.957272 -46.336970 9
-61.585362 15.863425 -41.659257 9
60.647624 16.452975 -41.826573 9
56.846766 9.792675 -44.523380 9
53.089144 1.922297 -47.713331 9
49.762744 -2.293688 -49.402533 9
46.651816 -4.495985 -50.262706 9
43.651859 -5.487570 -50.622551 9
40.707873 -5.677972 -50.649640 9
37.771510 -5.809482 -50.648434 9
34.839485 -5.925157 -50.636589 9
31.910293 -6.067510 -50.631572 9
28.984186 -6.235477 -50.632957 9
26.060744 -6.366499 -50.615003 9
23.138340 -6.464856 -50.579435 9
20.216946 -6.580786 -50.546922 9
17.298972 -6.773493 -50.541888 9
14.379255 -6.907658 -50.508523 9
11.462989 -7.105862 -50.497402 9
8.544073 -7.263988 -50.465516 9
5.630215 -7.497419 -50.460556 9
2.708444 -7.647585 -50.416898 9
-0.211797 -7.836550 -50.385034 9
-3.135944 -8.011002 -50.342858 9
-6.055129 -8.250680 -50.323450 9
-8.981686 -8.453176 -50.284275 9
-11.911387 -8.659716 -50.242417 9
-14.836190 -8.924935 -50.220618 9
-17.773960 -9.133849 -50.170946 9
-20.708831 -9.389637 -50.136388 9
-23.657495 -9.598597 -50.077780 9
-26.609966 -9.821750 -50.020563 9
-29.553341 -10.121645 -49.990950 9
-32.520532 -10.340099 -49.922590 9
-35.488694 -10.590386 -49.862933 9
-38.455739 -10.879541 -49.814946 9
-41.431114 -11.167666 -49.761819 9
-44.482594 -11.199981 -49.595864 9
-47.775265 -10.407983 -49.075974 9
-51.498582 -8.226438 -47.960846 9
-55.906661 -3.958133 -45.951475 9
-61.038837 2.292889 -43.087378 9
-103.375810 13.262408 -35.599038 8
62.790264 5.668264 -42.404905 9
59.273433 1.512334 -44.138259 9
55.798616 -3.179909 -46.094452 9
52.515494 -6.798329 -47.592854 9
49.375420 -9.540995 -48.717081 9
46.370810 -11.081039 -49.328592 9
43.445968 -11.758339 -49.570842 9
40.560782 -11.878265 -49.572791 9
37.680423 -11.982513 -49.563692 9
34.804417 -12.043436 -49.531812 9
31.929716 -12.167961 -49.522475 9
29.057762 -12.245288 -49.488691 9
26.186929 -12.315352 -49.447377 9
23.318350 -12.472571 -49.438638 9
20.449587 -12.567809 -49.399116 9
17.582884 -12.716290 -49.377775 9
14.716102 -12.855213 -49.347903 9
11.848664 -12.989164 -49.311429 9
8.979657 -13.115499 -49.267199 9
6.110212 -13.257655 -49.225188 9
3.240477 -13.418057 -49.186426 9
0.374390 -13.634776 -49.167192 9
-2.499065 -13.800608 -49.121631 9
-5.385754 -13.885870 -49.036927 9
-8.254912 -14.141818 -49.020735 9
-11.143267 -14.282832 -48.950582 9
-14.032415 -14.453996 -48.888652 9
-16.919272 -14.671664 -48.841992 9
-19.819274 -14.843751 -48.770941 9
-22.717213 -15.062174 -48.715050 9
-25.628918 -15.242830 -48.638008 9
-28.531800 -15.502371 -48.590180 9
-31.450634 -15.719515 -48.519100 9
-34.380651 -15.923587 -48.437366 9
-37.308693 -16.173399 -48.370454 9
-40.251416 -16.399708 -48.288259 9
-43.211053 -16.599475 -48.189348 9
-46.329846 -16.260931 -47.850149 9
-49.711782 -15.085704 -47.138937 9
-53.544039 -12.541149 -45.820402 9
-57.719561 -9.127277 -44.110680 9
-62.142298 -5.240753 -42.181859 9
-64.554168 -7.753485 -43.059142 9
-71.667489 3.562563 -37.832079 8
-74.807799 2.862318 -37.892024 8
-77.982977 2.237970 -37.912832 8
-81.133892 1.523840 -37.967770 8
-84.330664 0.906222 -37.974140 8
-87.525798 0.256225 -37.989045 8
-90.737537 -0.381137 -37.992380 8
-93.984093 -0.966035 -37.966183 8
-97.225921 -1.595190 -37.953602 8
-100.482316 -2.224017 -37.934614 8
-103.770728 -2.816676 -37.892956 8
-107.840942 -1.797561 -37.116299 8
-142.300944 20.173645 -24.949658 7
-146.169526 19.673771 -24.773665 7
104.827641 8.873326 -36.886828 5
101.563980 8.870214 -36.937292 5
98.367109 9.092157 -36.884036 5
95.165411 9.251553 -36.852630 5
91.979810 9.441570 -36.802455 5
88.793415 9.585968 -36.766787 5
85.611283 9.707363 -36.735783 5
82.429158 9.781532 -36.720018 5
79.254613 9.848676 -36.701993 5
76.089470 9.923227 -36.675440 5
72.914905 9.882769 -36.693724 5
69.756070 9.890409 -36.685788 5
65.555364 1.531174 -40.319015 9
61.915436 -3.535114 -42.512577 9
58.549856 -7.049604 -44.025277 9
55.304874 -10.120662 -45.340261 9
52.150951 -12.926333 -46.535231 9
49.115890 -14.963646 -47.390841 9
46.175347 -16.227598 -47.904741 9
43.301276 -16.781374 -48.104261 9
40.459629 -16.894621 -48.106855 9
37.624715 -16.927661 -48.069719 9
34.790260 -17.031528 -48.058819 9
31.959189 -17.088888 -48.022883 9
29.129454 -17.179264 -47.996667 9
26.301376 -17.287774 -47.973672 9
23.474395 -17.386257 -47.941563 9
20.648008 -17.486712 -47.905580 9
17.820825 -17.567271 -47.856116 9
14.993392 -17.661575 -47.807902 9
12.166552 -17.785425 -47.767876 9
9.339345 -17.920478 -47.727980 9
6.511177 -18.062107 -47.686168 9
3.683029 -18.224717 -47.648768 9
0.846142 -18.322754 -47.578054 9
-1.984802 -18.507888 -47.540857 9
-4.822364 -18.661762 -47.484968 9
-7.668156 -18.784003 -47.410144 9
-10.515246 -18.933115 -47.342209 9
-13.370154 -19.065646 -47.261898 9
-16.223928 -19.241984 -47.195947 9
-19.081567 -19.429436 -47.129854 9
-21.951958 -19.582091 -47.043161 9
-24.814158 -19.813892 -46.986529 9
-27.697276 -19.976796 -46.893995 9
-30.581815 -20.172138 -46.810656 9
-33.468334 -20.395669 -46.734615 9
-36.366348 -20.606944 -46.647744 9
-39.272614 -20.822894 -46.557557 9
-42.195526 -21.013670 -46.450580 9
-45.191974 -20.978228 -46.236164 9
-48.410461 -20.227316 -45.693052 9
-51.946143 -18.524794 -44.712781 9
-55.810029 -15.942145 -43.325266 9
-58.918508 -15.957132 -43.105095 9
-61.974971 -16.186572 -42.975936 9
-68.969794 -4.992544 -37.640949 8
-72.114380 -5.433146 -37.585437 8
-75.258768 -5.908641 -37.539641 8
-78.429231 -6.348439 -37.471239 8
-81.630937 -6.744587 -37.376384 8
-84.824798 -7.200207 -37.302272 8
-88.043159 -7.634093 -37.211543 8
-91.260562 -8.109824 -37.133395 8
-94.521590 -8.524252 -37.020079 8
-97.787303 -8.970756 -36.914619 8
-101.059932 -9.443957 -36.814495 8
-104.377122 -9.864608 -36.682698 8
-108.485905 -8.709148 -35.806330 8
-118.125457 3.356684 -29.802282 7
-121.383659 2.335173 -29.912584 7
-124.718630 1.438207 -29.957394 7
-128.067473 0.538550 -29.996260 7
-131.479433 -0.276433 -29.987633 7
-134.918403 -1.078247 -29.965023 7
-138.369244 -1.895777 -29.941996 7
-141.885691 -2.639396 -29.875574 7
-145.423728 -3.388448 -29.803337 7
-149.021750 -4.082821 -29.696179 7
109.623325 1.212895 -36.133855 5
105.471558 -2.290431 -37.780449 5
102.267862 -2.436525 -37.908167 5
99.143808 -2.329903 -37.916296 5
96.027450 -2.240812 -37.926593 5
92.923788 -2.146174 -37.928712 5
89.827587 -2.066663 -37.931989 5
86.734805 -2.021504 -37.945092 5
83.654485 -1.965347 -37.947667 5
80.583571 -1.909563 -37.944857 5
77.516859 -1.881248 -37.948862 5
74.455022 -1.877576 -37.958434 5
71.408823 -1.826368 -37.941178 5
68.357736 -1.862165 -37.957543 5
64.129876 -11.296563 -42.189883 9
61.213831 -11.155562 -42.116327 9
58.092373 -12.998470 -42.928789 9
54.953035 -15.495672 -44.030293 9
51.885367 -17.818621 -45.048774 9
48.915205 -19.533251 -45.789198 9
46.025525 -20.597272 -46.232444 9
43.190000 -21.112264 -46.424012 9
40.388235 -21.140881 -46.391875 9
37.586921 -21.231319 -46.382561 9
34.789467 -21.289402 -46.353690 9
31.994125 -21.331475 -46.312602 9
29.199794 -21.415152 -46.285252 9
26.406719 -21.488216 -46.248105 9
23.614923 -21.596152 -46.221674 9
20.821054 -21.610858 -46.148114 9
18.030775 -21.756299 -46.128553 9
15.238822 -21.860614 -46.085361 9
12.442861 -21.915810 -46.014860 9
9.649025 -22.036095 -45.968715 9
6.851786 -22.136525 -45.908456 9
4.057752 -22.300875 -45.872054 9
1.254362 -22.393801 -45.798077 9
-1.550806 -22.506485 -45.727862 9
-4.350040 -22.700399 -45.689385 9
-7.165456 -22.797111 -45.601414 9
-9.978349 -22.950084 -45.533778 9
-12.793673 -23.119921 -45.468528 9
-15.620862 -23.250443 -45.379956 9
-18.447143 -23.423925 -45.305622 9
-21.283598 -23.577429 -45.216697 9
-24.127817 -23.729319 -45.121521 9
-26.972268 -23.918621 -45.037981 9
-29.832450 -24.072488 -44.932551 9
-32.687471 -24.288710 -44.850189 9
-35.563147 -24.455177 -44.739191 9
-38.445394 -24.636367 -44.629206 9
-41.336871 -24.822870 -44.515836 9
-44.271907 -24.892130 -44.342149 9
-47.371895 -24.437664 -43.918828 9
-50.718440 -23.247760 -43.145901 9
-54.372744 -21.208210 -41.968085 9
-57.772792 -20.161868 -41.244318 9
-60.763067 -20.477117 -41.149529 9
-64.445747 -18.818575 -40.122257 9
-70.297143 -11.233343 -36.298237 8
-73.425154 -11.599392 -36.198461 8
-76.581738 -11.929143 -36.074757 8
-79.746967 -12.278924 -35.953558 8
-82.927637 -12.632181 -35.826963 8
-86.129053 -12.977898 -35.689629 8
-89.321694 -13.387841 -35.575600 8
-92.577594 -13.694838 -35.405128 8
-95.808197 -14.105251 -35.276519 8
-99.080669 -14.468205 -35.117588 8
-102.371600 -14.838518 -34.954397 8
-105.769694 -15.036514 -34.700132 8
-110.549930 -12.540395 -33.133954 8
-117.665224 -5.706655 -29.447575 7
-121.089644 -6.261791 -29.327545 7
-124.533433 -6.824570 -29.202798 7
-128.018530 -7.356921 -29.054564 7
-131.504127 -7.934788 -28.919800 7
-135.014928 -8.514583 -28.777064 7
-138.594476 -9.025141 -28.591017 7
-142.184068 -9.569489 -28.412175 7
-145.808948 -10.106997 -28.220282 7
-149.440918 -10.684401 -28.038390 7
147.637256 3.307807 -29.817561 6
144.331636 3.766023 -29.757980 6
141.034441 4.208033 -29.699087 6
137.744654 4.631806 -29.641880 6
134.496049 5.132390 -29.542019 6
131.228552 5.546109 -29.476032 6
127.974744 5.963804 -29.401525 6
124.744225 6.418061 -29.303384 6
121.534863 6.908495 -29.181882 6
118.313531 7.331379 -29.085346 6
112.122477 -2.549150 -33.771013 5
107.356471 -8.159520 -36.460885 5
104.010563 -8.976532 -36.916274 5
100.924359 -8.909020 -36.954696 5
97.863810 -8.790344 -36.963315 5
94.809180 -8.694705 -36.976603 5
91.754811 -8.647777 -37.006488 5
88.721302 -8.556773 -37.010009 5
85.688423 -8.511705 -37.028905 5
82.668298 -8.453297 -37.035753 5
79.653759 -8.415381 -37.046249 5
76.649366 -8.371063 -37.047976 5
73.647414 -8.363628 -37.060988 5
70.658864 -8.322643 -37.052723 5
67.670805 -8.329783 -37.060991 5
63.529749 -17.493085 -41.299425 9
60.499461 -18.818612 -41.906451 9
57.649156 -18.760980 -41.868125 9
54.688236 -19.908770 -42.382155 9
51.680511 -21.949558 -43.304248 9
48.758037 -23.473272 -43.981976 9
45.908339 -24.410821 -44.383282 9
43.110559 -24.797229 -44.524232 9
40.337787 -24.844052 -44.502640 9
37.567103 -24.913078 -44.486048 9
34.799550 -24.963308 -44.455453 9
32.033337 -25.051341 -44.437099 9
29.269188 -25.093078 -44.391965 9
26.505917 -25.175617 -44.360463 9
23.743424 -25.257079 -44.323149 9
20.980842 -25.328074 -44.275643 9
18.218647 -25.421948 -44.233435 9
15.453729 -25.474522 -44.166639 9
12.686944 -25.529777 -44.095690 9
9.924131 -25.675339 -44.061441 9
7.154848 -25.756934 -43.991943 9
4.386800 -25.885065 -43.938729 9
1.613441 -25.987754 -43.868160 9
-1.160146 -26.121533 -43.806638 9
-3.941983 -26.218714 -43.722443 9
-6.725416 -26.341306 -43.644581 9
-9.505387 -26.522364 -43.588577 9
-12.302057 -26.624923 -43.490064 9
-15.099873 -26.760472 -43.401364 9
-17.902779 -26.904234 -43.310804 9
-20.714230 -27.039677 -43.210538 9
-23.529534 -27.194681 -43.113679 9
-26.346747 -27.378361 -43.024521 9
-29.180888 -27.521444 -42.910216 9
-32.014485 -27.707537 -42.810318 9
-34.853225 -27.910066 -42.712215 9
-37.709398 -28.081100 -42.593041 9
-40.582038 -28.230669 -42.457436 9
-43.471706 -28.361749 -42.306692 9
-46.488932 -28.094989 -41.959039 9
-48.732130 -30.490769 -42.881386 9
-52.054427 -29.293034 -42.074188 9
-55.648807 -27.391316 -40.918937 9
-59.357270 -25.335240 -39.678594 9
-63.119278 -23.319259 -38.446437 9
-68.907297 -15.814277 -34.543896 8
-72.028818 -16.082460 -34.391815 8
-75.142303 -16.416161 -34.264265 8
-78.278666 -16.732728 -34.121037 8
-81.437409 -17.036975 -33.964308 8
-84.604293 -17.366239 -33.812199 8
-87.799128 -17.674220 -33.641929 8
-91.001125 -18.011890 -33.478375 8
-94.234309 -18.325851 -33.295151 8
-97.488256 -18.642413 -33.105036 8
-100.762046 -18.965332 -32.909745 8
-104.054823 -19.297892 -32.710775 8
-107.796814 -18.787728 -32.082840 8
-116.888558 -8.021048 -26.313313 7
-118.726145 -11.539070 -27.668641 7
-122.171344 -11.996979 -27.484139 7
-125.649302 -12.444127 -27.284882 7
-129.157437 -12.887866 -27.074341 7
-132.683039 -13.352276 -26.864515 7
-136.245431 -13.805703 -26.639159 7
-139.849618 -14.242820 -26.395265 7
-143.493893 -14.669595 -26.135569 7
-147.127814 -15.167657 -25.901779 7
148.079113 -5.215588 -29.520599 6
144.752780 -4.977624 -29.579318 6
141.455206 -4.717849 -29.619990 6
138.179274 -4.450511 -29.649621 6
134.897120 -4.247752 -29.703070 6
131.647389 -4.005809 -29.730388 6
128.411322 -3.772344 -29.754635 6
125.197961 -3.518856 -29.762186 6
121.974143 -3.343018 -29.800017 6
118.769668 -3.155552 -29.825294 6
115.086053 -4.605503 -30.628187 5
109.842750 -11.602426 -34.078782 5
106.148261 -13.673321 -35.161139 5
103.001464 -13.932550 -35.369402 5
99.976530 -13.799008 -35.383333 5
96.949362 -13.721452 -35.417634 5
93.934281 -13.643848 -35.445568 5
90.925849 -13.587422 -35.477310 5
87.933347 -13.508718 -35.492167 5
84.942719 -13.470345 -35.520044 5
81.969037 -13.397018 -35.525079 5
78.993386 -13.383547 -35.552499 5
76.025676 -13.379228 -35.578163 5
73.072592 -13.339950 -35.581090 5
70.123638 -13.324551 -35.589338 5
67.183321 -13.301426 -35.587879 5
63.213368 -21.412489 -39.454229 9
60.143815 -23.343280 -40.371399 9
57.174333 -24.771546 -41.043553 9
54.144807 -27.196535 -42.184888 9
51.465652 -26.163368 -41.673411 9
48.452033 -29.371176 -43.176919 9
45.821435 -27.716999 -42.358236 9
43.050016 -28.092738 -42.501285 9
40.301216 -28.182632 -42.502519 9
37.557248 -28.238332 -42.481866 9
34.816172 -28.274035 -42.446082 9
32.076580 -28.309279 -42.404477 9
29.337872 -28.370339 -42.369598 9
26.599762 -28.396537 -42.312448 9
23.863032 -28.512017 -42.292363 9
21.125006 -28.552318 -42.230695 9
18.388242 -28.652553 -42.192068 9
15.650025 -28.733221 -42.138418 9
12.909841 -28.804930 -42.074790 9
10.168410 -28.889281 -42.011519 9
7.424920 -28.978306 -41.944763 9
4.679477 -29.077548 -41.877164 9
1.933354 -29.201546 -41.815703 9
-0.820861 -29.283450 -41.728165 9
-3.575072 -29.403377 -41.653098 9
-6.336220 -29.505355 -41.563489 9
-9.092277 -29.679540 -41.502855 9
