ply
format ascii 1.0
element vertex 1424
property float x
property float y
property float z
property int scalar_Label
end_header
15.821293 88.410693 -18.355374 3
28.874767 50.752162 -6.977941 9
54.696716 46.616249 16.709496 9
57.380510 44.205891 19.160944 9
59.784103 41.875641 21.358555 9
61.869538 39.614918 23.267298 9
63.920222 37.409114 25.147254 9
65.601691 35.254351 26.691202 9
67.222560 33.141920 28.182419 9
68.719393 31.067077 29.562578 9
68.611746 28.957360 29.472412 9
68.003661 26.814434 28.925735 9
69.484080 24.803512 30.299201 9
69.618729 22.715605 30.440066 9
71.087217 20.759204 31.807877 5
72.340442 18.814877 32.980652 5
73.467716 16.884973 34.040360 5
74.414701 14.956859 34.937171 5
75.215347 13.028273 35.702275 5
75.891660 11.096775 36.355903 5
76.434161 9.155516 36.889424 5
76.856869 7.201584 37.315762 5
77.140795 5.226096 37.617606 5
77.358166 3.238833 37.861214 5
77.423745 1.217306 37.968618 5
77.374102 -0.836002 37.973442 5
77.207191 -2.926565 37.873951 5
76.893523 -5.067389 37.643333 5
76.428288 -7.266123 37.277396 5
75.816251 -9.527890 36.780720 5
74.979496 -11.883205 36.082393 5
73.936061 -14.335858 35.199245 5
72.558212 -16.937842 34.015112 5
70.770991 -19.729731 32.462227 5
69.572706 -22.365326 31.451089 9
68.645525 -24.941131 30.691441 9
68.242504 -27.347293 30.413285 9
68.944673 -29.326617 31.144365 9
67.001721 -32.408193 29.473504 9
64.276019 -35.895675 27.097435 9
61.011961 -39.713636 24.239684 9
56.851239 -44.051834 20.576494 9
-12.411446 107.480965 -38.820868 3
-9.508455 103.430018 -36.333598 3
-6.717024 99.496638 -33.938497 3
15.646692 90.698040 -14.032966 3
14.972941 88.020716 -14.716413 3
1.706175 88.186073 -26.666827 3
7.117191 81.097717 -21.968703 1
6.608546 78.272248 -22.490038 1
6.573254 75.357565 -22.582927 1
6.564201 72.443776 -22.647833 1
6.570038 69.533126 -22.694935 1
6.202480 66.678239 -23.072509 1
47.963209 49.240655 14.242390 9
53.065110 46.594911 18.805242 9
55.861875 44.185620 21.302688 9
58.244783 41.862720 23.432271 9
60.226344 39.609630 25.205012 9
62.059676 37.408898 26.848047 9
63.874982 35.255304 28.478180 9
65.387953 33.142349 29.840005 9
66.823719 31.065295 31.135604 9
68.078433 29.016193 32.271664 9
69.274141 26.994819 33.357721 9
67.988226 24.827363 32.218931 9
68.325729 22.760702 32.540729 9
69.557789 20.786942 33.668421 9
69.577245 18.709974 33.710830 9
70.014934 16.681946 34.131589 5
70.981452 14.733726 35.029660 5
71.784150 12.782943 35.783585 5
72.441340 10.825904 36.409849 5
72.978357 8.861077 36.931236 5
73.436987 6.891310 37.385262 5
73.690333 4.887833 37.658321 5
73.831792 2.862220 37.834223 5
73.933100 0.826006 37.977287 5
73.871020 -1.252255 37.977315 5
73.662567 -3.375057 37.849723 5
73.285168 -5.554574 37.574536 5
72.759338 -7.792181 37.170333 5
72.098821 -10.090193 36.649633 5
71.146672 -12.502485 35.872600 5
69.998826 -15.010608 34.925310 5
69.575081 -17.316700 34.628237 9
69.607346 -19.484835 34.741463 9
67.200460 -22.539467 32.686104 9
68.583887 -24.252529 34.010279 9
68.699665 -26.428782 34.209116 9
66.972496 -29.351555 32.773605 9
64.893480 -32.478830 31.031564 9
62.362267 -35.869105 28.894801 9
59.433559 -39.517988 26.412947 9
55.452848 -43.742337 23.007150 9
15.440511 92.951477 -9.802709 3
15.450268 90.132246 -9.885495 3
13.621217 87.757303 -11.571705 3
9.671908 85.817435 -15.109730 1
9.174283 83.054318 -15.624437 1
8.324391 80.355211 -16.443133 1
6.308192 77.856741 -18.279237 1
5.975524 75.022635 -18.636491 1
6.085175 72.115358 -18.601405 1
6.149627 69.222950 -18.601108 1
14.615004 65.213911 -11.228141 4
14.525986 62.460369 -11.351168 4
14.523281 59.699162 -11.393950 4
14.413555 56.951616 -11.526125 4
14.126600 54.219020 -11.809376 4
44.030629 49.371541 14.415326 9
51.015682 46.597641 20.528648 9
54.242814 44.170039 23.347362 9
56.581100 41.853877 25.389692 9
58.509733 39.605764 27.076129 9
60.381655 37.407496 28.716441 9
61.955286 35.255041 30.098360 9
63.521752 33.142258 31.477441 9
64.820284 31.060282 32.624604 9
66.147638 29.011795 33.800372 9
67.252911 26.983256 34.784376 9
68.289849 24.976654 35.711575 9
69.233380 22.987025 36.559927 9
68.218669 20.832661 35.692849 9
67.866532 18.721732 35.410841 9
69.024407 16.781737 36.457012 9
69.497237 14.776805 36.905318 9
69.475673 12.708284 36.923335 9
69.617982 10.661749 37.088424 9
69.523670 8.574225 37.049523 9
69.883268 6.564078 37.411746 5
70.196248 4.549443 37.736389 5
70.319463 2.498016 37.898195 5
70.340991 0.421831 37.974437 5
70.253403 -1.685162 37.958746 5
69.975270 -3.847926 37.780094 5
69.585437 -6.053550 37.507646 5
69.612403 -8.160827 37.603152 9
69.490136 -10.317495 37.572015 9
69.520925 -12.438346 37.678191 9
69.160905 -14.689460 37.447316 9
67.483472 -17.391837 36.072693 9
68.232487 -19.316242 36.816569 9
69.246853 -21.134938 37.794330 9
68.021474 -23.762968 36.827159 9
66.614498 -26.503244 35.707651 9
64.886109 -29.419245 34.314899 9
62.860597 -32.514851 32.670785 9
60.476775 -35.828999 30.723078 9
57.667819 -39.406620 28.414890 9
53.587045 -43.648746 25.014721 9
12.924707 95.795246 -7.603535 3
15.224970 92.371517 -5.742453 3
15.268234 89.573856 -5.802719 3
11.640603 87.645501 -8.996213 3
11.712214 84.812271 -9.023489 1
11.723265 82.000821 -9.097424 1
5.063486 80.502774 -14.877002 1
1.334089 78.304679 -18.146390 1
0.662823 75.496909 -18.792975 1
14.474614 70.395533 -7.022609 1
14.519849 67.644893 -7.041408 1
15.935476 64.718858 -5.880171 4
15.914540 62.004659 -5.945650 4
15.882291 59.294947 -6.016039 4
15.839332 56.588830 -6.090842 4
15.858963 53.879511 -6.107163 4
38.782942 49.590033 13.542444 9
48.466872 46.628224 21.835094 9
52.365212 44.165923 25.166171 9
54.911597 41.845238 27.340900 9
56.795874 39.601829 28.951219 9
58.547618 37.407071 30.451676 9
60.097730 35.255208 31.782809 9
61.562866 33.140522 33.044688 9
62.889668 31.057831 34.191408 9
64.183605 29.006262 35.313458 9
65.299672 26.976086 36.286273 9
66.279744 24.963208 37.145781 9
67.175405 22.966427 37.936238 9
68.008272 20.984318 38.676179 9
68.828609 19.019608 39.408710 9
69.097974 17.007170 39.671950 9
68.104591 14.831714 38.855861 9
67.417931 12.672355 38.306832 9
68.093513 10.706735 38.929289 9
68.644651 8.733272 39.448443 9
69.080064 6.748537 39.871846 9
69.411887 4.750201 40.209988 9
69.579347 2.721327 40.410966 9
69.599289 0.659026 40.489375 9
66.539558 -2.129728 37.938617 5
69.267298 -3.572420 40.339673 9
68.909653 -5.753327 40.107069 9
68.359936 -8.002357 39.714704 9
67.449337 -10.375698 39.018914 9
68.008891 -12.340070 39.581395 9
68.884297 -14.198633 40.416361 9
68.974077 -16.297683 40.585428 9
68.104754 -18.727325 39.942376 9
67.099497 -21.236366 39.188900 9
65.949294 -23.834040 38.317714 9
64.575964 -26.556312 37.262867 9
62.858941 -29.460031 35.922699 9
60.854988 -32.536740 34.346219 9
58.683323 -35.748885 32.635207 9
55.817282 -39.332033 30.344747 9
51.127053 -43.819939 26.521915 9
12.189071 100.961542 -3.763702 2
12.182945 98.142977 -3.889695 2
14.880939 94.603239 -1.754303 3
15.066320 91.787899 -1.707960 3
15.080508 89.027433 -1.798984 3
9.574905 87.554134 -6.497167 3
13.708884 83.837265 -3.135364 1
13.619079 81.103816 -3.297852 1
10.466427 78.967819 -6.018233 1
10.447783 76.191071 -6.111763 1
11.708703 73.204197 -5.128300 1
15.779683 69.816519 -1.784392 1
-2.954326 69.803974 -17.546243 1
16.983327 64.269370 -0.891197 4
16.935208 61.601590 -0.981560 4
16.940831 58.930602 -1.021808 4
16.923975 56.265136 -1.075873 4
16.932022 53.600133 -1.104023 4
33.217604 49.825006 12.534759 9
44.582197 46.732494 22.051520 9
49.866125 44.188659 26.470161 9
52.878522 41.847893 28.986720 9
50.274211 39.687451 26.791773 9
56.687218 37.406783 32.172326 9
58.296583 35.255758 33.523647 9
59.680034 33.140350 34.689253 9
61.029567 31.057803 35.830262 9
62.214933 29.000895 36.837243 9
63.297254 26.966640 37.761459 9
64.172751 24.943816 38.515765 9
65.108364 22.946000 39.324188 9
66.023332 20.967631 40.118888 9
66.703402 18.985012 40.720101 9
67.295768 17.006484 41.251360 9
67.053419 14.930801 41.086414 9
67.755348 12.981245 41.716891 9
65.816820 10.634368 40.138600 9
69.040310 9.104440 42.888752 9
69.250407 7.106170 43.117928 9
66.625416 4.559895 40.978329 9
66.657182 2.490682 41.066942 9
66.699831 0.419665 41.168645 9
66.587977 -1.691381 41.145246 9
66.469907 -3.812435 41.120825 9
66.233885 -5.972820 41.002162 9
68.798334 -7.389241 43.224047 9
68.073740 -9.676909 42.705387 9
67.006589 -12.091509 41.906278 9
67.403045 -14.089047 42.331126 9
63.190337 -17.567148 38.925194 9
65.875310 -18.853500 41.262997 9
64.736013 -21.408703 40.425069 9
63.674592 -23.974537 39.657756 9
62.335005 -26.681747 38.665778 9
60.712451 -29.543829 37.445911 9
58.707491 -32.612592 35.916659 9
56.802093 -35.704424 34.477689 9
53.639366 -39.396513 32.008011 9
6.047039 107.801931 -4.319973 2
11.978645 103.104666 0.362215 2
11.986441 100.302526 0.235389 2
12.010747 97.505433 0.127952 2
14.827894 93.972071 2.303160 3
14.890529 91.219479 2.240229 3
14.881303 88.493888 2.124418 3
13.978253 85.980506 1.284271 1
13.928249 83.266866 1.146015 1
13.294070 80.677983 0.535720 1
10.293068 78.532941 -2.005517 1
10.292086 75.781862 -2.088347 1
12.536751 72.662369 -0.327058 1
16.823592 69.289190 3.113840 1
16.849404 66.631192 3.071636 1
16.720124 63.998240 2.907698 4
16.750650 61.347356 2.880051 4
16.713945 58.707836 2.802608 4
16.750959 56.063803 2.790925 4
16.747758 53.426712 2.751551 4
27.194933 50.085307 11.292739 9
40.002498 46.872565 21.778911 9
46.815354 44.234345 27.352175 9
42.405471 42.109564 23.718749 9
52.798317 39.604378 32.241179 9
54.729554 37.407059 33.822256 9
56.347585 35.255426 35.150561 9
57.806012 33.140459 36.352071 9
58.899322 31.049667 37.257993 9
60.215324 28.994581 38.350771 9
61.258615 26.955734 39.223692 9
62.174208 24.932593 39.995758 9
63.055519 22.927638 40.743597 9
63.856206 20.935055 41.429157 9
64.538462 18.947643 42.021425 9
64.543681 16.895411 42.062470 9
63.578542 14.715022 41.312352 9
64.028719 12.708234 41.726500 9
64.642090 10.734382 42.278232 9
65.240266 8.769563 42.821327 9
65.620940 6.776727 43.190217 9
64.349717 4.472747 42.211813 9
64.417543 2.405600 42.333430 9
64.454347 0.328518 42.433920 9
64.381962 -1.777889 42.449509 9
64.175726 -3.924029 42.360249 9
63.942388 -6.088150 42.253456 9
64.671395 -8.007372 42.935823 9
63.870510 -10.342655 42.375502 9
63.320141 -12.631935 42.024514 9
64.156120 -14.519193 42.806456 9
64.163241 -16.656307 42.918199 9
62.397916 -19.388002 41.595022 9
60.332187 -22.277006 40.035162 9
60.997552 -24.253279 40.697241 9
60.083958 -26.805731 40.084215 9
58.599832 -29.610282 39.015800 9
56.699309 -32.628911 37.618116 9
54.485245 -35.836673 35.975458 9
50.756729 -39.754675 33.120075 9
6.930875 109.584005 0.752315 2
7.507580 106.550903 1.054768 2
11.782208 102.426030 4.303277 2
11.802732 99.650016 4.180071 2
11.494080 96.974807 3.801083 2
13.865410 93.592703 5.562637 3
14.720322 90.659946 6.124185 3
14.218634 88.080782 5.610570 3
13.180831 85.618023 4.674502 1
13.248823 82.899601 4.626451 1
11.077932 80.641338 2.795397 1
10.133015 78.103353 1.948507 1
10.102811 75.385951 1.838396 1
12.134369 72.333622 3.383981 1
19.801118 68.477189 9.448019 1
18.551541 66.063723 8.381868 1
15.798242 63.816173 6.115849 4
15.841570 61.181475 6.095174 4
15.832072 58.556793 6.037771 4
15.875854 55.930132 6.028664 4
15.886136 53.309934 5.998268 4
19.979445 50.419246 9.248710 9
35.195398 47.021648 21.429430 9
42.416999 44.336079 27.204004 9
47.271367 41.899251 31.085055 9
50.220662 39.615980 33.442553 9
52.469490 37.409125 35.242740 9
54.294617 35.254511 36.707506 9
55.690111 33.136279 37.831953 9
57.014243 31.049361 38.903510 9
58.169037 28.986700 39.843475 9
59.171075 26.942752 40.665107 9
60.086998 24.916123 41.421839 9
61.026403 22.912068 42.201542 9
61.102284 20.850224 42.292905 9
60.878362 18.757041 42.148298 9
60.395047 16.625914 41.800321 9
60.487059 14.553804 41.917936 9
60.956328 12.533778 42.342081 9
61.101467 10.472493 42.510921 9
61.317640 8.422831 42.740982 9
61.666929 6.398122 43.081854 9
61.391942 4.259529 42.927881 9
61.566344 2.200278 43.137745 9
61.551267 0.099905 43.200698 9
61.392653 -2.038542 43.153690 9
60.999329 -4.242546 42.924244 9
60.774929 -6.419684 42.834513 9
60.426175 -8.641436 42.650675 9
59.958567 -10.911321 42.377377 9
60.418480 -12.931462 42.847151 9
61.206537 -14.848040 43.581965 9
59.675124 -17.482000 42.478807 9
57.913232 -20.238266 41.199817 9
57.597214 -22.555915 41.074419 9
57.841735 -24.692440 41.398463 9
1.447758 -47.559376 -3.079550 9
56.440969 -29.690125 40.567380 9
54.526568 -32.706584 39.203057 9
51.761169 -36.127963 37.176361 9
45.537106 -41.078821 32.435876 9
1.272143 110.609488 0.496026 2
6.219737 106.179734 4.167339 2
11.044029 101.921278 7.756700 2
11.146535 99.144318 7.690369 2
12.345558 96.078767 8.483340 3
14.553049 92.788089 10.069021 3
14.526767 90.116122 9.923909 3
12.601772 87.900161 8.305227 3
12.060375 85.333764 7.769773 1
12.012653 82.656316 7.625242 1
9.971823 80.382056 5.930564 1
9.974819 77.680960 5.837025 1
10.973258 74.811323 6.527763 1
18.271046 70.944662 12.151797 1
18.320899 68.353688 12.116229 1
16.436651 66.036593 10.572666 4
15.341670 63.577993 9.651815 4
15.193934 60.988207 9.478185 4
15.068461 58.395968 9.327780 4
15.171449 55.783108 9.362212 4
15.374672 53.167569 9.481083 4
15.530210 50.562400 9.568436 4
30.363892 47.168420 21.172646 9
37.821438 44.443605 27.000433 9
43.158726 41.963123 31.171618 9
47.158966 39.635927 34.299660 9
49.797869 37.413577 36.364965 9
51.855328 35.251337 37.979034 9
53.584563 33.132507 39.340347 9
51.028367 30.926000 37.344694 9
56.113709 28.978910 41.347726 9
57.116182 26.932200 42.152576 9
58.035656 24.902849 42.896762 9
57.649991 22.791991 42.622173 9
57.070295 20.652454 42.200308 9
56.580345 18.505954 41.853684 9
57.122553 16.463296 42.320478 9
57.969213 14.469551 43.030103 9
58.005682 12.380942 43.109804 9
58.417961 10.346588 43.488244 9
58.648362 8.289012 43.728907 9
58.899531 6.236793 43.990388 9
58.958798 4.150557 44.106516 9
59.033259 2.064319 44.239255 9
59.000281 -0.047646 44.292906 9
58.897504 -2.181162 44.297006 9
58.736865 -4.336300 44.261001 9
58.481648 -6.524667 44.156434 9
58.114521 -8.754638 43.970031 9
57.679154 -11.018786 43.736013 9
57.931304 -13.103760 44.041800 9
56.698384 -15.633033 43.199462 9
55.641427 -18.145877 42.500467 9
55.272018 -20.470483 42.341024 9
53.986895 -23.120710 41.478546 9
54.847177 -25.063008 42.282653 9
55.637860 -27.017531 43.037055 9
53.922648 -29.900071 41.861806 9
51.591644 -33.074967 40.220439 9
48.061954 -36.800162 37.666086 9
1.272832 109.796648 4.654264 2
1.503952 106.868751 4.656653 2
7.168075 102.351535 8.786159 2
7.309621 99.547103 8.739222 2
7.290621 96.798477 8.577376 2
13.116768 92.547262 12.866011 3
13.156625 89.871308 12.765943 3
9.975046 87.957415 10.219613 3
10.606176 85.127477 10.581404 1
10.615157 82.450037 10.475999 1
9.189949 80.062375 9.282866 1
9.290289 77.363380 9.259457 1
9.317041 74.685180 9.186350 1
16.360061 70.881540 14.481530 1
16.417348 68.294591 14.447117 1
13.964088 66.057815 12.498532 4
13.810485 63.478255 12.314267 4
13.834802 60.878548 12.272256 4
13.852917 58.283375 12.231632 4
13.871930 55.691525 12.197810 4
13.876164 53.103888 12.158758 4
13.895927 50.517599 12.137679 4
25.140511 47.332582 20.726159 9
33.109051 44.553356 26.811831 9
38.690531 42.035967 31.074480 9
43.159279 39.672044 34.490091 9
46.571447 37.421186 37.101155 9
49.038819 35.246035 38.993010 9
50.967888 33.119834 40.477115 9
52.578042 31.029618 41.721554 9
53.845767 28.962752 42.708223 9
51.940348 26.755150 41.267449 9
53.188908 24.707349 42.249130 9
53.725782 22.632667 42.690119 9
53.897180 20.536300 42.855925 9
54.353801 18.470779 43.245030 9
54.906498 16.424639 43.712428 9
55.396603 14.381196 44.136600 9
55.781621 12.332107 44.485072 9
56.137634 10.284673 44.816095 9
56.411350 8.228987 45.088967 9
56.595229 6.160495 45.298016 9
56.714774 4.080395 45.462826 9
56.780310 1.988108 45.591374 9
56.709147 -0.135954 45.620709 9
56.592982 -2.276738 45.620933 9
56.444616 -4.433204 45.601905 9
56.156818 -6.633251 45.482140 9
55.824176 -8.857886 45.333849 9
55.335908 -11.139100 45.073029 9
54.793173 -13.454372 44.776837 9
54.112702 -15.830705 44.382334 9
53.363685 -18.252323 43.942328 9
52.480620 -20.743190 43.407517 9
51.655678 -23.244822 42.923616 9
50.102472 -26.027064 41.896756 9
50.689006 -28.091387 42.492363 9
49.380855 -30.852239 41.665238 9
47.876869 -33.730967 40.699030 9
40.258596 -39.079502 35.146213 9
-4.428935 107.910125 4.342740 2
3.885964 102.595860 10.324206 2
3.976660 99.797132 10.229170 2
4.098525 97.000991 10.164584 2
10.820374 92.528865 15.008142 3
10.951922 89.832485 14.969383 3
9.133117 87.597961 13.486997 3
9.158849 84.921822 13.382278 1
9.210642 82.247476 13.303779 1
6.852138 80.051458 11.435550 1
6.907353 77.362141 11.372005 1
7.037058 74.666887 11.370825 1
13.875893 70.909599 16.385910 1
13.956111 68.317598 16.363845 1
11.497199 66.076443 14.450532 4
11.504118 63.475406 14.385768 4
11.516682 60.877515 14.331667 4
11.560170 58.280088 14.307127 4
11.588962 55.687904 14.278001 4
11.619622 53.098825 14.256660 4
11.559934 50.518544 14.174028 4
19.730176 47.502673 20.262034 9
28.161793 44.670087 26.554062 9
34.054080 42.111961 30.951135 9
38.702021 39.715322 34.422375 9
42.286451 37.434813 37.102659 9
45.324505 35.235610 39.379072 9
47.878521 33.099231 41.298061 9
48.620929 30.969243 41.864814 9
46.718370 28.747048 40.455294 9
48.841977 26.692357 42.067112 9
49.883501 24.616355 42.873298 9
50.755875 22.550416 43.557747 9
51.477273 20.489900 44.134085 9
52.128327 18.437280 44.662687 9
52.677606 16.386280 45.120051 9
53.136958 14.334497 45.515082 9
53.567991 12.286833 45.893883 9
53.886376 10.229569 46.193465 9
54.144738 8.166816 46.453234 9
54.331227 6.094128 46.664415 9
54.400528 4.000346 46.793310 9
54.455035 1.900987 46.916414 9
54.425676 -0.219091 46.982324 9
54.274872 -2.371452 46.963228 9
54.113730 -4.535073 46.942006 9
53.844879 -6.734360 46.846362 9
53.455895 -8.976726 46.667324 9
53.037500 -11.242593 46.472501 9
52.439800 -13.575362 46.150928 9
51.792611 -15.944043 45.799204 9
50.984880 -18.384667 45.335393 9
49.976436 -20.916299 44.730298 9
48.707083 -23.566634 43.940105 9
47.110670 -26.368450 42.916856 9
44.830275 -29.460846 41.398749 9
45.821747 -31.420217 42.297508 9
41.591540 -35.343624 39.364948 9
22.662692 -45.140486 25.664089 9
0.659595 102.815548 11.949878 2
0.757062 100.007270 11.850398 2
0.745367 97.238852 11.679507 2
8.059253 92.625629 16.828347 3
8.147636 89.936315 16.749660 3
6.716311 87.604247 15.574270 3
7.935447 84.669557 16.331181 1
7.789003 82.050482 16.102984 1
1.589233 80.604022 11.474467 1
1.463936 77.914240 11.272413 1
3.900708 74.792377 12.945089 1
11.587128 70.904539 18.456070 1
11.654284 68.315280 18.419449 1
9.083400 66.086101 16.463372 4
8.570009 63.548240 16.015264 4
8.604037 60.941214 15.973624 4
-16.809391 60.861071 -2.665007 4
8.737995 55.733090 15.958722 4
8.765494 53.138331 15.932458 4
8.773900 50.547626 15.898888 4
14.169831 47.676515 19.814771 9
23.136190 44.787157 26.351980 9
29.272335 42.190309 30.825394 9
34.110655 39.759870 34.355576 9
37.823838 37.449135 37.068288 9
41.146453 35.222757 39.500901 9
43.848074 33.062777 41.484424 9
44.597774 30.908472 42.044366 9
44.414370 28.732890 41.926748 9
45.900927 26.639597 43.036871 9
47.132596 24.563379 43.965615 9
48.129806 22.496611 44.727938 9
49.009468 20.441055 45.409386 9
49.696482 18.384893 45.955063 9
50.316832 16.335079 46.457130 9
50.797565 14.280076 46.862310 9
51.208694 12.224118 47.221823 9
51.546985 10.164025 47.533364 9
51.824886 8.098928 47.806082 9
52.021030 6.022803 48.024471 9
52.105743 3.927101 48.167024 9
52.129673 1.817380 48.270790 9
52.094334 -0.308496 48.336986 9
51.936454 -2.466664 48.319740 9
51.765291 -4.636788 48.298673 9
51.449858 -6.851214 48.178789 9
51.062038 -9.097266 48.012549 9
50.558194 -11.389451 47.768556 9
49.965776 -13.724713 47.467009 9
49.163736 -16.141624 47.020673 9
48.207732 -18.631436 46.470345 9
46.964967 -21.241808 45.720719 9
45.296988 -24.028777 44.672895 9
42.993823 -27.079423 43.177041 9
40.612652 -30.222667 41.635648 9
40.873227 -32.476137 42.001768 9
33.478682 -37.602720 36.885839 9
-1.922621 94.524196 13.567312 3
4.677630 90.193862 18.091259 3
4.574220 87.545524 17.875896 3
6.861863 84.387965 19.365349 1
6.446633 81.839208 18.944310 1
5.690063 79.351893 18.287366 1
-4.420987 78.531848 10.980761 1
-4.272420 75.758640 10.976874 1
8.867258 70.965144 20.236049 1
8.939530 68.371055 20.198186 1
6.094491 66.170467 18.086690 4
5.252397 63.664671 17.409442 4
5.286394 61.046747 17.364115 4
5.358724 58.429020 17.353211 4
5.373570 55.820773 17.308282 4
5.441969 53.211347 17.308613 4
4.961007 50.640501 16.923257 4
8.362864 47.858943 19.320709 9
17.875829 44.910823 26.095812 9
24.373102 42.270109 30.722802 9
29.335060 39.806499 34.259037 9
33.304320 37.463429 37.091882 9
36.651676 35.208403 39.486088 9
39.514845 33.022016 41.539846 9
40.125436 30.836302 41.988255 9
40.376127 28.649448 42.185072 9
42.221399 26.550121 43.527729 9
43.752594 24.472211 44.651179 9
44.992403 22.406301 45.571654 9
46.018111 20.348737 46.344422 9
46.846122 18.293460 46.981255 9
47.540240 16.240360 47.527786 9
48.152486 14.190845 48.021200 9
48.602091 12.131084 48.403929 9
48.969199 10.066739 48.733248 9
49.284904 7.999531 49.031392 9
49.438019 5.908739 49.219252 9
49.542864 3.808926 49.378397 9
49.596926 1.697644 49.507129 9
49.582661 -0.430736 49.593082 9
49.380590 -2.604565 49.551580 9
49.130951 -4.799009 49.482472 9
48.742906 -7.037717 49.321529 9
48.287316 -9.308201 49.119264 9
47.709276 -11.627596 48.837062 9
46.916922 -14.025808 48.410366 9
45.962614 -16.495919 47.876734 9
44.642449 -19.104919 47.092915 9
42.926753 -21.875650 46.039073 9
40.449916 -24.940688 44.459261 9
37.280997 -28.305181 42.404288 9
36.457600 -30.942905 42.007466 9
34.177843 -34.132034 40.598829 9
23.006032 -40.684130 32.981088 9
-0.082271 90.747290 18.595989 3
0.119756 88.003598 18.586765 3
1.030616 85.120643 19.076912 1
5.362647 81.578026 21.949299 1
4.675185 79.091779 21.349002 1
4.611337 76.484250 21.188751 1
4.641103 73.864802 21.100966 1
5.540550 71.116408 21.625683 1
5.625884 68.509599 21.591758 1
3.274853 66.229219 19.868173 4
0.754755 63.918837 18.032392 4
0.832721 61.272067 18.013721 4
0.920961 58.629228 18.009636 4
1.032362 55.989233 18.029104 4
1.114950 53.356395 18.035838 4
1.195256 50.727726 18.048315 4
2.375685 48.046220 18.836341 9
12.472441 45.037174 25.859489 9
19.326292 42.352144 30.626484 9
24.434872 39.854106 34.181995 9
28.529651 37.478820 37.036230 9
32.098345 35.194073 39.529438 9
35.006697 32.979284 41.567490 9
35.525194 30.762276 41.942042 9
35.933569 28.552006 42.245768 9
37.871616 26.428613 43.623763 9
39.503938 24.329052 44.793872 9
40.999525 22.255142 45.874045 9
42.289712 20.196079 46.816320 9
43.362784 18.143443 47.612551 9
44.205324 16.088085 48.253465 9
44.928500 14.035178 48.816668 9
45.486331 11.974326 49.270196 9
45.933100 9.907345 49.651981 9
46.229730 7.824111 49.934945 9
46.466458 5.734161 50.182013 9
46.610713 3.629371 50.370640 9
46.600937 1.494615 50.458235 9
46.499158 -0.663285 50.488104 9
46.270200 -2.855301 50.436057 9
45.973517 -5.072851 50.343552 9
45.530935 -7.337055 50.156694 9
44.936604 -9.654813 49.871809 9
44.100524 -12.055154 49.427165 9
43.037850 -14.542879 48.833868 9
41.623018 -17.161947 48.006072 9
39.833226 -19.932039 46.929116 9
37.642588 -22.874957 45.586374 9
34.789361 -26.089003 43.799494 9
31.175125 -29.631139 41.503148 9
32.185558 -31.684103 42.386641 9
25.986809 -36.279037 38.347604 9
-9.239584 92.312253 16.228734 3
-8.262905 89.320440 16.729832 3
1.373303 81.897181 22.963761 1
4.109355 78.750602 24.689824 1
4.456089 76.092156 24.805756 1
4.509372 73.494846 24.730474 1
4.455749 70.919735 24.590221 1
4.453029 68.340498 24.492085 1
0.862189 66.232120 21.961126 4
-6.214742 64.459767 17.062875 4
-14.704427 62.681817 11.205790 4
-6.017484 59.064287 17.050511 4
-5.806618 56.364771 17.132557 4
-5.640440 53.675784 17.191990 4
-5.280027 50.980632 17.391638 4
-3.897430 48.243501 18.296178 9
6.760268 45.172631 25.535064 9
14.040518 42.438893 30.479648 9
19.379296 39.903164 34.107904 9
23.672367 37.494296 37.030080 9
27.357619 35.179045 39.544414 9
30.429396 32.936450 41.646686 9
30.805015 30.686704 41.915913 9
31.361131 28.451878 42.314681 9
33.318848 26.299855 43.675613 9
35.033224 24.175728 44.876490 9
36.566535 22.075580 45.959720 9
37.874793 19.989304 46.895300 9
39.042242 17.917117 47.740649 9
40.031373 15.849972 48.470243 9
40.864150 13.784176 49.099106 9
41.538931 11.713954 49.626213 9
42.079187 9.636998 50.067645 9
42.483610 7.548268 50.422642 9
42.719586 5.437506 50.669226 9
42.875561 3.314228 50.867633 9
42.905683 1.166833 50.986915 9
42.747527 -1.021688 50.985027 9
42.396057 -3.259176 50.858928 9
41.922898 -5.536734 50.657460 9
41.314239 -7.862122 50.371616 9
40.451964 -10.269319 49.922081 9
39.441361 -12.740507 49.380483 9
38.126782 -15.323010 48.642524 9
36.506944 -18.028256 47.708235 9
34.448821 -20.906238 46.489250 9
31.976121 -23.965730 45.002855 9
28.819414 -27.306917 43.070021 9
26.566491 -30.435370 41.754938 9
25.743490 -33.141228 41.406710 9
16.360173 -38.879802 35.359949 9
-6.287325 82.929084 21.624411 1
-2.301442 79.497143 24.125365 1
-0.864860 76.604514 24.950881 1
-0.742591 73.963146 24.914992 1
-0.535628 71.316332 24.943351 1
-0.320971 68.677387 24.984925 1
-1.521055 66.229429 24.095246 4
-10.789469 48.467155 17.490103 9
0.851012 45.312495 25.209955 9
8.560925 42.528916 30.322216 9
14.132132 39.954216 34.018522 9
18.659179 37.510256 37.027017 9
22.415969 35.163269 39.529603 9
25.647528 32.891266 41.689123 9
25.900262 30.607858 41.871090 9
26.661728 28.349301 42.398620 9
28.664874 26.169238 43.759500 9
30.450354 24.019371 44.981629 9
32.009242 21.891509 46.059007 9
33.335137 19.777275 46.987369 9
34.501031 17.675543 47.815298 9
35.514509 15.581507 48.547861 9
36.382200 13.490581 49.189518 9
37.038201 11.389130 49.696593 9
37.606120 9.287078 50.151296 9
37.963860 7.162730 50.472738 9
38.213204 5.025270 50.728632 9
38.365693 2.872774 50.926776 9
38.312518 0.681522 50.995349 9
38.119569 -1.542806 50.978278 9
37.769337 -3.808911 50.864298 9
37.235508 -6.128252 50.636413 9
36.477805 -8.516747 50.268533 9
35.511213 -10.978800 49.771104 9
34.362637 -13.515148 49.162421 9
32.939717 -16.156992 48.382403 9
31.107445 -18.951663 47.343342 9
28.860483 -21.915403 46.043011 9
26.038480 -25.111348 44.377879 9
22.382696 -28.640917 42.180837 9
22.012009 -31.201073 42.141620 9
18.052994 -34.982013 39.773877 9
-0.209792 -43.831448 28.120955 9
-6.621724 71.866600 24.693114 1
-6.416479 69.188556 24.720111 1
-17.831056 48.692938 16.750368 9
-5.272646 45.457251 24.880289 9
2.938361 42.620674 30.194713 9
8.703038 40.007021 33.927604 9
13.467151 37.526807 37.018001 9
17.335037 35.147117 39.533163 9
20.671699 32.843997 41.710031 9
20.783216 30.525104 41.796826 9
21.741381 28.240755 42.441124 9
23.881218 26.035455 43.860317 9
25.659942 23.854333 45.051277 9
27.270079 21.699004 46.139072 9
28.621593 19.556161 47.065194 9
29.819901 17.426888 47.898125 9
30.837641 15.302976 48.620134 9
31.710867 13.182371 49.254679 9
32.418877 11.057379 49.788427 9
32.944908 8.919921 50.210659 9
33.295270 6.764610 50.525656 9
33.549434 4.598103 50.785037 9
33.614134 2.400856 50.928682 9
33.528782 0.173461 50.982357 9
33.284529 -2.091139 50.940647 9
32.896379 -4.395509 50.813567 9
32.282879 -6.762516 50.549035 9
31.469479 -9.194310 50.163972 9
30.413874 -11.708182 49.631760 9
29.123315 -14.310939 48.957746 9
27.428666 -17.055439 48.034297 9
25.450082 -19.923042 46.939521 9
22.942725 -22.993915 45.517962 9
19.738178 -26.336872 43.663899 9
16.041261 -29.913446 41.510181 9
17.124065 -32.053234 42.412512 9
-27.691660 -49.407459 14.170420 9
-25.098447 48.924462 16.033036 9
-11.504309 45.602620 24.621617 9
-2.970543 42.718001 30.011095 9
3.090271 40.061534 33.840907 9
8.088183 37.543969 37.004733 9
12.115038 35.130607 39.560226 9
15.587703 32.796135 41.771499 9
15.552744 30.441297 41.764274 9
16.716404 28.130922 42.524947 9
18.860355 25.893363 43.914554 9
20.787184 23.688488 45.173201 9
22.382823 21.500806 46.228507 9
23.803027 19.331988 47.179218 9
25.023480 17.173764 48.009929 9
26.039173 15.018800 48.717526 9
26.917638 12.867889 49.344844 9
27.614853 10.710713 49.864120 9
28.142161 8.542599 50.282685 9
28.506841 6.358758 50.605319 9
28.694341 4.151231 50.823056 9
28.747240 1.921131 50.963011 9
28.569738 -0.353676 50.965087 9
28.312636 -2.652103 50.924624 9
27.821721 -5.008526 50.744892 9
27.108294 -7.428651 50.433532 9
26.198852 -9.914283 50.007737 9
25.059897 -12.480316 49.447090 9
23.564390 -15.166454 48.672797 9
21.772711 -17.969470 47.723650 9
19.531902 -20.941344 46.505194 9
16.637973 -24.155495 44.891800 9
13.022554 -27.654866 42.843089 9
11.121074 -30.721040 41.874466 9
9.044703 -33.894311 40.809785 9
-4.269478 -40.813727 32.800553 9
-33.000047 49.181383 15.093294 9
-18.056016 45.756566 24.305656 9
-9.070312 42.818103 29.841952 9
-2.707399 40.117701 33.764478 9
2.541938 37.561608 37.006463 9
6.706878 35.113491 39.585294 9
10.309223 32.746315 41.823596 9
10.120757 30.354119 41.722558 9
11.514588 28.017149 42.608768 9
13.734592 25.749723 44.013674 9
15.658018 23.511555 45.242115 9
17.343925 21.296922 46.330579 9
18.784312 19.097210 47.274105 9
20.036156 16.909444 48.107947 9
21.073210 14.724542 48.815940 9
21.924425 12.538561 49.416070 9
22.614196 10.348242 49.923516 9
23.104258 8.142868 50.314832 9
23.482229 5.928510 50.644219 9
23.645667 3.685088 50.848777 9
23.683334 1.420262 50.983423 9
23.469094 -0.893033 50.970906 9
23.118862 -3.241291 50.882861 9
22.571733 -5.641584 50.682281 9
21.776017 -8.111742 50.338002 9
20.738719 -10.658782 49.854957 9
19.425095 -13.299263 49.212615 9
17.843086 -16.040835 48.416656 9
15.798925 -18.942735 47.349915 9
13.253237 -22.031493 45.989896 9
10.060180 -25.365282 44.249690 9
5.799737 -29.088720 41.876788 9
6.160620 -31.519486 42.319295 9
-0.496911 -36.150707 38.527728 9
-41.663755 49.469014 13.880389 9
-24.851169 45.915896 23.991288 9
-15.385580 42.921517 29.679279 9
-8.737347 40.176211 33.676444 9
-3.300607 37.580395 36.951308 9
1.075150 35.095606 39.594046 9
4.828384 32.694491 41.868975 9
4.496209 30.263947 41.684725 9
6.146142 27.899987 42.705384 9
8.422172 25.600699 44.111662 9
10.388904 23.330816 45.338626 9
12.124565 21.085600 46.433427 9
13.614448 18.856192 47.387177 9
14.902096 16.638412 48.226156 9
15.913064 14.417910 48.905581 9
16.756783 12.197860 49.491507 9
17.449605 9.974639 49.993884 9
17.956317 7.738394 50.391678 9
18.293364 5.485235 50.694983 9
18.417479 3.202650 50.878070 9
18.380632 0.892130 50.972448 9
18.175154 -1.453204 50.973828 9
17.770379 -3.844923 50.864221 9
17.128400 -6.297408 50.621431 9
16.227115 -8.823400 50.232854 9
15.065516 -11.431979 49.698587 9
13.569770 -14.149244 48.975422 9
11.783286 -16.976048 48.090185 9
9.484239 -19.978910 46.912127 9
6.605648 -23.193106 45.403183 9
2.921503 -26.701005 43.431518 9
-0.500202 -30.222654 41.631109 9
-0.839761 -32.906695 41.665322 9
-12.422531 -39.094806 35.087949 9
-31.868068 46.079578 23.700205 9
-21.909634 43.027923 29.534891 9
-14.939674 40.236014 33.620834 9
-9.287024 37.599479 36.940789 9
-4.735522 35.077217 39.621288 9
-0.807789 32.641493 41.942951 9
-1.406648 30.168634 41.607373 9
0.513736 27.775973 42.763545 9
2.834770 25.442297 44.163513 9
4.956656 23.145110 45.453950 9
6.691441 20.864858 46.524197 9
8.248328 18.605634 47.497323 9
9.497177 16.349776 48.296842 9
10.572862 14.100837 49.002114 9
11.436969 11.848760 49.590671 9
12.130933 9.591610 50.086976 9
12.619760 7.319041 50.470680 9
12.873734 5.019956 50.724631 9
13.013620 2.705210 50.919828 9
12.911128 0.349677 50.981484 9
12.630763 -2.043378 50.947718 9
12.136526 -4.486709 50.797929 9
11.383437 -6.996424 50.506418 9
10.372479 -9.581031 50.074418 9
9.082708 -12.253847 49.490476 9
7.463530 -15.035964 48.726064 9
5.396008 -17.967207 47.713291 9
2.846038 -21.071287 46.433845 9
-0.397471 -24.420030 44.767406 9
-4.655144 -28.124637 42.531405 9
-5.845867 -31.056522 42.079104 9
-10.193575 -34.956737 39.824478 9
-39.511882 46.262315 23.207682 9
-28.731329 43.139521 29.365215 9
-21.436779 40.298978 33.533307 9
-15.488313 37.619215 36.938871 9
-10.765903 35.058135 39.649994 9
-6.682064 32.586077 42.003397 9
-7.458182 30.071779 41.575683 9
-5.279442 27.649161 42.852746 9
-2.836079 25.283926 44.289904 9
-0.720713 22.949928 45.546885 9
1.084059 20.637776 46.633626 9
2.638825 18.342215 47.584869 9
3.945725 16.055309 48.401878 9
5.039249 13.772442 49.104493 9
5.937571 11.488639 49.703227 9
6.588990 9.191225 50.168669 9
7.054754 6.880195 50.536064 9
7.286126 4.542473 50.777828 9
7.373877 2.184231 50.946068 9
7.224739 -0.214619 50.987915 9
6.856663 -2.658782 50.914043 9
6.286362 -5.152456 50.734434 9
5.428298 -7.719146 50.401038 9
4.299675 -10.364863 49.924349 9
2.825251 -13.114982 49.262543 9
1.029996 -15.975340 48.430759 9
-1.297354 -19.007108 47.310787 9
-4.205690 -22.240168 45.876761 9
-7.900365 -25.747331 44.015091 9
-12.850323 -29.681903 41.465066 9
-11.408070 -31.929273 42.519127 9
-21.980409 -37.671823 36.856064 9
-49.253857 46.517027 21.716428 9
-35.868951 43.256583 29.171232 9
-28.213584 40.364743 33.433515 9
-21.959302 37.639861 36.922669 9
-17.049857 35.038212 39.669287 9
-12.804234 32.528185 42.053781 9
-13.809592 29.969539 41.509956 9
-11.304487 27.517103 42.938772 9
-8.785205 25.116534 44.384061 9
-6.625570 22.746650 45.636617 9
-4.760170 20.400411 46.732953 9
-3.175594 18.069442 47.680564 9
-1.828045 15.748609 48.503952 9
-0.759816 13.426082 49.179613 9
0.162532 11.107480 49.782108 9
0.812578 8.772843 50.241118 9
1.260264 6.422501 50.595861 9
1.507495 4.050117 50.847656 9
1.495425 1.640222 50.964124 9
1.305882 -0.802377 50.991124 9
0.833626 -3.301705 50.870698 9
0.198998 -5.844977 50.670089 9
-0.810067 -8.478691 50.272489 9
-2.091015 -11.194131 49.735476 9
-3.689543 -14.010119 49.034661 9
-5.753683 -16.970538 48.089532 9
-8.364325 -20.109794 46.857074 9
-11.642471 -23.475735 45.272670 9
-15.969074 -27.188446 43.129878 9
-18.799583 -30.599678 41.823865 9
-21.395181 -34.013675 40.662216 9
-39.161364 -41.889012 31.251598 9
-43.267208 43.377475 28.994866 9
-35.251393 40.432910 33.341997 9
-28.652995 37.661139 36.927832 9
-23.551384 35.017668 39.708185 9
-19.144840 32.468373 42.119367 9
-20.422937 29.863095 41.442237 9
-17.608025 27.378334 43.004770 9
-14.980841 24.941940 44.473900 9
-12.742672 22.536473 45.739837 9
-10.847827 20.152737 46.827423 9
-9.219594 17.785811 47.778420 9
-7.847415 15.428140 48.598613 9
-6.773273 13.067452 49.265295 9
-5.896845 10.705142 49.833138 9
-5.205312 8.336359 50.309250 9
-4.787680 5.943638 50.645579 9
-4.585215 3.526399 50.874295 9
-4.616222 1.074942 50.985835 9
-4.871897 -1.416871 50.985379 9
-5.412493 -3.966624 50.840878 9
-6.200032 -6.576650 50.573446 9
-7.294977 -9.266592 50.151170 9
-8.745391 -12.056157 49.549048 9
-10.611612 -14.969729 48.735719 9
-12.965625 -18.036889 47.673867 9
-15.863353 -21.286573 46.335136 9
-19.655189 -24.822102 44.534190 9
-24.663631 -28.754661 42.102049 9
-24.769952 -31.498994 42.299592 9
-33.174116 -36.544726 38.100290 9
-8.836886 137.962848 -180.384495 0
-8.850743 141.298631 -179.090458 0
-8.930933 144.628142 -177.773297 0
-4.114468 145.540894 -180.147642 0
3.179792 145.376276 -184.341042 0
8.184078 146.419417 -186.796847 0
17.756361 145.521438 -192.581247 0
24.077865 146.243295 -195.930724 0
-8.996471 137.770653 -175.998001 0
-9.088246 141.136210 -174.676821 0
-9.128801 144.434865 -173.420122 0
-4.863205 145.599326 -175.336963 0
2.460506 145.393769 -179.457169 0
8.697272 145.845952 -182.747283 0
17.011255 145.496717 -187.491738 0
23.781668 145.997470 -191.084750 0
-9.202967 137.607370 -171.640778 0
-9.283525 140.956447 -170.359322 0
-9.320289 144.242808 -169.135138 0
-5.546705 145.631888 -170.655901 0
1.771755 145.402920 -174.678008 0
7.462777 146.082184 -177.508423 0
16.267191 145.478281 -182.488907 0
23.473646 145.762592 -186.302279 0
-9.399289 137.442763 -167.353582 0
-9.471331 140.776977 -166.108909 0
-9.531880 144.065097 -164.897160 0
-8.244132 146.655105 -164.649263 0
1.141004 145.390347 -170.018346 0
6.101453 146.384608 -172.280644 0
15.641935 145.412940 -177.650381 0
22.853230 145.669826 -181.377328 0
-9.602890 137.285919 -163.121537 0
-9.601062 140.571452 -161.957902 0
-9.685408 143.862281 -160.758560 0
-8.884018 146.679733 -160.185297 0
0.350431 145.459566 -165.325542 0
5.732705 146.234075 -167.818715 0
14.953252 145.382223 -172.846121 0
22.196860 145.599064 -176.505887 0
-9.791222 137.124729 -158.958149 0
-9.833483 140.422868 -157.793072 0
-9.883396 143.685770 -156.645812 0
-9.301364 146.600106 -155.940441 0
-0.177473 145.408903 -160.883610 0
4.766487 146.366421 -163.029787 0
14.190876 145.390819 -168.070030 0
21.480473 145.560818 -171.671605 0
-9.963706 136.958701 -154.860976 0
-10.049425 140.269528 -153.695742 0
-10.070767 143.507708 -152.595017 0
-9.702612 146.516987 -151.767862 0
-0.922958 145.467512 -156.368477 0
5.971296 145.492262 -159.709380 0
13.518870 145.364400 -163.427347 0
20.830473 145.499401 -166.954608 0
-10.142767 136.799634 -150.812802 0
-10.221428 140.096951 -149.680702 0
-10.275370 143.342049 -148.586006 0
-10.024205 146.398786 -147.704856 0
-1.376899 145.391278 -152.107740 0
5.546049 145.381208 -155.383308 0
12.667243 145.425238 -158.744297 0
20.146020 145.458946 -162.287371 0
-10.346221 136.656961 -146.800852 0
-10.398644 139.930506 -145.713249 0
-10.463827 143.171756 -144.638426 0
-10.297465 146.260593 -143.726367 0
-4.076691 146.401657 -146.533920 0
2.792746 146.366305 -149.703269 0
12.065579 145.377910 -154.286239 0
19.514357 145.400722 -157.721530 0
-10.506125 136.494207 -142.866085 0
-10.542281 139.749812 -141.815416 0
-10.590124 142.973214 -140.777493 0
-10.550937 146.116270 -139.811133 0
-2.688064 145.446806 -143.524317 0
4.071405 145.466068 -146.539714 0
10.532912 145.761333 -149.345051 0
18.578313 145.483147 -153.043852 0
-10.603002 136.300657 -139.016274 0
-10.769276 139.615890 -137.914587 0
-10.802059 142.821536 -136.911593 0
-10.761342 145.954052 -135.970063 0
-3.415332 145.516285 -139.285638 0
3.397589 145.486160 -142.253963 0
10.523105 145.453711 -145.366514 0
15.870036 146.361547 -147.431075 0
22.801383 146.684175 -150.369048 0
-10.664062 136.090658 -135.230951 0
-10.903049 139.436223 -134.114857 0
-10.970062 142.650612 -133.117286 0
-11.034266 145.826286 -132.139405 0
-4.145325 145.591727 -135.108100 0
2.604374 145.567362 -137.962865 0
9.655787 145.543550 -140.952063 0
17.160333 145.462541 -144.157133 0
22.209534 146.603604 -145.973681 0
-11.089704 139.287234 -130.328227 0
-11.146053 142.486801 -129.361973 0
-11.180942 145.638793 -128.424920 0
-4.843091 145.656002 -131.009152 0
1.887571 145.617216 -133.776869 0
8.900350 145.587034 -136.664524 0
16.253990 145.548306 -139.701602 0
21.820116 146.439720 -141.745691 0
-9.172736 138.032817 -127.733485 0
-9.239748 141.256459 -126.778225 3
-8.795706 144.187056 -126.115105 3
-4.515587 145.224745 -127.516752 0
1.188307 145.663263 -129.659396 0
8.159165 145.628722 -132.445455 0
15.432768 145.601153 -135.356749 0
21.474770 146.260825 -137.591845 0
-9.419884 141.098358 -123.072219 3
-9.318312 144.191160 -122.246214 3
-2.971051 144.200753 -124.683264 3
3.505158 144.278570 -127.156916 0
7.377237 145.693892 -128.264187 0
14.628391 145.651390 -131.082132 0
21.161284 146.071971 -133.502326 0
-9.581134 140.933266 -119.415482 3
-9.634301 144.094963 -118.531908 3
-3.531533 144.206761 -120.774720 3
3.083040 144.197632 -123.246601 3
9.969261 144.197194 -125.823274 3
13.819957 145.708255 -126.864853 0
20.944444 145.844442 -129.505996 0
-9.748367 140.773879 -115.793377 3
-9.776739 143.914355 -114.945211 3
-4.000536 144.171535 -116.960526 3
2.509042 144.192801 -119.308156 3
9.345722 144.193834 -121.784696 3
16.493341 144.192833 -124.379862 3
22.278775 144.936991 -126.292047 0
-9.921577 140.620115 -112.204797 3
-9.972473 143.763185 -111.368306 3
-4.609019 144.208263 -113.125145 3
1.923022 144.197452 -115.412787 3
8.718600 144.196126 -117.795109 3
15.804165 144.200746 -120.282602 3
-10.089192 140.465897 -108.654091 3
-10.111286 143.585780 -107.853475 3
-5.124879 144.202878 -109.380371 3
1.353494 144.197814 -111.572578 3
8.124015 144.187070 -113.869572 3
15.136290 144.203121 -116.246445 3
-10.228005 140.299058 -105.150266 3
-10.285903 143.428865 -104.355160 3
-5.620657 144.190810 -105.688310 3
0.802579 144.192703 -107.786301 3
7.500260 144.195363 -109.977947 3
14.475308 144.206333 -112.262625 3
-10.384764 140.143767 -101.670265 3
-10.432586 143.260093 -100.901497 3
-6.169437 144.208071 -102.015024 3
0.244263 144.194498 -104.040549 3
6.917008 144.188253 -106.149811 3
13.843222 144.200176 -108.338707 3
-10.548382 139.994208 -98.218362 3
-10.571704 143.089658 -97.481483 3
-6.639095 144.189190 -98.416882 3
-0.308030 144.196629 -100.339858 3
6.325288 144.188559 -102.361798 3
13.170490 144.216322 -104.443460 3
-10.701516 139.841256 -94.800808 3
-10.745323 142.938898 -94.076431 3
-7.174439 144.205803 -94.830491 3
-0.881288 144.212049 -96.671770 3
5.697871 144.209051 -98.601998 3
12.590214 144.193614 -100.630064 3
-10.875748 139.701336 -91.403443 3
-10.884795 142.772769 -90.713762 3
-7.639822 144.190458 -91.310528 3
-1.402865 144.205457 -93.064150 3
5.136370 144.201674 -94.909843 3
11.968594 144.193286 -96.842021 3
19.065115 144.202573 -98.847849 3
-11.037234 139.556679 -88.039029 3
-11.026139 142.609524 -87.377217 3
-8.120822 144.185561 -87.820498 3
-1.923230 144.201150 -89.494667 3
4.600809 144.185069 -91.266452 3
11.357849 144.191251 -93.099051 3
18.422127 144.193523 -95.018390 3
-11.203365 139.416311 -84.699502 3
-11.204927 142.467331 -84.052717 3
-8.656060 144.210387 -84.345767 3
-2.448625 144.202078 -85.959801 3
4.029889 144.188183 -87.647489 3
10.742410 144.194579 -89.393886 3
17.764427 144.194480 -91.224384 3
-11.317917 139.250570 -81.404050 3
-11.349409 142.309364 -80.766145 3
-9.099607 144.191890 -80.938685 3
-2.975093 144.206231 -82.459966 3
3.477028 144.185596 -84.071683 3
10.118148 144.205100 -85.724058 3
17.133967 144.186431 -87.479479 3
-11.535466 142.174506 -77.489232 3
-9.589863 144.199202 -77.547642 3
-3.456139 144.190763 -79.009670 3
2.922383 144.186631 -80.530533 3
9.523659 144.204797 -82.101485 3
16.489792 144.187736 -83.767924 3
-11.637389 141.997980 -74.263786 3
-10.091029 144.214373 -74.185057 3
-3.982608 144.200020 -75.576708 3
2.340438 144.203406 -77.014810 3
8.962307 144.191914 -78.524895 3
15.824499 144.201701 -80.086732 3
-11.797011 141.852749 -71.040932 3
-10.502644 144.186719 -70.881607 3
-4.467132 144.191106 -72.188820 3
1.797389 144.204192 -73.544799 3
8.399278 144.182517 -74.981254 3
15.197513 144.201254 -76.453532 3
-11.967552 141.714697 -67.836084 3
-10.968834 144.188688 -67.589716 3
-4.965710 144.191402 -68.826722 3
1.285149 144.192666 -70.115521 3
7.799660 144.192870 -71.459352 3
14.598338 144.190966 -72.862667 3
-12.083946 141.550050 -64.667439 3
-11.230367 144.089194 -64.384489 3
-5.463678 144.193632 -65.494095 3
0.742255 144.198240 -66.707464 3
7.242363 144.185971 -67.981532 3
13.957318 144.202506 -69.292699 3
-12.192765 138.387417 -62.033144 3
-12.223471 141.398731 -61.510742 3
-10.145319 143.308652 -61.567777 3
-5.040012 143.742166 -62.438674 3
0.556946 144.033645 -63.424843 3
6.636866 144.204176 -64.521045 3
13.393690 144.181274 -65.775625 3
-12.305637 135.210396 -59.383851 3
-12.364197 138.262052 -58.867550 3
-11.952011 141.034833 -58.479437 3
-7.663006 141.817364 -59.099320 3
-2.984819 142.482375 -59.806322 3
2.010064 143.078562 -60.579660 3
7.412512 143.573882 -61.440520 3
13.283028 143.954417 -62.401762 3
-12.441506 132.028931 -56.713202 3
-12.450313 135.079816 -56.223899 3
-11.210493 137.430478 -56.051766 3
-7.470446 138.476583 -56.499836 3
-3.618478 139.527322 -56.964848 3
0.461509 140.528769 -57.474544 3
4.972053 141.390733 -58.076706 3
9.818220 142.173171 -58.746049 3
15.087101 142.847433 -59.501461 3
-12.520559 125.688593 -54.516854 3
-12.577440 128.830003 -54.025858 3
-12.583839 131.906139 -53.551698 3
-9.926916 133.489692 -53.718955 3
-6.129214 134.497284 -54.150588 3
-2.327815 135.565668 -54.572355 3
1.618894 136.622344 -55.017323 3
5.626015 137.714503 -55.465037 3
9.684707 138.848210 -55.913156 3
13.978246 139.938153 -56.403156 3
-12.644307 122.434852 -51.797821 3
-12.713453 125.612798 -51.320118 3
-12.330721 128.492985 -50.950671 3
-8.585978 129.461211 -51.350435 3
-4.801883 130.469382 -51.748654 3
-0.924939 131.489878 -52.157132 3
3.042357 132.527049 -52.574820 3
7.106763 133.580357 -53.002731 3
11.252666 134.660707 -53.436937 3
15.527640 135.747476 -53.887334 3
-12.742018 115.938662 -49.512800 3
-12.806579 119.184364 -49.049110 3
-12.838710 122.369974 -48.596650 3
-11.055850 124.450041 -48.544879 3
-7.277131 125.392910 -48.922795 3
-3.394343 126.339378 -49.312641 3
0.533002 127.325636 -49.701182 3
4.523300 128.343008 -50.092084 3
8.627987 129.366421 -50.495804 3
12.859811 130.393125 -50.914392 3
17.126292 131.473503 -51.328138 3
-12.896065 112.630791 -46.725645 3
-12.921920 115.884184 -46.288298 3
-12.988760 119.122106 -45.845905 3
-9.698074 120.298644 -46.102911 3
-5.876252 121.211824 -46.460474 3
-2.003564 122.158596 -46.817936 3
1.964878 123.115156 -47.184107 3
6.028899 124.084763 -47.558458 3
10.197549 125.065662 -47.942297 3
14.408915 126.093763 -48.322909 3
-13.033860 109.289977 -43.916980 3
-13.022796 112.552308 -43.505487 3
-12.103793 115.202300 -43.276238 3
-8.374870 116.106403 -43.596692 3
-4.473722 116.967329 -43.940555 3
-0.555804 117.883009 -44.277054 3
3.497641 118.785078 -44.628746 3
7.607393 119.722891 -44.979980 3
11.777098 120.696037 -45.331157 3
16.124724 121.642729 -45.703874 3
-53.850217 1.811882 -47.279109 9
-53.865912 7.078649 -46.770016 9
-53.033122 11.119133 -46.487050 9
-51.718052 14.466942 -46.331016 9
-49.972149 17.225701 -46.285218 9
-47.624666 19.222135 -46.388608 9
-44.342625 20.104279 -46.718431 9
-38.641636 18.203877 -47.628697 9
-30.783414 13.984601 -49.039955 9
-13.134647 102.553643 -41.485720 3
-13.191753 105.939024 -41.077503 3
-13.196465 109.244604 -40.681976 3
-10.774824 110.945730 -40.739697 3
-6.959355 111.793523 -41.048472 3
-3.025200 112.630713 -41.368754 3
0.950587 113.507969 -41.686023 3
5.007516 114.403029 -42.007153 3
9.175051 115.301480 -42.336975 3
13.458112 116.204241 -42.675813 3
-108.758065 -1.706585 -36.663828 8
-109.204630 5.209322 -36.059888 8
-108.112692 9.098649 -35.902244 8
-106.128914 11.302829 -35.996688 8
-102.155537 10.037295 -36.634101 8
-69.126682 -9.166282 -42.558626 9
-66.968623 -6.706515 -42.630820 9
-64.740919 1.110512 -42.254016 9
-68.691306 11.965946 -40.827438 9
-68.774295 17.165577 -40.369644 9
-66.770609 19.430323 -40.423212 9
-64.841640 21.774446 -40.457571 9
