ply
format ascii 1.0
element vertex 1378
property float x
property float y
property float z
property int scalar_Label
end_header
-22.361762 -51.239454 -5.941052 9
-25.097126 -51.254280 -5.814090 9
-27.832001 -51.322487 -5.708546 9
-30.582187 -51.308845 -5.551631 9
-33.337219 -51.313971 -5.397393 9
-36.099006 -51.324764 -5.238733 9
-38.871772 -51.317057 -5.062534 9
-41.645678 -51.356364 -4.904145 9
-45.028028 -48.054355 -2.927362 9
-47.234389 -51.359769 -4.523558 9
-50.142498 -50.875081 -4.057177 9
-53.178732 -49.891430 -3.310460 9
-56.378893 -48.326127 -2.236907 9
-59.671469 -46.570063 -1.048228 9
-63.031805 -44.753274 0.185234 9
-66.495072 -42.750761 1.532421 9
-71.833788 -33.987169 6.603497 8
-74.951520 -33.929562 6.913571 8
-78.117357 -33.770593 7.288900 8
-81.270646 -33.724785 7.611523 8
-84.434978 -33.707241 7.928184 8
-87.657662 -33.572327 8.319673 8
-90.879882 -33.508945 8.681622 8
-94.144838 -33.388759 9.085401 8
-97.423699 -33.299639 9.482365 8
-100.738287 -33.182620 9.905568 8
-104.147251 -32.890550 10.437826 8
-108.278067 -30.863034 11.957164 8
-116.430234 -19.203545 18.921100 7
-117.749218 -24.483246 16.360086 7
-121.517693 -23.889935 17.122179 7
-125.395779 -23.151835 17.980366 7
-129.281802 -22.504987 18.801204 7
-133.483283 -21.293904 19.959059 7
-137.742288 -20.098009 21.125149 7
-142.159388 -18.717608 22.414601 7
-146.127415 -18.357669 23.134233 7
149.725699 -26.430176 16.055730 6
145.926375 -26.644831 15.589251 6
142.149299 -26.897160 15.114105 6
138.440052 -27.094335 14.682537 6
134.778355 -27.271747 14.274179 6
131.100543 -27.562316 13.814012 6
127.522003 -27.717278 13.441734 6
123.969838 -27.888416 13.071699 6
120.460738 -28.035407 12.726294 6
116.945243 -28.272816 12.341298 6
116.192457 -21.722809 15.750339 6
109.775141 -29.349179 11.268884 5
104.781013 -33.762171 8.595753 5
101.427401 -34.047722 8.229963 5
98.168264 -34.148415 7.976673 5
94.962661 -34.161949 7.781253 5
91.778644 -34.172953 7.596600 5
88.601221 -34.225440 7.398279 5
85.444065 -34.277018 7.209636 5
82.301748 -34.343154 7.022029 5
79.199045 -34.335939 6.883779 5
76.109796 -34.338939 6.748700 5
73.029765 -34.366743 6.608694 5
68.067237 -41.944849 2.330147 9
64.684945 -43.708208 1.257708 9
61.313356 -45.653150 0.095172 9
58.035514 -47.422198 -0.961550 9
54.809721 -49.184191 -2.005365 9
51.752391 -50.339633 -2.708212 9
48.786025 -51.195083 -3.238544 9
45.941098 -51.514894 -3.467773 9
43.153702 -51.579112 -3.549492 9
40.386451 -51.574240 -3.585872 9
37.624462 -51.585255 -3.623440 9
34.872830 -51.572622 -3.640617 9
32.123870 -51.589070 -3.666255 9
29.386297 -51.558198 -3.658626 9
26.647053 -51.591044 -3.678435 9
23.917490 -51.575351 -3.664354 9
21.193067 -51.542355 -3.633466 9
18.466861 -51.579166 -3.633395 9
15.746829 -51.573480 -3.602767 9
13.027912 -51.594544 -3.579443 9
10.312986 -51.568011 -3.522765 9
7.597931 -51.578852 -3.479202 9
4.883653 -51.606856 -3.437707 9
2.170293 -51.599978 -3.369777 9
-0.543804 -51.559964 -3.276329 9
-3.257107 -51.657336 -3.250811 9
-5.974103 -51.606036 -3.136393 9
-8.691121 -51.632062 -3.056972 9
-11.410265 -51.655687 -2.968802 9
-14.136090 -51.612710 -2.836550 9
-16.860322 -51.656117 -2.744278 9
-19.590190 -51.671456 -2.629031 9
-22.326813 -51.662494 -2.492800 9
-25.066387 -51.678909 -2.362913 9
-27.815336 -51.662569 -2.207248 9
-30.570883 -51.648709 -2.045178 9
-33.325372 -51.697275 -1.909832 9
-36.093283 -51.700057 -1.741289 9
-38.870517 -51.696239 -1.561135 9
-41.662650 -51.657688 -1.353647 9
-44.461561 -51.639336 -1.149239 9
-47.286026 -51.542585 -0.892925 9
-50.220012 -50.967414 -0.361161 9
-53.289829 -49.868005 0.472995 9
-56.490514 -48.347885 1.553139 9
-59.864590 -46.289757 2.946428 9
-63.243455 -44.455045 4.226940 9
-66.789870 -42.186889 5.763982 9
-72.289446 -32.907509 11.267573 8
-75.457835 -32.752018 11.646751 8
-78.644029 -32.607601 12.029826 8
-81.887732 -32.344876 12.490292 8
-85.098870 -32.265478 12.857329 8
-88.338835 -32.164575 13.247102 8
-91.606047 -32.051636 13.654462 8
-94.920364 -31.873743 14.109907 8
-98.296392 -31.599510 14.631882 8
-101.669049 -31.414673 15.114253 8
-105.199909 -30.895202 15.801150 8
-116.884658 -10.009527 28.263167 7
-117.488440 -17.412713 24.419177 7
149.981444 -19.989907 23.975151 6
145.873800 -20.692262 23.203844 6
141.538477 -21.966968 22.115046 6
137.616439 -22.518058 21.460824 6
133.722753 -23.108760 20.797262 6
129.949932 -23.535366 20.241694 6
126.214499 -23.970253 19.694072 6
122.480307 -24.495632 19.106914 6
118.872926 -24.814943 18.650394 6
116.247927 -22.788771 19.549233 6
113.374356 -21.337994 20.126361 5
113.880810 -10.963460 25.808288 5
102.253901 -32.960591 13.022944 5
99.007310 -32.954472 12.813882 5
95.776842 -32.963762 12.606105 5
92.533338 -33.075161 12.350257 5
89.288706 -33.260028 12.062663 5
86.114223 -33.293463 11.870796 5
82.952043 -33.349278 11.675840 5
79.813854 -33.386552 11.500863 5
76.677195 -33.481776 11.302502 5
73.586890 -33.469555 11.174119 5
70.486932 -33.554288 11.000158 5
65.143948 -43.001337 5.557766 9
61.696399 -45.188148 4.221526 9
58.333063 -47.269270 2.954937 9
55.088555 -49.056766 1.863350 9
51.962565 -50.498234 0.975702 9
49.002641 -51.272134 0.472207 9
46.130774 -51.694369 0.174724 9
43.348495 -51.681234 0.129923 9
40.571549 -51.685504 0.083291 9
37.800479 -51.703128 0.037069 9
35.036011 -51.727324 -0.004970 9
32.274530 -51.784880 -0.057891 9
29.527462 -51.776411 -0.065959 9
26.787835 -51.744799 -0.053267 9
24.047495 -51.767199 -0.063122 9
21.312961 -51.774826 -0.056949 9
18.830003 -48.092201 2.027731 9
16.063355 -48.093573 2.053228 9
13.129921 -51.793087 0.010475 9
10.408601 -51.755772 0.072742 9
7.687513 -51.731654 0.135321 9
4.966116 -51.750035 0.181748 9
2.245464 -51.730234 0.257361 9
-0.475619 -51.752809 0.316895 9
-3.196881 -51.787762 0.377210 9
-5.920523 -51.764540 0.478046 9
-8.646555 -51.744171 0.585101 9
-11.371128 -51.812725 0.649866 9
-14.103958 -51.773154 0.783467 9
-16.835908 -51.809391 0.882195 9
-19.578941 -51.753563 1.040889 9
-22.326121 -51.718164 1.196079 9
-25.070765 -51.766744 1.311791 9
-27.835905 -51.679926 1.512326 9
-30.597672 -51.687518 1.667540 9
-33.375218 -51.630970 1.867425 9
-36.152116 -51.640109 2.038309 9
-38.948099 -51.580470 2.256734 9
-41.749862 -51.547684 2.468378 9
-44.559008 -51.531439 2.679156 9
-47.398633 -51.411354 2.957983 9
-50.336805 -50.871026 3.486499 9
-53.430527 -49.712059 4.379779 9
-56.730121 -47.805858 5.713612 9
-60.173094 -45.527788 7.274280 9
-63.647764 -43.384957 8.770757 9
-67.324373 -40.704671 10.591636 9
-73.059218 -30.675585 16.681509 8
-76.278345 -30.470080 17.106586 8
-79.509187 -30.301374 17.521170 8
-82.796650 -30.020434 18.012083 8
-86.103811 -29.759306 18.502871 8
-89.425373 -29.534800 18.983830 8
-92.797558 -29.239079 19.518221 8
-96.218128 -28.888412 20.096984 8
-99.710902 -28.425336 20.754407 8
-103.197053 -28.073472 21.359237 8
-108.373373 -23.444715 24.507499 8
108.569818 -26.150148 21.499761 5
103.513180 -30.726396 18.575324 5
100.099954 -31.076512 18.141564 5
96.797023 -31.195061 17.854324 5
93.538960 -31.250609 17.614551 5
90.259366 -31.439547 17.307524 5
87.022272 -31.568012 17.046207 5
83.814380 -31.670576 16.810238 5
80.634620 -31.744973 16.600754 5
77.468956 -31.835574 16.391839 5
74.324577 -31.914366 16.199642 5
71.205947 -31.959108 16.036919 5
65.775038 -41.606184 10.326856 9
62.241945 -44.039803 8.805943 9
58.781746 -46.446263 7.311715 9
55.477048 -48.421103 6.077407 9
52.289617 -50.080207 5.035396 9
49.284559 -51.014648 4.421054 9
46.407286 -51.394317 4.135626 9
43.593850 -51.492006 4.021346 9
40.810528 -51.462418 3.988819 9
38.028699 -51.472104 3.941984 9
35.255417 -51.472887 3.908568 9
32.487029 -51.487535 3.875419 9
29.728577 -51.469219 3.869473 9
26.970036 -51.501712 3.842465 9
24.219754 -51.503250 3.841450 9
21.475591 -51.481026 3.862268 9
18.732642 -51.487697 3.874586 9
15.994417 -51.467906 3.910270 9
13.258478 -51.443713 3.956615 9
10.521853 -51.478773 3.976945 9
7.788254 -51.477464 4.026346 9
5.055414 -51.477476 4.083114 9
2.322814 -51.478468 4.147453 9
-0.410446 -51.430100 4.248432 9
-3.143786 -51.484265 4.298401 9
-5.880009 -51.448110 4.408716 9
-8.617193 -51.458449 4.500395 9
-11.357273 -51.458222 4.606430 9
-14.102369 -51.427540 4.738388 9
-16.850003 -51.422732 4.863706 9
-19.602827 -51.408479 5.002878 9
-22.362859 -51.372619 5.163030 9
-25.125250 -51.374166 5.309955 9
-27.902953 -51.294848 5.512457 9
-30.682704 -51.265910 5.694309 9
-33.467168 -51.260229 5.871299 9
-36.269208 -51.189527 6.094992 9
-39.067300 -51.207034 6.276033 9
-41.889634 -51.132883 6.519593 9
-45.441152 -47.080204 9.104446 9
-47.583707 -50.907943 7.079097 9
-50.576743 -50.173258 7.738674 9
-53.736537 -48.789718 8.790971 9
-57.108298 -46.656714 10.297392 9
-60.665319 -43.998185 12.128139 9
-64.350556 -41.120805 14.103700 9
-68.347607 -37.348650 16.625986 9
-74.294051 -26.741266 23.227363 8
-77.637289 -26.296134 23.815148 8
-81.038271 -25.751065 24.474697 8
-84.467842 -25.216095 25.140837 8
-88.002883 -24.450337 25.958036 8
-91.561578 -23.730724 26.761229 8
-95.257984 -22.720326 27.753199 8
-98.927391 -21.919481 28.633769 8
-102.323468 -21.987192 29.004062 8
-106.329146 -20.496082 30.331260 8
106.141780 -24.837089 26.452389 5
101.831018 -27.452734 24.632336 5
98.444109 -27.652080 24.277350 5
95.067552 -27.898706 23.905602 5
91.715418 -28.151426 23.541664 5
88.384878 -28.417065 23.181301 5
85.096480 -28.625773 22.866061 5
81.845802 -28.783013 22.592417 5
78.613677 -28.948428 22.324615 5
75.418290 -29.051667 22.104391 5
72.225109 -29.216789 21.857776 5
66.739114 -38.872348 15.985005 9
63.040424 -41.829106 14.106638 9
59.448568 -44.660269 12.314907 9
55.986671 -47.230478 10.689488 9
52.748035 -49.021676 9.536564 9
50.585523 -45.350600 11.627371 9
46.746682 -50.758012 8.353531 9
43.903754 -50.932169 8.186558 9
41.094887 -50.965740 8.111599 9
38.302794 -50.942410 8.079055 9
35.508252 -50.988078 8.014461 9
32.725515 -50.999573 7.978754 9
29.949668 -51.005660 7.954899 9
27.182997 -50.975941 7.960817 9
24.416420 -50.992155 7.948204 9
21.656813 -50.978620 7.961742 9
18.899421 -50.982490 7.973564 9
16.144938 -50.991365 7.990981 9
13.394774 -50.966196 8.037059 9
10.644562 -50.981979 8.067483 9
7.897937 -50.924158 8.149964 9
5.150549 -50.890189 8.226913 9
2.402529 -50.897609 8.287950 9
-0.345667 -50.902492 8.359064 9
-3.095930 -50.835016 8.481633 9
-5.846971 -50.842373 8.568517 9
-8.601842 -50.799871 8.693616 9
-11.359744 -50.767195 8.821601 9
-14.123774 -50.697662 8.980229 9
-16.887650 -50.703864 9.102665 9
-19.657242 -50.691811 9.244767 9
-22.435185 -50.645903 9.415906 9
-25.219334 -50.603017 9.594214 9
-28.011326 -50.553259 9.785655 9
-30.813643 -50.483491 9.998160 9
-33.622878 -50.427889 10.211405 9
-36.441928 -50.367883 10.436560 9
-39.270948 -50.307342 10.671403 9
-42.105471 -50.276437 10.897907 9
-44.953892 -50.226832 11.145160 9
-47.876296 -49.851937 11.597944 9
-50.934443 -48.904336 12.406488 9
-54.210393 -47.094015 13.747788 9
-57.710953 -44.523437 15.562649 9
-61.541234 -40.861439 18.054495 9
-65.664064 -36.412156 21.042608 9
-72.358826 -22.499515 29.808054 8
-75.589860 -22.608422 30.070771 8
-78.847408 -22.677381 30.369282 8
87.665812 -21.360666 31.658282 5
84.138422 -22.139319 30.985042 5
80.739680 -22.584751 30.527764 5
77.409084 -22.876891 30.175788 5
74.092462 -23.203455 29.814201 5
70.808020 -23.491423 29.487408 5
64.377301 -37.348877 20.910261 9
60.442608 -41.434881 18.301137 9
56.800320 -44.626882 16.249047 9
53.347173 -47.285934 14.533065 9
50.183757 -48.779536 13.536277 9
47.208889 -49.454037 13.047040 9
44.324806 -49.728611 12.810172 9
41.495891 -49.742825 12.740624 9
38.673050 -49.772226 12.671125 9
35.863985 -49.758356 12.637061 9
33.056724 -49.782114 12.589354 9
30.258100 -49.788061 12.561566 9
27.465636 -49.789005 12.545900 9
24.678555 -49.785151 12.542206 9
21.894740 -49.793693 12.540045 9
19.117098 -49.769629 12.566662 9
16.339970 -49.782331 12.580019 9
13.567239 -49.762257 12.622239 9
10.795600 -49.755256 12.665544 9
8.025724 -49.728854 12.729617 9
5.256343 -49.687489 12.811787 9
2.486193 -49.681305 12.881650 9
-0.284520 -49.658066 12.970907 9
-3.056699 -49.630629 13.071785 9
-5.830591 -49.615550 13.174254 9
-8.608575 -49.556554 13.312553 9
-11.389361 -49.519739 13.446550 9
-14.174646 -49.474922 13.594641 9
-17.323955 -44.405221 16.815129 9
-19.762164 -49.360654 13.933726 9
-22.565097 -49.302204 14.118143 9
-25.377784 -49.215991 14.328996 9
-28.201489 -49.104192 14.565077 9
-31.030697 -49.022172 14.792596 9
-33.871335 -48.924036 15.039725 9
-36.729933 -48.773465 15.328893 9
-39.590026 -48.689016 15.587415 9
-42.467265 -48.569526 15.877525 9
-45.344772 -48.518279 16.135728 9
-48.332001 -47.957393 16.718840 9
-51.514487 -46.553682 17.834520 9
-54.944128 -44.201146 19.551135 9
-58.900093 -39.810043 22.548175 9
-63.833453 -31.775562 27.830256 9
62.904901 -31.681017 28.515917 9
58.078110 -39.876684 23.282053 9
54.292105 -43.862899 20.688390 9
50.942681 -46.073955 19.213387 9
47.821816 -47.337179 18.339844 9
45.928797 -41.495915 21.896356 9
42.030394 -47.698404 17.970964 9
39.171499 -47.752779 17.879811 9
36.321943 -47.802142 17.801514 9
33.486761 -47.799370 17.765293 9
30.653092 -47.837930 17.713033 9
27.833220 -47.804447 17.715122 9
25.010886 -47.845184 17.680685 9
22.197920 -47.835103 17.687354 9
19.388652 -47.823559 17.704458 9
16.579348 -47.863504 17.699095 9
13.777272 -47.824954 17.751992 9
10.975777 -47.803346 17.803871 9
8.175302 -47.780325 17.866136 9
5.376031 -47.701958 17.972332 9
2.574885 -47.728614 18.022756 9
-0.227210 -47.567229 18.199728 9
-3.031647 -47.524289 18.312607 9
-5.838612 -47.477399 18.437564 9
-8.650380 -47.386494 18.599619 9
-11.465516 -47.321156 18.755456 9
-14.286464 -47.237154 18.932707 9
-17.116890 -47.100088 19.152949 9
-19.951760 -46.999492 19.360331 9
-22.796416 -46.871830 19.594635 9
-25.648504 -46.754132 19.832779 9
-28.503077 -46.691971 20.046232 9
-31.377625 -46.537070 20.328089 9
-34.265604 -46.364118 20.631677 9
-37.169383 -46.165521 20.961920 9
-40.084752 -45.977213 21.296337 9
-43.031491 -45.684923 21.707158 9
-45.978068 -45.485404 22.070399 9
-49.075891 -44.579841 22.891714 9
-52.529857 -42.082882 24.734778 9
-56.934400 -35.484425 29.199105 9
52.208882 -40.753517 26.700356 9
48.803228 -43.208121 25.038213 9
45.745576 -43.978048 24.462559 9
42.819001 -44.080388 24.323322 9
39.914692 -44.102700 24.245499 9
37.015216 -44.149450 24.162438 9
34.122164 -44.209181 24.081394 9
31.241093 -44.231088 24.034671 9
28.363060 -44.284185 23.978282 9
25.500090 -44.241531 23.993002 9
22.634133 -44.280409 23.965949 9
19.777274 -44.257071 23.988604 9
16.921603 -44.260971 24.004011 9
14.071858 -44.199415 24.071175 9
11.221038 -44.187072 24.117090 9
8.372012 -44.153033 24.186908 9
5.682073 -33.871018 30.797636 9
2.673843 -44.079491 24.360335 9
-0.176907 -43.993382 24.493709 9
-3.031487 -43.845519 24.676684 9
-5.889679 -43.737455 24.844520 9
-8.752604 -43.622419 25.027100 9
-11.625649 -43.408652 25.283157 9
-14.501170 -43.285957 25.491433 9
-17.390302 -43.065314 25.772913 9
-20.286870 -42.868281 26.049911 9
-23.199246 -42.603518 26.381075 9
-26.118696 -42.382332 26.695135 9
-29.058937 -42.078787 27.073074 9
-32.014481 -41.763120 27.469965 9
-34.980242 -41.480177 27.857052 9
-37.956733 -41.223762 28.238379 9
-40.993648 -40.680847 28.816266 9
-44.049131 -40.157104 29.393836 9
-47.240442 -39.007722 30.389029 9
-51.136239 -34.398182 33.643331 9
51.926686 -27.273000 39.645606 9
47.987176 -32.135090 36.371328 9
44.567300 -34.456607 34.771192 9
41.490831 -34.853529 34.440311 9
38.440235 -35.183605 34.164422 9
35.414218 -35.433959 33.951791 9
32.406805 -35.627916 33.787080 9
29.414482 -35.775084 33.663933 9
26.437307 -35.851025 33.598225 9
23.448839 -36.144447 33.401596 9
20.490009 -36.165514 33.393503 9
17.558015 -35.800580 33.648077 9
14.610231 -35.655062 33.770432 9
11.663542 -35.454356 33.939709 9
8.715016 -35.217323 34.143644 9
5.763710 -34.889444 34.417890 9
2.805965 -34.484561 34.753516 9
-0.161984 -33.896663 35.219927 9
-3.148780 -33.004282 35.896810 9
-6.153992 -32.205654 36.524062 9
-9.151807 -32.107616 36.704421 9
-12.156180 -31.977998 36.916729 9
-15.164819 -31.882543 37.117984 9
-18.180729 -31.772482 37.340202 9
-21.207005 -31.623975 37.599133 9
-24.240968 -31.486352 37.862497 9
-27.277936 -31.407488 38.098856 9
-30.336689 -31.213422 38.422780 9
-33.396348 -31.105005 38.702151 9
-36.480642 -30.893853 39.061276 9
-39.561312 -30.797970 39.356382 9
-42.675339 -30.566027 39.753688 9
-45.854189 -30.044680 40.355359 9
-199.379684 142.114630 -127.840506 0
-196.421584 139.547631 -127.183796 0
-193.994780 136.791723 -126.201743 0
-210.774997 143.697666 -118.736710 0
-194.747388 145.741421 -126.527294 0
-192.541037 142.915721 -125.407748 0
-190.464883 140.042631 -124.212022 0
-188.303302 137.203098 -123.082767 0
-211.027412 145.649194 -114.082273 0
-200.617464 145.570224 -118.296397 0
-189.105587 146.089013 -123.400131 0
-186.889615 143.284878 -122.313284 0
-184.792869 140.437073 -121.154600 0
-182.682408 137.594682 -120.013842 0
-205.936258 145.681971 -110.241700 0
-195.527983 145.656015 -114.654579 0
-183.673380 146.366089 -120.224998 0
-181.320396 143.630967 -119.259294 0
-179.256660 140.786833 -118.099324 0
-177.194863 137.940834 -116.945111 0
-149.315454 -12.952594 -27.053253 7
-211.777536 145.697107 -101.636362 0
-201.100720 145.622986 -106.287186 0
-190.738315 145.632351 -110.868547 0
-178.415345 146.583917 -117.013460 0
-175.838608 143.951899 -116.236721 0
-173.752385 141.132937 -115.113880 0
-171.722991 138.289580 -113.955528 0
-148.575110 1.495770 -29.963281 7
-144.826228 -1.217007 -29.958269 7
-141.332816 -4.171554 -29.677987 7
-138.151894 -7.445962 -29.042882 7
-135.487306 -11.280173 -27.794777 7
-134.033045 -16.467114 -25.070729 7
-206.624545 145.694927 -97.755320 0
-195.985366 145.663225 -102.589124 0
-185.916540 145.619477 -107.160820 0
-173.430623 146.702319 -113.679715 0
-170.440836 144.248812 -113.242358 0
-168.415163 141.420538 -112.093376 0
-166.336336 138.612470 -110.990630 0
-147.962483 9.208808 -28.531143 7
-143.670515 7.041507 -29.166566 7
-139.554848 4.744251 -29.634887 7
-135.656044 2.264230 -29.880013 7
-131.890962 -0.328947 -29.990414 7
-128.372448 -3.164401 -29.822372 7
-125.121444 -6.284515 -29.336739 7
-122.297525 -9.888497 -28.319163 7
-120.234021 -14.391873 -26.322392 7
-105.266382 -10.717342 -36.339132 8
-102.686249 -14.520636 -35.098284 8
-101.042181 -19.554065 -32.567667 8
-201.445055 145.702806 -93.956948 0
-188.409675 146.612059 -100.800367 0
-180.888106 145.685331 -103.665018 0
-171.449546 145.644177 -108.107390 0
-165.084683 144.538646 -110.303438 0
-163.064498 141.723195 -109.167982 0
-161.024047 138.913796 -108.053126 0
-159.223520 135.995009 -106.749280 0
-148.707402 15.609506 -25.608822 7
-144.057818 13.753803 -26.658533 7
-139.552503 11.820377 -27.589140 7
-135.227627 9.764987 -28.351426 7
-131.038810 7.619914 -28.990243 7
-126.979976 5.382016 -29.506421 7
-123.073538 3.018348 -29.865650 7
-119.381413 0.450494 -29.982025 7
-115.156887 -1.513986 -30.795338 8
-106.299525 1.815582 -37.642899 8
-102.554428 -0.480836 -37.996557 8
-99.203390 -3.224661 -37.847201 8
-95.989359 -6.137998 -37.518334 8
-93.071607 -9.434872 -36.780860 8
-90.415244 -13.101166 -35.662616 8
-88.360506 -17.615766 -33.659528 8
-195.735379 145.904692 -90.627147 0
-183.387595 146.636779 -97.218747 0
-175.604341 145.853481 -100.433266 0
-166.738443 145.643390 -104.618636 0
-159.787085 144.814901 -107.403611 0
-157.787512 142.005421 -106.268218 0
-155.750596 139.208866 -105.166887 0
-153.758944 136.388773 -104.031550 0
-146.146737 18.900880 -22.211769 7
-140.737367 17.745788 -24.188285 7
-136.038299 16.013173 -25.393144 7
-131.522354 14.166924 -26.429516 7
-127.109698 12.274651 -27.386789 7
-122.865876 10.262843 -28.178629 7
-118.723792 8.189842 -28.881266 7
-112.267278 8.646245 -32.588940 8
-105.637663 9.463227 -36.648737 8
-101.712208 7.407052 -37.270847 8
-97.997033 5.141714 -37.642089 8
-94.410075 2.746476 -37.861404 8
-90.903886 0.267389 -37.986161 8
-87.539750 -2.380513 -37.924362 8
-84.335956 -5.235514 -37.639526 8
-81.325986 -8.359464 -37.070658 8
-78.598656 -11.895253 -36.070764 8
-76.294377 -16.072292 -34.405060 8
-74.980816 -21.755497 -31.167806 8
-50.789515 -23.994789 -42.737682 9
-47.780582 -27.178563 -42.189273 9
-190.041207 146.110105 -87.373409 0
-180.981005 145.669083 -91.610107 0
-170.153269 146.095200 -97.412867 0
-162.030082 145.643504 -101.179136 0
-154.565560 145.070322 -104.524261 0
-152.552759 142.280535 -103.415086 0
-150.570905 139.473620 -102.282602 0
-148.525474 136.691077 -101.206482 0
-148.662140 23.733687 -17.273961 7
-143.452631 22.308368 -18.996613 7
-138.474108 20.755265 -20.510642 7
-133.606367 19.173875 -21.952057 7
-128.414420 17.979642 -23.853624 7
-123.762428 16.339987 -25.151302 7
-119.342733 14.529823 -26.208196 7
-116.908647 10.698989 -24.749326 7
-106.076655 15.827874 -34.263603 8
-101.864754 14.084348 -35.276668 8
-97.898807 12.115140 -36.001379 8
-94.038405 10.062535 -36.615633 8
-90.240873 7.968435 -37.172508 8
-86.575429 5.742934 -37.570058 8
-83.009652 3.414206 -37.846006 8
-79.546191 0.968826 -37.989299 8
-76.205512 -1.631218 -37.961643 8
-72.992112 -4.405947 -37.746315 8
-69.963168 -7.450510 -37.244303 8
-65.463394 -8.415418 -39.034117 9
-59.227975 -6.737183 -43.661348 9
-54.038527 -6.409686 -46.760347 9
-49.320654 -6.660840 -49.195097 9
-45.634166 -8.442872 -49.981840 9
-42.546243 -11.179848 -49.767711 9
-39.855747 -14.616586 -48.844739 9
-37.345605 -18.436740 -47.557065 9
-35.242673 -23.083007 -45.466233 9
-34.105390 -29.666383 -41.477974 9
-184.394899 146.307936 -84.168376 0
-176.103434 145.628653 -87.963788 0
-164.756451 146.326346 -94.431873 0
-157.378068 145.623171 -97.742460 0
-149.394246 145.315572 -101.681836 0
-147.389807 142.535858 -100.579990 0
-145.391567 139.749518 -99.474748 0
-143.424788 136.943813 -98.343023 0
-146.737346 26.467446 -13.122421 7
-141.228586 25.291020 -15.243144 7
-136.030301 23.929024 -17.063473 7
-130.971823 22.522807 -18.781046 7
-126.124382 20.995839 -20.300198 7
-121.377612 19.443958 -21.752015 7
-116.786783 17.805293 -23.060432 7
-110.076317 18.443390 -27.216773 8
-102.757712 19.915758 -32.327725 8
-98.563829 18.179529 -33.363980 8
-94.479412 16.372337 -34.293564 8
-90.498182 14.493038 -35.119038 8
-86.616324 12.537824 -35.839665 8
-82.781970 10.561485 -36.524265 8
-79.082780 8.450256 -37.040912 8
-75.455569 6.272348 -37.474556 8
-71.921062 3.993030 -37.788275 8
-68.482709 1.597523 -37.969355 8
-62.453914 2.824921 -42.243148 9
-57.373696 2.899193 -45.152133 9
-52.341871 3.043838 -48.090585 9
-47.955517 2.353766 -50.065519 9
-44.312232 0.599496 -50.855459 9
-41.097580 -1.810453 -50.933887 9
-38.003091 -4.425932 -50.801113 9
-35.023123 -7.256728 -50.453293 9
-32.105359 -10.231273 -49.971878 9
-29.347159 -13.539128 -49.164730 9
-26.767595 -17.247016 -47.972951 9
-24.452789 -21.557928 -46.201238 9
-22.740703 -27.199170 -43.132863 9
-178.881986 146.465998 -80.936800 0
-171.123560 145.631188 -84.454077 0
-159.450560 146.532155 -91.454788 0
-152.692942 145.619593 -94.380949 0
-144.318763 145.530984 -98.832386 0
-142.309543 142.766117 -97.747673 0
-140.344850 139.976747 -96.624144 0
-138.315593 137.212137 -95.559433 0
-145.423424 28.672841 -8.218973 7
-139.606101 27.737249 -10.753755 7
-134.133920 26.600121 -12.948987 7
-128.783800 25.449301 -15.071277 7
-125.674561 22.239644 -14.389455 7
-118.853187 22.683949 -18.551401 7
-114.716002 20.586142 -19.295847 8
-105.887737 23.411824 -26.390195 8
-101.120766 22.200800 -28.167110 8
-95.617474 21.880446 -31.033702 8
-91.423101 20.215559 -32.157248 8
-87.326777 18.492416 -33.186893 8
-83.337697 16.692521 -34.103516 8
-79.415305 14.856380 -34.960377 8
-75.588407 12.942439 -35.710000 8
-71.837228 10.967352 -36.376033 8
-68.180715 8.898782 -36.923519 8
-62.297244 9.881847 -41.021887 9
-56.978311 10.271305 -44.360410 9
-52.003252 10.326932 -47.258567 9
-47.615207 9.655162 -49.284235 9
-43.892024 8.069691 -50.254267 9
-40.529699 5.962411 -50.634377 9
-37.261731 3.714034 -50.860423 9
-34.069426 1.341452 -50.955716 9
-30.905940 -1.087820 -50.997330 9
-27.834583 -3.691493 -50.861562 9
-24.839005 -6.457072 -50.567164 9
-21.903447 -9.371028 -50.133330 9
-19.096189 -12.579905 -49.412248 9
-16.409684 -16.097578 -48.398174 9
-13.978030 -20.230606 -46.787047 9
-11.922522 -25.298494 -44.272863 9
-173.461917 146.598633 -77.703443 0
-166.132371 145.643161 -81.008278 0
-154.517404 146.595360 -88.224693 0
-147.954987 145.642682 -91.113877 0
-139.198001 145.777796 -96.096397 0
-137.256252 142.995899 -94.962661 0
-135.248770 140.238671 -93.889174 0
-133.280475 137.457455 -92.778734 0
-145.264340 29.887821 -1.842559 7
-138.815367 29.450183 -5.192441 7
-132.827789 28.735813 -8.069527 7
-127.156793 27.851212 -10.638840 7
-121.888559 26.694213 -12.772006 7
-116.700066 25.555725 -14.878573 7
-114.535421 21.456323 -12.971947 8
-103.389543 26.614452 -23.360805 8
-98.699684 25.323482 -25.077447 8
-94.218650 23.883778 -26.564092 8
-89.844519 22.394020 -27.955251 8
-84.445905 22.152753 -30.900573 8
-80.346278 20.503425 -32.019815 8
-76.349260 18.782491 -33.029346 8
-72.433804 17.007561 -33.954806 8
-68.493537 15.308366 -34.957093 9
-63.025528 15.676273 -38.430961 9
-57.492779 16.293954 -42.137388 9
-52.394270 16.478952 -45.264914 9
-47.895648 15.949588 -47.502154 9
-44.013791 14.613541 -48.768959 9
-40.528820 12.730876 -49.391920 9
-37.152857 10.701751 -49.843988 9
-33.807304 8.638073 -50.256301 9
-30.499248 6.523305 -50.612140 9
-27.288245 4.249148 -50.794323 9
-24.088019 1.951772 -50.956928 9
-20.948123 -0.462505 -50.999770 9
-17.892213 -3.050494 -50.865911 9
-14.842641 -5.679310 -50.701856 9
-11.905912 -8.567217 -50.279555 9
-9.051968 -11.678589 -49.643842 9
-6.321763 -15.124253 -48.686813 9
-3.740469 -18.994743 -47.325322 9
-1.478007 -23.724614 -45.130658 9
-168.178190 146.688003 -74.421963 0
-161.141260 145.661042 -77.616081 0
-149.603033 146.658011 -85.034373 0
-143.291019 145.639271 -87.827268 0
-134.224721 145.971672 -93.297276 0
-132.232938 143.224278 -92.219908 0
-130.247973 140.468542 -91.135351 0
-128.281070 137.697875 -90.031835 0
-147.966564 28.660399 8.253657 7
-139.616897 29.768772 2.482039 7
-132.611845 29.889929 -1.726612 7
-126.398893 29.448015 -5.030800 7
-120.591075 28.759453 -7.906991 7
-116.304579 26.702283 -8.815571 7
-107.016983 29.734252 -16.674855 8
-101.483488 29.201812 -19.524886 8
-96.655755 28.043403 -21.471165 8
-92.021327 26.762110 -23.210960 8
-87.488811 25.446227 -24.867450 8
-83.105968 24.034003 -26.363928 8
-78.795793 22.605007 -27.808242 8
-73.563656 22.365221 -30.733500 8
-69.565623 20.712956 -31.825933 8
-64.373241 20.647802 -34.871784 9
-58.950754 21.026102 -38.404450 9
-53.465570 21.652498 -42.171669 9
-48.625068 21.552367 -44.991814 9
-44.590551 20.423938 -46.533517 9
-40.959813 18.768018 -47.427031 9
-37.465428 16.942643 -48.110899 9
-34.036284 15.042070 -48.700994 9
-30.623581 13.136485 -49.281099 9
-27.273373 11.146773 -49.762130 9
-23.974383 9.082698 -50.158444 9
-20.696376 6.989225 -50.523111 9
-17.488843 4.771452 -50.752769 9
-14.305421 2.503437 -50.932768 9
-11.182224 0.108509 -50.981964 9
-8.106850 -2.402226 -50.916483 9
-5.076530 -5.035783 -50.732615 9
-2.108314 -7.842478 -50.381190 9
0.786915 -10.865551 -49.822267 9
3.588838 -14.175713 -48.988995 9
6.242125 -17.937311 -47.721015 9
8.683839 -22.357425 -45.820452 9
10.577377 -28.380619 -42.354175 9
-156.197300 145.666184 -74.232722 0
-144.939567 146.621156 -81.662724 0
-138.612231 145.647732 -84.598517 0
-129.323170 146.144807 -90.495558 0
-127.272685 143.436010 -89.484532 0
-125.294059 140.688561 -88.402250 0
-123.337346 137.923515 -87.295533 0
-134.964354 28.741253 8.131732 7
-127.052272 29.746884 2.556036 7
-120.296470 29.875678 -1.622035 7
-116.320760 27.457508 -2.081829 7
-105.360462 32.089090 -12.418761 8
-99.963382 31.391792 -15.124675 8
-94.972604 30.380868 -17.337111 8
-90.150396 29.284179 -19.382361 8
-85.482283 28.106232 -21.272726 8
-80.920693 26.890715 -23.071929 8
-76.493082 25.597955 -24.731531 8
-72.240863 24.167209 -26.177797 8
-65.722164 25.637055 -31.321148 9
-60.509566 25.656318 -34.515527 9
-55.329229 25.777243 -37.774573 9
-49.813964 26.502624 -41.722735 9
-45.519490 25.700607 -43.712482 9
-41.752020 24.230313 -44.851529 9
-38.154418 22.558560 -45.729640 9
-34.598115 20.861116 -46.565258 9
-31.123761 19.069343 -47.278910 9
-27.676444 17.261474 -47.966401 9
-24.262071 15.424091 -48.613438 9
-20.892532 13.531913 -49.192650 9
-17.583313 11.550218 -49.666964 9
-14.307912 9.517228 -50.083003 9
-11.064305 7.430086 -50.439753 9
-7.857167 5.272646 -50.721548 9
-4.711590 2.985419 -50.865816 9
-1.575001 0.663883 -50.980623 9
1.508069 -1.793402 -50.958204 9
4.549871 -4.374580 -50.815554 9
7.534110 -7.132114 -50.501151 9
10.446413 -10.121237 -49.962498 9
13.298110 -13.340499 -49.207851 9
16.041202 -16.942228 -48.087210 9
18.621697 -21.118739 -46.415352 9
20.832846 -26.524448 -43.547500 9
-151.280933 145.666638 -70.871976 0
-141.788161 145.929884 -76.860849 0
-133.962103 145.649558 -81.385022 0
-124.488861 146.298538 -87.689228 0
-122.355744 143.640023 -86.770806 0
-120.381885 140.901079 -85.690831 0
-118.403550 138.157252 -84.611951 0
-122.386017 28.743246 8.098136 7
-116.344482 28.219980 4.789670 7
-104.405575 33.743995 -7.123839 8
-98.880414 33.135137 -10.048735 8
-93.605720 32.385899 -12.706560 8
-88.631526 31.424416 -15.007445 8
-83.774085 30.433057 -17.214387 8
-79.062296 29.371381 -19.276340 8
-74.488668 28.237760 -21.196569 8
-67.706304 29.874085 -26.753661 9
-62.230319 30.119406 -30.365883 9
-57.034437 30.164418 -33.643072 9
-52.146523 29.948507 -36.518386 9
-47.089794 30.092216 -39.794581 9
-42.851520 29.238181 -41.750206 9
-39.152506 27.694769 -42.810600 9
-35.523086 26.094288 -43.783720 9
-31.932068 24.476730 -44.721578 9
-28.391610 22.818879 -45.597672 9
-24.885578 21.140848 -46.438436 9
-21.452052 19.374537 -47.164674 9
-18.054773 17.572076 -47.841450 9
-14.685271 15.743046 -48.481852 9
-11.341470 13.886688 -49.086561 9
-8.051508 11.944683 -49.590586 9
-4.809244 9.918594 -49.999064 9
-1.588432 7.851547 -50.363481 9
1.602281 5.719415 -50.658848 9
4.762487 3.512828 -50.877333 9
7.889607 1.216409 -51.004875 9
10.960497 -1.235538 -50.973713 9
14.008237 -3.781223 -50.854781 9
17.009777 -6.490897 -50.576713 9
19.960504 -9.397101 -50.110327 9
22.845036 -12.566670 -49.391914 9
25.677752 -15.991932 -48.436868 9
28.358455 -20.004631 -46.913707 9
30.784635 -25.002076 -44.436629 9
-146.386574 145.664973 -67.535873 0
-137.781188 145.600080 -72.863510 0
-129.379254 145.627040 -78.143831 0
-119.696072 146.444297 -84.898312 0
-117.443807 143.854920 -84.114530 0
-115.514267 141.104543 -82.994127 0
-113.527542 138.374915 -81.929031 0
-104.475449 34.383068 -0.250109 8
-98.399267 34.266793 -4.008533 8
-92.816149 33.785632 -7.151529 8
-87.496571 33.150876 -10.001236 8
-82.396942 32.392125 -12.609994 8
-77.527498 31.481533 -14.947997 8
-74.327958 28.701443 -14.666577 8
-64.618198 33.819497 -25.116807 9
-59.103905 34.143374 -28.901241 9
-53.796325 34.367158 -32.472701 9
-49.289633 33.689145 -34.784526 9
-45.316102 32.387955 -36.239465 9
-41.148163 31.424185 -38.101456 9
-37.027285 30.476080 -39.948514 9
-33.022381 29.438675 -41.649254 9
-29.388819 27.908143 -42.704572 9
-25.825552 26.311370 -43.661924 9
-22.279585 24.726004 -44.619745 9
-18.790941 23.083313 -45.495286 9
-15.351992 21.388580 -46.297815 9
-11.955225 19.647882 -47.037184 9
-8.578198 17.896056 -47.756704 9
-5.262876 16.049450 -48.360012 9
-1.953957 14.205868 -48.963771 9
1.314114 12.293068 -49.485921 9
4.553615 10.327850 -49.948292 9
7.742993 8.255292 -50.291494 9
10.935018 6.182239 -50.638061 9
14.075939 3.979787 -50.846569 9
17.183370 1.674729 -50.950583 9
20.286118 -0.672753 -51.018545 9
23.330421 -3.212103 -50.892043 9
26.352714 -5.867407 -50.657482 9
29.341202 -8.688494 -50.266032 9
32.264500 -11.792730 -49.600343 9
35.141437 -15.159733 -48.689518 9
37.916319 -19.010640 -47.314687 9
40.513690 -23.677315 -45.152682 9
-141.472038 145.679892 -64.264346 0
-132.931100 145.646707 -69.732334 0
-124.788109 145.614446 -74.946431 0
-114.965597 146.571863 -82.096503 0
-112.621004 144.039648 -81.424915 0
-110.651138 141.319259 -80.351213 0
-108.705998 138.577553 -79.244597 0
-98.995711 34.305309 3.780705 8
-92.726304 34.456070 -0.424095 8
-86.910344 34.288044 -4.063798 8
-81.501321 33.818063 -7.182954 8
-76.363476 33.168939 -9.974567 8
-67.783758 36.697025 -18.569086 9
-61.818808 37.412525 -23.065504 9
-56.110148 38.000307 -27.287694 9
-51.139121 37.822632 -30.378692 9
-46.793480 36.952721 -32.473997 9
-42.898684 35.560806 -33.832360 9
-39.119902 34.065669 -35.028688 9
-35.374545 32.574272 -36.207898 9
-31.376443 31.510865 -37.917771 9
-27.339093 30.584216 -39.771089 9
-23.379903 29.617437 -41.540677 9
-19.822024 28.074134 -42.559207 9
-16.300538 26.511326 -43.538834 9
-12.819135 24.918115 -44.467872 9
-9.374943 23.294168 -45.347910 9
-5.972507 21.625506 -46.164092 9
-2.605205 19.917960 -46.925702 9
0.746179 18.203529 -47.672504 9
4.035856 16.384813 -48.291780 9
7.306843 14.540357 -48.878422 9
10.547833 12.640282 -49.399652 9
13.759497 10.677938 -49.850273 9
16.961779 8.691959 -50.276164 9
20.114857 6.578947 -50.563461 9
23.258764 4.425236 -50.811709 9
26.368786 2.157802 -50.942749 9
29.453774 -0.214495 -50.969932 9
32.515149 -2.702521 -50.885001 9
35.569389 -5.272631 -50.727342 9
38.574953 -8.070233 -50.346397 9
41.551010 -11.064676 -49.780808 9
44.421018 -14.555616 -48.726301 9
47.050990 -19.117085 -46.608367 9
49.251938 -25.660055 -42.530960 9
-134.559603 146.594220 -63.140394 0
-128.220201 145.638711 -66.498282 0
-120.137253 145.637081 -71.847692 0
-110.319904 146.669350 -79.252672 0
-107.811000 144.231407 -78.777472 0
-105.885406 141.497361 -77.657324 0
-103.890829 138.790427 -76.607451 0
-94.275457 33.416913 9.033540 8
-87.332355 34.343727 3.602238 8
-81.352123 34.419650 -0.447463 8
-75.691857 34.296609 -4.111715 8
-65.432669 39.742207 -15.691583 9
-59.197514 40.788169 -20.759024 9
-53.481622 41.400191 -25.103413 9
-48.730162 40.958779 -27.888553 9
-44.604739 39.809566 -29.640974 9
-40.657211 38.494277 -31.131108 9
-36.825577 37.081117 -32.459666 9
-33.035720 35.665092 -33.758769 9
-29.352639 34.145750 -34.897624 9
-25.660282 32.689136 -36.098151 9
-21.769593 31.599032 -37.750825 9
-17.824510 30.671796 -39.582370 9
-13.925232 29.750059 -41.388979 9
-10.403037 28.250583 -42.442138 9
-6.932447 26.700397 -43.417606 9
-3.477323 25.159311 -44.391531 9
-0.100473 23.504141 -45.214837 9
3.273101 21.870646 -46.055676 9
6.610507 20.190552 -46.832708 9
9.902753 18.437049 -47.516619 9
13.179883 16.666762 -48.176720 9
16.434700 14.858965 -48.790182 9
19.659186 12.987852 -49.329224 9
22.855368 11.048865 -49.791250 9
26.027689 9.043304 -50.180367 9
29.185159 6.985430 -50.515005 9
32.321900 4.850035 -50.769343 9
35.430450 2.602959 -50.908728 9
38.535773 0.304633 -51.002374 9
41.611928 -2.137904 -50.952197 9
44.626032 -4.859400 -50.619192 9
47.478026 -8.262344 -49.586916 9
50.146618 -12.536460 -47.676496 9
52.577051 -18.044046 -44.536867 9
54.245290 -27.205754 -37.715845 9
-131.710156 145.706405 -57.779407 0
-123.494345 145.645555 -63.315912 0
-115.500612 145.661295 -68.769907 0
-107.851728 145.685973 -73.997479 0
-103.552885 144.151667 -75.554878 0
-102.432494 140.987409 -73.495584 3
-92.120733 29.705818 18.617515 8
-82.608318 33.470869 8.779631 8
-75.977067 34.336976 3.486582 8
-63.468424 42.331820 -12.160288 9
-56.876851 43.798612 -17.961611 9
-51.281810 44.264573 -22.192799 9
-46.655460 43.665249 -24.815471 9
-42.574901 42.456087 -26.523424 9
-38.591860 41.187711 -28.112467 9
-34.713531 39.840820 -29.560515 9
-30.853168 38.530396 -31.029063 9
-27.077543 37.156689 -32.383789 9
-23.375964 35.726856 -33.638355 9
-19.700060 34.309439 -34.886751 9
-16.097460 32.824290 -36.025160 9
-12.327628 31.670766 -37.573045 9
-8.452653 30.770357 -39.418173 9
-4.625215 29.868054 -41.229461 9
-1.128871 28.426574 -42.335380 9
2.296234 26.891014 -43.309274 9
5.697585 25.344268 -44.257293 9
9.048344 23.726451 -45.107850 9
12.376212 22.087153 -45.923965 9
15.678136 20.414654 -46.693130 9
18.966113 18.730786 -47.442955 9
22.201274 16.937382 -48.059587 9
25.427895 15.130795 -48.658960 9
28.644476 13.303325 -49.233203 9
31.832877 11.400297 -49.721302 9
34.990714 9.402751 -50.104772 9
38.142556 7.369569 -50.452762 9
41.277482 5.259567 -50.721191 9
44.355649 2.928321 -50.754420 9
47.320297 0.143959 -50.307503 9
50.136205 -3.294576 -49.177624 9
52.817887 -7.439058 -47.328696 9
55.393778 -12.293662 -44.776476 9
57.734193 -18.541690 -40.824863 9
59.502171 -27.983551 -33.642970 9
-126.966482 145.670272 -54.443038 0
-118.775380 145.657796 -60.160523 0
-110.897069 145.677961 -65.688582 0
-106.313617 144.195673 -67.548048 3
-99.601383 143.913809 -71.985841 3
-97.662418 141.181427 -70.860388 3
-79.612878 30.565910 17.085392 8
-61.949291 44.399239 -7.827340 9
-54.833493 46.473102 -14.679937 9
-49.345507 46.800312 -18.807099 9
-44.864492 46.007199 -21.211936 9
-40.680903 44.922695 -23.143786 9
-36.657585 43.702183 -24.839738 9
-32.678495 42.492238 -26.514135 9
-30.224842 39.138472 -25.173148 9
-24.978851 39.904437 -29.528835 9
-21.199167 38.599893 -30.977111 9
-17.490293 37.244355 -32.329281 9
-13.858469 35.819170 -33.564019 9
-10.247478 34.410117 -34.798606 9
-6.699085 32.942175 -35.935636 9
-3.023853 31.752133 -37.413765 9
0.771567 30.853912 -39.241036 9
4.515594 29.939615 -41.017547 9
7.999874 28.580865 -42.208082 9
11.390892 27.074643 -43.199051 9
14.754948 25.546041 -44.150555 9
18.071493 23.943189 -45.001046 9
21.367335 22.317890 -45.816374 9
24.647814 20.678043 -46.607452 9
27.897736 18.980565 -47.324462 9
31.131752 17.254694 -48.004236 9
34.333914 15.449993 -48.589737 9
37.519721 13.598532 -49.120960 9
40.700242 11.725285 -49.628357 9
43.837855 9.704946 -49.971611 9
46.868735 7.299569 -49.889562 9
49.778677 4.397406 -49.270531 9
52.574510 0.942453 -48.068250 9
55.298951 -2.990935 -46.380166 9
57.996147 -7.302569 -44.328246 9
60.593735 -12.378956 -41.510047 9
62.862032 -19.443221 -36.651546 9
64.931596 -28.243261 -30.073182 9
-122.129389 145.686098 -51.243032 0
-114.016665 145.698611 -57.084472 0
-109.259419 144.206568 -59.123276 3
-101.798575 144.205571 -64.482052 3
-94.857840 144.100016 -69.369658 3
-92.898046 141.386891 -68.267158 3
-61.070729 45.717360 -2.286068 9
-53.253021 48.588301 -10.538611 9
-47.809144 48.838013 -14.657052 9
-43.297828 48.061188 -17.153818 9
-39.002347 47.103840 -19.327606 9
-34.890528 45.987963 -21.221857 9
-30.829435 44.881410 -23.087635 9
-26.878840 43.694110 -24.798490 9
-22.972904 42.513139 -26.482444 9
-19.124903 41.314806 -28.107987 9
-15.415925 39.963771 -29.491319 9
-11.708990 38.667944 -30.923673 9
-8.083309 37.294075 -32.224525 9
-4.495691 35.907308 -33.485326 9
-0.946526 34.502471 -34.700988 9
2.562734 33.071821 -35.863271 9
6.150358 31.842395 -37.267908 9
9.863293 30.929475 -39.055751 9
13.542285 30.028195 -40.829399 9
17.016382 28.759832 -42.114277 9
20.365454 27.259733 -43.093338 9
23.686952 25.728544 -44.022908 9
26.969992 24.132727 -44.863986 9
30.246894 22.544861 -45.707210 9
33.507738 20.936696 -46.519195 9
36.732504 19.246532 -47.228179 9
39.943412 17.525877 -47.897975 9
43.122075 15.711175 -48.456249 9
46.221660 13.634399 -48.713007 9
49.195913 11.095617 -48.448889 9
52.066597 8.097463 -47.681752 9
54.866302 4.686221 -46.477848 9
57.680016 1.130657 -45.148192 9
60.456366 -2.812290 -43.429508 9
63.129840 -7.510622 -40.931859 9
65.737716 -12.934084 -37.709813 9
68.219470 -19.544384 -33.289432 9
-112.362660 144.203707 -50.295479 3
-104.671839 144.202833 -55.970128 3
-97.337888 144.194732 -61.373143 3
-90.310524 144.193233 -66.554747 3
-88.187115 141.577334 -65.654067 3
-63.309268 43.388352 9.111568 9
-52.232244 50.029000 -5.297127 9
-46.614935 50.450560 -9.800711 9
-41.972761 49.805196 -12.575534 9
-37.573116 48.954444 -14.976218 9
-33.285031 48.052333 -17.244965 9
-29.112486 47.083479 -19.364263 9
-25.089944 45.986576 -21.250639 9
-21.098099 44.924150 -23.145865 9
-17.233372 43.745726 -24.836379 9
-13.431929 42.538153 -26.451438 9
-9.684099 41.310803 -28.007039 9
-6.029911 39.989208 -29.403088 9
-2.366523 38.742931 -30.876065 9
1.197892 37.377396 -32.161798 9
4.717999 35.980616 -33.383970 9
8.215108 34.588196 -34.592040 9
11.676988 33.172447 -35.750721 9
15.190916 31.913855 -37.095605 9
18.837385 31.006396 -38.870251 9
22.463788 30.137060 -40.665225 9
25.913088 28.929488 -42.007374 9
29.228689 27.445458 -42.987139 9
32.515748 25.920184 -43.905318 9
35.787860 24.382386 -44.799190 9
39.020029 22.756304 -45.578294 9
42.248246 21.134098 -46.356718 9
45.415064 19.333828 -46.919059 9
48.446968 17.084018 -46.952711 9
51.376297 14.423563 -46.518169 9
54.237929 11.411229 -45.696747 9
57.086749 8.198249 -44.672607 9
59.949502 4.858439 -43.535582 9
62.800261 1.256241 -42.137294 9
65.273592 -4.349689 -38.548736 9
68.250289 -8.016745 -37.175646 9
71.359595 -11.279611 -36.282976 5
74.428275 -15.033641 -34.889379 5
77.387002 -19.832122 -32.415460 5
-107.680761 144.195578 -47.071183 3
-100.119804 144.188758 -52.793973 3
-92.849321 144.206448 -58.318089 3
-85.927604 144.205354 -63.557942 3
-83.492354 141.773246 -63.063033 3
-52.116956 50.380167 1.782453 9
-45.883874 51.488219 -3.953278 9
-40.987925 51.112790 -7.244336 9
-36.401529 50.463264 -10.035112 9
-31.932532 49.769749 -12.693092 9
-27.639135 48.940307 -15.085386 9
-23.474040 48.025302 -17.296369 9
-19.399161 47.068787 -19.397389 9
-15.460039 45.991065 -21.276893 9
-11.577273 44.903315 -23.102412 9
-7.791364 43.732934 -24.773045 9
-4.040242 42.574378 -26.427114 9
-0.357540 41.365074 -27.978600 9
3.243179 40.070675 -29.383931 9
6.823059 38.795612 -30.790464 9
10.351693 37.478127 -32.115359 9
12.854593 34.094353 -30.659275 9
17.261237 34.694859 -34.504214 9
20.684925 33.306182 -35.675234 9
24.125395 32.002864 -36.939938 9
27.718330 31.121319 -38.727619 9
31.273090 30.230714 -40.476096 9
34.699061 29.086519 -41.879263 9
37.989724 27.632024 -42.876823 9
41.247717 26.116390 -43.788303 9
44.463121 24.497704 -44.565368 9
47.556765 22.505982 -44.885365 9
50.558921 20.181719 -44.810191 9
53.455190 17.418592 -44.225072 9
56.352398 14.538988 -43.524284 9
59.242389 11.490122 -42.650073 9
62.107182 8.165760 -41.485082 9
64.899419 4.302498 -39.736330 9
67.749835 0.412510 -38.001620 5
70.943062 -2.058966 -37.906368 5
74.141919 -4.631647 -37.713666 5
77.326114 -7.452202 -37.264791 5
80.495092 -10.590951 -36.490303 5
83.638970 -14.209132 -35.224735 5
86.729530 -18.675391 -33.085699 5
-102.992640 144.199553 -43.875358 3
-95.533172 144.201195 -49.679737 3
-88.415097 144.196406 -55.209532 3
-81.613965 144.185527 -60.484271 3
-78.802553 141.981397 -60.506541 3
-76.805757 139.298399 -59.423812 3
-45.873443 51.631935 3.467246 9
-40.541392 51.730007 -0.704505 9
-35.597694 51.484124 -4.234049 9
-30.880219 51.074890 -7.425122 9
-26.428649 50.423434 -10.168961 9
-22.077233 49.741629 -12.803172 9
-17.888999 48.925816 -15.176455 9
-13.847338 47.982989 -17.308491 9
-9.857422 47.048400 -19.406426 9
-6.000915 45.981835 -21.268276 9
-2.186957 44.922195 -23.101800 9
1.533519 43.774730 -24.773736 9
5.205095 42.608694 -26.387135 9
8.824217 41.411335 -27.926592 9
12.368544 40.130558 -29.323130 9
15.891255 38.863739 -30.714413 9
19.361008 37.541245 -32.007100 9
22.795804 36.193394 -33.245154 9
26.192351 34.805970 -34.411880 9
29.566942 33.410508 -35.551163 9
32.960652 32.107664 -36.794817 9
36.486456 31.208263 -38.539407 9
39.994890 30.347567 -40.306953 9
43.386403 29.235469 -41.731785 9
46.555531 27.506398 -42.368059 9
49.605845 25.396013 -42.529841 9
52.547171 22.874429 -42.194461 9
55.464485 20.176599 -41.661309 9
58.388227 17.386766 -41.037689 9
61.318609 14.488771 -40.307482 9
64.221279 11.315024 -39.276659 9
67.103243 7.842474 -37.927208 9
70.217736 5.244556 -37.626858 5
73.446733 3.099392 -37.863794 5
76.670384 0.835391 -37.974337 5
79.900471 -1.508153 -38.006711 5
83.114649 -4.105578 -37.768991 5
86.335328 -6.870187 -37.364926 5
89.553048 -9.936280 -36.652362 5
92.770290 -13.392570 -35.543809 5
95.969990 -17.577762 -33.685772 5
-98.328692 144.200125 -40.666182 3
-90.993704 144.196850 -46.519426 3
-83.947807 144.212503 -52.157379 3
-77.259470 144.195926 -57.474520 3
-74.125705 142.197467 -57.972002 3
-72.159709 139.501254 -56.837227 3
-41.274481 50.834241 8.465442 9
-35.478278 51.596881 3.161172 9
-30.313885 51.712381 -0.986444 9
-25.505182 51.497285 -4.515687 9
-20.974160 51.024642 -7.561997 9
-16.619887 50.414152 -10.326232 9
-12.402699 49.707716 -12.882125 9
-8.360025 48.829084 -15.122775 9
-4.357963 47.979503 -17.357905 9
-0.459336 47.048157 -19.425543 9
3.307627 45.970440 -21.237789 9
7.055092 44.935344 -23.074943 9
10.704237 43.790591 -24.720193 9
14.319479 42.649245 -26.339158 9
17.883986 41.472554 -27.879184 9
21.358407 40.166525 -29.213620 9
24.845836 38.945618 -30.641824 9
28.270591 37.637942 -31.929265 9
31.665189 36.308904 -33.168086 9
35.013834 34.911400 -34.297826 9
38.355031 33.536549 -35.441613 9
41.693837 32.198570 -36.617948 9
45.149956 31.254605 -38.285467 9
48.403842 29.765024 -39.234082 9
50.644250 24.978699 -36.015501 9
54.409350 25.132149 -39.036872 9
57.374752 22.575813 -38.657698 9
60.358969 19.989102 -38.258011 9
63.286850 17.056611 -37.455985 9
66.291207 14.291574 -36.880805 9
69.307333 11.425755 -36.207124 5
72.558870 9.559713 -36.737945 5
75.805362 7.624562 -37.190144 5
79.047915 5.606147 -37.549949 5
82.293534 3.523441 -37.842177 5
85.533461 1.293078 -37.974256 5
88.779303 -1.045457 -37.995593 5
92.024926 -3.586277 -37.804482 5
95.282087 -6.296951 -37.443136 5
98.553934 -9.220402 -36.869574 5
101.835247 -12.537127 -35.893594 5
105.112427 -16.705353 -34.032117 5
-93.702021 144.189736 -37.420187 3
-86.457086 144.199169 -43.365980 3
-79.561855 144.189948 -49.002211 3
-72.913875 144.208478 -54.460351 3
-69.487702 142.405610 -55.419321 3
-67.514756 139.718444 -54.282675 3
-37.590776 48.748998 15.636122 9
-19.537980 66.339666 -17.123825 1
-25.272906 51.587511 2.846803 9
-20.272884 51.713615 -1.267040 9
-15.490056 51.685570 -5.042369 9
-9.024134 54.463283 -13.084356 4
-5.216729 53.279843 -14.867495 4
-1.845179 51.437013 -15.610429 4
1.734132 49.982406 -16.920085 4
4.969787 47.957840 -17.356292 9
8.781369 47.024678 -19.387342 9
12.499834 46.000511 -21.245103 9
16.167960 44.956947 -23.038505 9
19.766512 43.846763 -24.702889 9
23.318889 42.709010 -26.297726 9
26.813226 41.508999 -27.777300 9
30.265088 40.271935 -29.180357 9
33.696096 39.043089 -30.571488 9
37.073313 37.733859 -31.831747 9
40.420813 36.394978 -33.033370 9
43.736565 35.012721 -34.160351 9
47.036519 33.625015 -35.265092 9
50.209457 31.875495 -35.885578 9
53.289186 29.815016 -36.101681 9
56.285312 27.422538 -35.898650 9
59.297028 25.007694 -35.679881 9
