ply
format ascii 1.0
element vertex 1375
property float x
property float y
property float z
property int scalar_Label
end_header
-98.462159 -29.486630 25.830356 8
-102.650912 -27.552247 27.725973 8
106.671526 -35.143489 18.487220 5
103.211872 -36.234560 17.460137 5
100.048555 -36.598146 16.942956 5
96.936204 -36.893088 16.485813 5
93.837952 -37.224374 16.017109 5
90.790384 -37.474403 15.616360 5
87.813499 -37.563012 15.337357 5
84.818636 -37.779541 14.984121 5
81.870556 -37.899845 14.707999 5
78.918131 -38.104146 14.387184 5
75.989456 -38.288442 14.091718 5
73.106941 -38.352562 13.888787 5
70.222968 -38.485358 13.651153 5
67.348794 -38.642167 13.408803 5
64.513881 -38.679116 13.258184 5
60.606725 -44.340892 9.347754 9
57.460283 -46.565095 7.756146 9
54.379776 -48.747627 6.204758 9
51.395822 -50.681947 4.831428 9
48.495699 -52.392542 3.619217 9
46.327553 -49.085303 5.773793 9
43.066505 -53.932105 2.485628 9
40.461930 -54.044587 2.373627 9
37.880730 -54.006308 2.372346 9
35.300033 -54.004022 2.356914 9
32.722583 -54.011841 2.344608 9
30.149474 -54.011202 2.347813 9
27.580555 -53.990730 2.374113 9
25.012465 -53.994526 2.394028 9
22.447831 -53.960093 2.449324 9
19.881863 -53.997509 2.466413 9
17.318312 -53.987139 2.525279 9
14.754671 -54.003580 2.576048 9
12.190945 -53.988259 2.657922 9
9.560562 -50.008950 5.404782 9
7.058888 -53.935153 2.866398 9
4.490789 -53.944696 2.961339 9
1.918469 -53.914234 3.093080 9
-0.655585 -53.915956 3.213241 9
-3.231840 -53.936225 3.330983 9
-5.816521 -53.898719 3.497671 9
-8.402731 -53.903840 3.645856 9
-10.996346 -53.887166 3.818947 9
-13.595446 -53.876540 3.998265 9
-16.198156 -53.889744 4.171859 9
-18.813227 -53.861615 4.383830 9
-21.435797 -53.838070 4.603265 9
-24.065079 -53.826793 4.825036 9
-26.700410 -53.832777 5.045816 9
-29.350892 -53.806245 5.299515 9
-32.003140 -53.825171 5.533222 9
-34.678051 -53.783155 5.819509 9
-37.363154 -53.750358 6.110748 9
-40.064459 -53.701878 6.424092 9
-42.813584 -53.510626 6.846909 9
-45.703930 -52.826777 7.620299 9
-48.757408 -51.634952 8.757006 9
-52.148563 -49.366463 10.651763 9
-55.785618 -46.478185 12.993704 9
-59.647815 -43.117570 15.683972 9
-66.510645 -30.379442 24.909171 8
-70.043165 -29.001143 26.281807 8
-73.655185 -27.544078 27.728004 8
-77.632793 -25.192489 29.819132 8
98.925942 -22.539786 30.450664 5
95.396958 -23.744690 29.356359 5
91.913898 -24.952031 28.276032 5
88.001145 -27.824711 26.058607 5
84.247991 -30.419277 24.051145 5
81.109908 -30.956608 23.480776 5
77.989682 -31.530524 22.898431 5
74.882802 -32.161720 22.289726 5
71.851734 -32.580948 21.839918 5
68.811560 -33.143587 21.304007 5
65.836405 -33.508147 20.916762 5
61.224641 -42.422353 14.669907 9
57.967392 -45.067680 12.745249 9
54.811567 -47.521496 10.965277 9
51.716471 -49.992273 9.186430 9
48.778634 -51.829516 7.854105 9
46.001065 -52.851802 7.091694 9
43.298161 -53.515024 6.586168 9
40.672455 -53.688313 6.426757 9
38.071630 -53.710974 6.380888 9
35.480449 -53.686500 6.377633 9
32.889093 -53.708247 6.353064 9
30.304487 -53.692762 6.364273 9
27.722539 -53.678210 6.385126 9
25.141751 -53.684243 6.402159 9
22.563177 -53.686706 6.431897 9
19.986219 -53.682956 6.476149 9
17.410161 -53.670599 6.536564 9
14.834092 -53.663510 6.603649 9
12.257577 -53.650963 6.684769 9
9.679936 -53.636045 6.777833 9
7.100030 -53.600101 6.895677 9
4.517543 -53.567437 7.021665 9
1.935891 -53.616591 7.101856 9
-0.652569 -53.585041 7.247951 9
-3.245019 -53.557606 7.401742 9
-5.840861 -53.546793 7.554661 9
-8.442271 -53.529437 7.722712 9
-11.047319 -53.531593 7.887987 9
-13.668284 -53.446285 8.124450 9
-16.297754 -53.359707 8.372745 9
-18.930072 -53.317540 8.601322 9
-21.569149 -53.287557 8.832517 9
-24.219934 -53.240060 9.087024 9
-26.880861 -53.191191 9.353772 9
-29.552072 -53.143827 9.630873 9
-32.229196 -53.123468 9.900653 9
-34.927773 -53.053090 10.216974 9
-37.630758 -53.022167 10.517510 9
-40.346234 -52.992252 10.829221 9
-44.312266 -47.805427 14.776028 9
-46.058162 -51.977397 12.161116 9
-49.242122 -50.369767 13.623440 9
-52.817668 -47.528522 15.974696 9
-56.733947 -43.786815 18.984895 9
-61.148391 -38.728966 22.953896 9
-186.609153 137.279419 -152.979103 0
-188.615556 145.695041 -152.359769 0
-183.164432 144.263234 -153.210128 0
-180.291727 141.805425 -152.549745 0
-177.935284 139.138492 -151.593017 0
-176.008735 136.282852 -150.381792 0
-194.297143 145.300118 -144.649978 0
-184.985510 145.344081 -147.863944 0
-176.420248 145.239722 -150.734144 0
-174.575298 142.370181 -149.474217 0
-172.839742 139.445541 -148.150522 0
-171.092192 136.516825 -146.838590 0
-199.309449 145.248903 -137.172947 0
-189.734259 145.274817 -140.595409 0
-179.970754 145.551826 -144.264477 0
-171.514259 145.449082 -147.221783 0
-169.766134 142.543911 -145.911275 0
-167.972750 139.650253 -144.634557 0
-166.232025 136.723580 -143.326796 0
-194.508164 145.265693 -133.148560 0
-186.719448 144.605964 -135.583929 0
-175.649495 145.465698 -140.280565 0
-166.760702 145.591592 -143.677811 0
-164.993508 142.699677 -142.388785 0
-163.241644 139.791834 -141.092718 0
-161.462028 136.887126 -139.818584 0
-197.214811 146.140904 -126.892203 0
-197.305790 142.200626 -124.132922 0
-180.500187 145.246939 -132.708032 0
-170.989805 145.516358 -136.567940 0
-162.013545 145.729833 -140.192038 0
-160.251284 142.840588 -138.907820 0
-158.501051 139.936327 -137.617681 0
-156.745192 137.024331 -136.333471 0
-192.465517 146.090529 -122.811867 0
-184.513686 145.444651 -125.537016 0
-175.794918 145.261846 -128.901016 0
-166.502899 145.488547 -132.788442 0
-157.295844 145.854373 -136.746840 0
-155.543155 142.965336 -135.462850 0
-153.813607 140.055269 -134.163574 0
-152.011573 137.169043 -132.918549 0
-187.366409 146.176417 -119.026437 0
-179.646922 145.477433 -121.733758 0
-169.142636 146.109709 -126.544513 0
-162.010604 145.458464 -129.058440 0
-152.671297 145.936627 -133.292528 0
-150.884633 143.066919 -132.039118 0
-149.139042 140.167816 -130.756123 0
-147.368132 137.269738 -129.492569 0
-182.330943 146.235958 -115.259457 0
-174.936721 145.442060 -117.871901 0
-164.784734 145.980249 -122.629682 0
-157.524867 145.421629 -125.367993 0
-148.072478 146.006710 -129.872823 0
-146.275600 143.145240 -128.632275 0
-144.531733 140.248032 -127.351168 0
-142.811987 137.326663 -126.050236 0
-148.373674 -1.631113 -29.949462 7
-144.746119 -4.749608 -29.623545 7
-141.542527 -8.305235 -28.823017 7
-139.038672 -12.622863 -27.206259 7
-177.345496 146.274653 -111.515745 0
-170.135346 145.442929 -114.126551 0
-159.797420 146.123697 -119.231325 0
-153.003714 145.397800 -121.747786 0
-143.465891 146.080660 -126.511175 0
-141.675229 143.219771 -125.270146 0
-139.941492 140.320130 -123.983066 0
-138.212274 137.405311 -122.690351 0
-147.073577 7.106466 -29.147603 7
-142.735295 4.738544 -29.656622 7
-138.642838 2.160977 -29.916758 7
-134.730344 -0.576161 -29.993116 7
-131.082922 -3.576408 -29.775620 7
-127.763494 -6.928957 -29.174543 7
-124.935595 -10.842513 -27.972101 7
-123.316314 -16.174554 -25.251574 7
-108.769525 -13.689863 -34.049035 8
-104.894137 -16.286949 -34.264984 8
-103.665363 -22.193049 -31.012546 8
-172.354932 146.315884 -107.833269 0
-165.339734 145.440347 -110.427333 0
-154.993266 146.188251 -115.752101 0
-148.492841 145.367299 -118.162516 0
-138.920632 146.126543 -123.151251 0
-137.132787 143.266973 -121.910702 0
-135.374597 140.381348 -120.644270 0
-133.660934 137.459860 -119.337976 0
-147.485961 14.125809 -26.481072 7
-142.764086 12.115785 -27.435722 7
-138.198908 10.008878 -28.255835 7
-133.782918 7.802415 -28.943198 7
-129.507119 5.495474 -29.501551 7
-125.459568 2.985298 -29.817344 7
-121.562051 0.338799 -29.974805 7
-117.871815 -2.519526 -29.894261 7
-108.735969 0.807414 -36.723270 8
-104.094338 -0.776560 -37.996068 8
-100.597517 -3.661239 -37.826359 8
-97.320642 -6.817788 -37.371628 8
-94.297633 -10.310740 -36.571499 8
-91.699104 -14.386459 -35.174641 8
-90.033004 -19.761653 -32.444034 8
-88.384004 -25.296687 -29.606895 8
-167.401053 146.342664 -104.178100 0
-160.557628 145.431590 -106.766356 0
-151.595628 145.610983 -111.179321 0
-143.951837 145.349652 -114.643409 0
-134.450875 146.136871 -119.775468 0
-132.594617 143.313016 -118.593782 0
-130.876837 140.408395 -117.292643 0
-129.142632 137.497913 -116.001421 0
-144.254489 18.083390 -23.575459 7
-139.115105 16.482489 -25.058340 7
-134.315023 14.628018 -26.201202 7
-129.670734 12.680520 -27.208579 7
-125.197452 10.614170 -28.054708 7
-120.858993 8.455027 -28.775984 7
-116.887740 5.942986 -29.073761 7
-107.707844 9.209140 -36.035492 8
-103.151230 7.554081 -37.240381 8
-99.241219 5.209422 -37.645943 8
-95.476998 2.715875 -37.881881 8
-91.805214 0.125304 -38.011322 8
-88.324897 -2.695663 -37.891590 8
-84.987506 -5.703996 -37.577334 8
-81.908269 -9.067765 -36.893815 8
-79.148705 -12.899416 -35.732315 8
-76.996551 -17.637383 -33.643870 8
-75.422954 -23.313162 -30.622405 8
-60.982756 -18.114817 -41.777969 9
-57.941921 -21.560350 -41.065672 9
-54.168392 -23.887087 -41.505910 9
-50.819070 -26.897276 -41.267069 9
-46.717960 -28.667343 -42.272735 9
-43.357054 -31.679979 -42.054018 9
-39.343806 -33.558696 -42.955084 9
-162.486171 146.354118 -100.544535 0
-155.787399 145.417909 -103.142701 0
-145.694434 146.179949 -108.694164 0
-139.353905 145.359101 -111.214293 0
-129.947297 146.164474 -116.471013 0
-128.131605 143.322578 -115.256017 0
-126.366871 140.442659 -113.993303 0
-124.628431 137.534821 -112.702645 0
-147.193221 22.770239 -18.055065 7
-141.973862 21.154256 -19.604930 7
-136.909137 19.471220 -21.034684 7
-131.386105 18.307885 -23.079326 7
-126.199172 16.908403 -24.789195 7
-121.532172 15.062259 -25.919180 7
-116.974513 13.161654 -26.961045 7
-108.237110 15.810899 -33.411539 8
-103.319906 14.535383 -35.097681 8
-99.157684 12.488327 -35.850929 8
-95.060612 10.406650 -36.552762 8
-91.107060 8.191967 -37.092668 8
-87.256951 5.880557 -37.517242 8
-83.492079 3.485628 -37.845347 8
-79.869971 0.924694 -37.988719 8
-76.378788 -1.801505 -37.954170 8
-73.053168 -4.754633 -37.680222 8
-69.915717 -7.985683 -37.119302 8
-63.259239 -6.210097 -41.934409 9
-58.372260 -6.795418 -44.165641 9
-52.851675 -6.312572 -47.486085 9
-48.177323 -6.976251 -49.562133 9
-44.549457 -9.209804 -49.992418 9
-41.505838 -12.392082 -49.457046 9
-38.771014 -16.141120 -48.369569 9
-36.352294 -20.519750 -46.682820 9
-34.609801 -26.229458 -43.717152 9
-32.170008 -30.851248 -41.889097 9
-28.279369 -32.846789 -42.669407 9
-157.598578 146.355485 -96.938374 0
-151.024486 145.401913 -99.558065 0
-140.986927 146.204665 -105.281886 0
-134.750862 145.372478 -107.832870 0
-125.446669 146.192459 -113.206696 0
-123.635530 143.350273 -111.987522 0
-121.897692 140.457011 -110.697661 0
-120.133417 137.562899 -109.426088 0
-144.902331 25.861499 -14.065955 7
-139.376448 24.515883 -16.021391 7
-134.064033 23.063192 -17.792739 7
-128.990922 21.465580 -19.338647 7
-124.087908 19.776421 -20.734549 7
-118.858034 18.491434 -22.604396 7
-110.125055 20.960108 -29.067568 8
-104.307716 20.583424 -31.921414 8
-99.867537 18.822294 -33.044704 8
-95.597632 16.926077 -33.985819 8
-91.371429 15.027926 -34.908618 8
-87.306469 12.985220 -35.647181 8
-83.258258 10.960349 -36.396059 8
-79.351638 8.795951 -36.974845 8
-75.543833 6.533610 -37.436482 8
-71.843967 4.151346 -37.760277 8
-68.236659 1.658467 -37.961246 8
-61.751730 3.187261 -42.606792 9
-56.349767 3.392378 -45.723502 9
-51.066327 3.576466 -48.766443 9
-46.729838 2.477505 -50.383881 9
-43.060213 0.417146 -50.958270 9
-39.738338 -2.179342 -50.967132 9
-36.549876 -5.007023 -50.744908 9
-33.453953 -8.017861 -50.348268 9
-30.450210 -11.228200 -49.765935 9
-27.646459 -14.850552 -48.788046 9
-25.080698 -18.993279 -47.317169 9
-22.956788 -24.094307 -44.931187 9
-21.259677 -30.213250 -41.596901 9
-17.410793 -32.193714 -42.385814 9
-152.740504 146.345962 -93.354308 0
-146.256741 145.389857 -96.021292 0
-137.300132 145.740948 -101.000306 0
-130.203542 145.360468 -104.443112 0
-121.022694 146.183838 -109.913374 0
-119.199717 143.348630 -108.703025 0
-117.461433 140.455217 -107.408294 0
-115.689187 137.564674 -106.138614 0
-143.223780 28.404441 -9.342506 7
-137.417420 27.288859 -11.676721 7
-131.853431 26.053364 -13.796487 7
-126.485551 24.728136 -15.749243 7
-121.320064 23.295192 -17.518113 7
-115.770724 22.337672 -19.854629 8
-105.566554 26.344314 -28.412003 8
-100.847405 24.845188 -29.905937 8
-96.812811 22.666615 -30.529302 8
-92.400299 20.949425 -31.706163 8
-88.076278 19.188157 -32.807849 8
-83.842418 17.374312 -33.827132 8
-79.725923 15.467630 -34.719387 8
-75.705419 13.484702 -35.508562 8
-71.760275 11.443397 -36.219139 8
-67.895425 9.330107 -36.838398 8
-60.993003 11.371797 -42.188253 9
-56.001492 11.003799 -44.720319 9
-50.761657 11.113885 -47.745018 9
-46.369721 10.120512 -49.497540 9
-42.577067 8.301397 -50.319261 9
-39.099795 6.024969 -50.637324 9
-35.675273 3.671042 -50.875171 9
-32.323544 1.198208 -50.991498 9
-29.041452 -1.400087 -50.983369 9
-25.842293 -4.159626 -50.817409 9
-22.733475 -7.109507 -50.468443 9
-19.704928 -10.249341 -49.942544 9
-16.807502 -13.695204 -49.127113 9
-14.123314 -17.639446 -47.836801 9
-11.750660 -22.331643 -45.835900 9
-10.223578 -28.974807 -41.953358 9
-6.709025 -31.568082 -42.128933 9
-2.910057 -33.541814 -42.919016 9
-147.873537 146.343360 -89.823331 0
-141.494977 145.377443 -92.521554 0
-131.547896 146.275119 -98.615287 0
-125.620986 145.368186 -101.124096 0
-116.584619 146.184340 -106.669139 0
-114.769610 143.345769 -105.448250 0
-113.013483 140.461452 -104.164177 0
-111.261831 137.558395 -102.867543 0
-142.659274 29.959591 -3.219737 7
-136.270766 29.321317 -6.304262 7
-130.241777 28.481753 -9.041534 7
-124.606016 27.386285 -11.371249 7
-119.156930 26.213037 -13.543450 7
-108.897752 30.016593 -22.173044 8
-102.848972 29.800105 -25.414277 8
-98.078942 28.361499 -27.021884 8
-93.487974 26.803086 -28.444018 8
-88.999795 25.197439 -29.778131 8
-85.017226 23.071707 -30.441800 8
-80.786887 21.275003 -31.497694 8
-76.558148 19.527761 -32.595102 8
-72.415884 17.724950 -33.607227 8
-68.356804 15.863447 -34.533556 8
-60.290314 19.344412 -41.734960 9
-56.560805 17.271012 -42.325789 9
-51.213896 17.483580 -45.548815 9
-46.636115 16.745688 -47.629366 9
-42.730069 15.114270 -48.665557 9
-39.097722 13.113143 -49.275051 9
-35.540366 11.018348 -49.777004 9
-32.026411 8.870595 -50.219792 9
-28.569115 6.641455 -50.574695 9
-25.180646 4.301162 -50.812647 9
-21.846602 1.863406 -50.952124 9
-18.580426 -0.706565 -50.959664 9
-15.367681 -3.395331 -50.853592 9
-12.213264 -6.224663 -50.615030 9
-9.160894 -9.296170 -50.143623 9
-6.221679 -12.657239 -49.398043 9
-3.429991 -16.410384 -48.282803 9
-0.886210 -20.816581 -46.547215 9
1.118317 -26.607096 -43.482850 9
3.846639 -30.947786 -41.914871 9
7.607364 -32.922034 -42.697952 9
-143.061318 146.318782 -86.285651 0
-136.742961 145.363403 -89.053413 0
-128.821100 145.323574 -93.447490 0
-121.065589 145.365173 -97.817257 0
-112.202689 146.157806 -103.405127 0
-110.368223 143.329566 -102.198417 0
-108.592608 140.454898 -100.925992 0
-106.845060 137.547674 -99.616085 0
-144.373194 29.508006 5.852226 7
-136.453725 30.151823 0.819844 7
-129.600821 30.007577 -2.998383 7
-123.477112 29.326718 -5.989698 7
-117.901247 28.237614 -8.357002 7
-105.899079 33.751809 -19.507918 8
-100.611092 32.754873 -21.790553 8
-95.767739 31.387358 -23.537056 8
-91.019837 29.996768 -25.215645 8
-86.400087 28.540554 -26.774700 8
-81.882227 27.039909 -28.245578 8
-77.527333 25.415207 -29.531859 8
-73.519764 23.428246 -30.344317 8
-69.445577 21.564185 -31.294186 8
-61.847870 24.278237 -37.794384 9
-56.058245 24.900413 -41.649791 9
-52.233191 23.031105 -42.464422 9
-47.415165 22.586918 -44.949157 9
-43.302260 21.245755 -46.343263 9
-39.576817 19.395344 -47.127653 9
-35.899677 17.504557 -47.857555 9
-32.260345 15.584107 -48.547245 9
-28.685426 13.586313 -49.144878 9
-25.153714 11.537441 -49.682846 9
-21.687381 9.392952 -50.114321 9
-18.258638 7.191300 -50.484832 9
-14.888395 4.887403 -50.747906 9
-11.566250 2.489546 -50.915981 9
-8.293315 -0.014883 -50.978889 9
-5.070522 -2.639456 -50.925854 9
-1.917023 -5.436935 -50.705705 9
1.164999 -8.430511 -50.299703 9
4.156413 -11.683593 -49.648709 9
7.016263 -15.318047 -48.636544 9
9.692715 -19.498408 -47.108453 9
12.012224 -24.712515 -44.593579 9
14.232895 -30.415523 -41.656800 9
17.971058 -32.363897 -42.458973 9
-138.253017 146.295862 -82.783946 0
-132.024819 145.336282 -85.591136 0
-124.261535 145.271379 -90.006086 0
-116.557611 145.340706 -94.498532 0
-107.783670 146.153369 -100.208732 0
-105.978343 143.309233 -98.966863 0
-104.203517 140.432547 -97.684714 0
-102.439388 137.532335 -96.380976 0
-131.258727 29.405478 6.166568 7
-123.551732 30.124461 1.065423 7
-115.771626 31.126137 -4.305683 8
-103.967845 36.406237 -15.414570 8
-98.747648 35.321572 -17.646311 8
-93.711508 34.141295 -19.698666 8
-88.828587 32.886579 -21.606375 8
-84.088228 31.558892 -23.376809 8
-79.486790 30.152291 -25.007399 8
-74.951400 28.742674 -26.600660 8
-70.579408 27.207627 -28.003046 8
-66.291728 25.632052 -29.327823 8
-58.011785 29.253069 -37.088285 9
-52.154384 30.023235 -41.185873 9
-47.947288 28.737463 -42.700682 9
-44.338641 26.683698 -43.263948 9
-40.404509 25.122251 -44.408951 9
-36.622067 23.387258 -45.332123 9
-32.897140 21.604302 -46.187488 9
-29.235547 19.757562 -46.959244 9
-25.595560 17.906521 -47.718611 9
-22.021503 15.974713 -48.379592 9
-18.461660 14.041449 -49.034809 9
-14.976156 11.998000 -49.563753 9
-11.539231 9.879041 -50.008827 9
-8.140055 7.695956 -50.385387 9
-4.777773 5.442476 -50.689111 9
-1.466985 3.080597 -50.881784 9
1.808943 0.632544 -50.990690 9
5.019442 -1.977782 -50.938521 9
8.198243 -4.693346 -50.789850 9
11.296329 -7.639733 -50.417993 9
14.310473 -10.850834 -49.794916 9
17.265058 -14.296185 -48.959060 9
20.049383 -18.288775 -47.601764 9
22.578833 -23.120197 -45.446895 9
24.496240 -29.889081 -41.430345 9
28.207670 -31.831518 -42.231816 9
31.432684 -35.243159 -41.608932 9
-133.479101 146.260349 -79.286203 0
-127.293637 145.319334 -82.177169 0
-119.704123 145.220415 -86.592259 0
-112.027745 145.330889 -91.233188 0
-103.413833 146.125323 -96.992046 0
-101.578749 143.296867 -95.773164 0
-99.802908 140.419000 -94.481732 0
-98.039682 137.515493 -93.164851 0
-118.379531 29.381103 6.332575 7
-102.712974 38.382555 -10.352168 8
-97.297017 37.463835 -12.892091 8
-92.055688 36.471075 -15.270774 8
-86.994109 35.387396 -17.471513 8
-82.090052 34.225268 -19.517674 8
-77.317198 33.003868 -21.440481 8
-72.695958 31.689772 -23.200766 8
-68.215823 30.283868 -24.805558 8
-60.582778 32.894160 -31.537139 9
-54.492454 33.819782 -35.989042 9
-48.715399 34.531896 -40.083181 9
-44.023255 33.954350 -42.491355 9
-41.172025 30.909061 -41.813883 9
-37.709068 28.710039 -42.187172 9
-33.895507 27.044676 -43.202791 9
-30.087120 25.415375 -44.247263 9
-26.377801 23.675006 -45.146113 9
-22.696422 21.926243 -46.024495 9
-19.050552 20.153289 -46.865205 9
-15.479812 18.283195 -47.585995 9
-11.927606 16.405208 -48.292453 9
-8.435319 14.440439 -48.896551 9
-4.983438 12.415357 -49.431288 9
-1.550576 10.363990 -49.936809 9
1.840428 8.235586 -50.358835 9
5.165458 5.969861 -50.634772 9
8.474557 3.659378 -50.868812 9
11.735698 1.225919 -50.979300 9
14.964733 -1.308384 -50.993582 9
18.137860 -4.013523 -50.841633 9
21.261276 -6.894526 -50.523384 9
24.319090 -10.014235 -49.979408 9
27.310878 -13.403022 -49.185554 9
30.190837 -17.223684 -47.984983 9
32.883704 -21.752530 -46.113044 9
35.122316 -27.902682 -42.683500 9
38.325225 -31.333514 -42.003033 9
41.983364 -33.371490 -42.708050 9
-128.712604 146.225311 -75.815212 0
-122.393501 145.393122 -78.972399 0
-114.757351 145.377194 -83.614074 0
-107.271927 145.447564 -88.238138 0
-99.044185 146.100005 -93.801201 0
-97.215695 143.266600 -92.566191 0
-95.437545 140.387333 -91.264812 0
-93.664862 137.485777 -89.944047 0
-102.257325 39.564106 -4.082403 8
-96.403755 39.036528 -7.277269 8
-90.801601 38.378542 -10.212754 8
-85.525003 37.492441 -12.762901 8
-80.432764 36.511234 -15.123957 8
-75.470459 35.484345 -17.370019 8
-70.708415 34.319994 -19.382386 8
-66.030346 33.143220 -21.335354 8
-57.515924 36.849181 -29.661448 9
-51.265526 38.009883 -34.505148 9
-45.958672 38.138484 -37.922462 9
-41.614901 37.110011 -39.799351 9
-37.557018 35.765581 -41.243310 9
-33.670363 34.238722 -42.434601 9
-30.683630 31.426662 -42.020629 9
-27.482686 28.916131 -41.988651 9
-23.702684 27.310145 -43.057184 9
-19.977882 25.659624 -44.057695 9
-16.306338 23.961016 -44.988501 9
-12.668700 22.240733 -45.883171 9
-9.087458 20.454075 -46.691294 9
-5.537196 18.639097 -47.459706 9
-2.039714 16.749179 -48.136884 9
1.441290 14.846144 -48.795789 9
4.870000 12.853577 -49.351939 9
8.266549 10.802577 -49.843221 9
11.629427 8.681743 -50.259456 9
14.954218 6.471698 -50.582182 9
18.249593 4.181229 -50.824006 9
21.513718 1.795188 -50.971533 9
24.737913 -0.720951 -50.991372 9
27.926041 -3.373811 -50.880652 9
31.080174 -6.175533 -50.630913 9
34.170749 -9.230217 -50.139339 9
37.211704 -12.529753 -49.421403 9
40.168558 -16.214506 -48.341928 9
42.976755 -20.547849 -46.647368 9
45.281215 -26.833832 -43.059507 9
48.673148 -29.659188 -42.959788 9
-123.981513 146.177003 -72.339076 0
-117.583836 145.428132 -75.714948 0
-109.901392 145.496299 -80.589541 0
-102.512487 145.575362 -85.291248 0
-94.717942 146.053210 -90.586423 0
-92.869338 143.229252 -89.362574 0
-92.403727 139.553692 -86.553299 3
-103.028631 39.531519 4.098001 8
-96.290842 39.815810 -0.414966 8
-90.249174 39.550481 -4.029385 8
-84.563590 39.049990 -7.223719 8
-79.125184 38.409168 -10.146259 8
-75.959062 35.285757 -9.554904 8
-69.030851 36.584846 -15.048121 8
-61.249861 39.153711 -22.145211 9
-54.564134 40.659247 -27.660720 9
-48.404784 41.728690 -32.479663 9
-43.572510 41.255010 -35.169373 9
-39.392990 40.012166 -36.804415 9
-35.328516 38.680786 -38.294510 9
-31.339465 37.306632 -39.703012 9
-27.462484 35.827951 -40.955113 9
-23.566055 34.433784 -42.292074 9
-20.435498 31.886635 -42.182762 9
-17.421794 29.133955 -41.830032 9
-13.696383 27.550143 -42.906397 9
-10.019029 25.927262 -43.921659 9
-6.398617 24.242892 -44.851492 9
-2.814416 22.526799 -45.733895 9
0.743195 20.791785 -46.585663 9
4.236092 18.957978 -47.316032 9
7.710755 17.108072 -48.023466 9
11.157525 15.217695 -48.681538 9
14.562771 13.250338 -49.251215 9
17.948338 11.245280 -49.779118 9
21.273270 9.099312 -50.153355 9
24.597134 6.940792 -50.518665 9
27.886937 4.682213 -50.781305 9
31.143745 2.312590 -50.932888 9
34.374423 -0.164407 -50.980908 9
37.579900 -2.761210 -50.915703 9
40.747576 -5.532887 -50.683597 9
43.855056 -8.575022 -50.191074 9
46.748804 -12.434158 -48.886806 9
49.375759 -17.414061 -46.485404 9
51.545674 -24.376655 -42.151241 9
54.402702 -29.243704 -39.997479 9
-119.229178 146.144071 -68.914058 0
-112.620374 145.551894 -72.663425 0
-105.048976 145.623471 -77.605976 0
-97.786227 145.694386 -82.350389 0
-93.521081 144.191891 -83.809851 3
-89.826692 142.414680 -84.666337 3
-88.044469 139.507103 -83.318913 3
-98.167583 38.570855 9.614482 8
-90.817165 39.551907 3.998469 8
-84.348861 39.805113 -0.424819 8
-78.497133 39.554050 -4.018718 8
-72.967054 39.085288 -7.219422 8
-67.704109 38.437582 -10.095405 8
-58.851044 42.269178 -19.128258 9
-51.902950 44.105373 -25.221628 9
-46.106568 44.724059 -29.528941 9
-41.497438 43.959934 -31.886221 9
-37.310005 42.725163 -33.569345 9
-33.208825 41.443607 -35.157937 9
-29.188189 40.115636 -36.656020 9
-25.198207 38.807911 -38.152862 9
-21.265613 37.477889 -39.594794 9
-17.450726 36.024499 -40.856431 9
-13.631788 34.631998 -42.174017 9
-10.384507 32.330920 -42.346945 9
-7.529317 29.342436 -41.680708 9
-3.859092 27.772112 -42.754504 9
-0.242068 26.145794 -43.747428 9
3.347754 24.505146 -44.711891 9
6.899590 22.824621 -45.619125 9
10.407036 21.084246 -46.447970 9
13.880416 19.297178 -47.216364 9
17.314403 17.444120 -47.904435 9
20.729435 15.562399 -48.557274 9
24.122628 13.639681 -49.162524 9
27.470358 11.610378 -49.649035 9
30.800801 9.532333 -50.084391 9
34.110947 7.389543 -50.453051 9
37.389839 5.141211 -50.713230 9
40.652346 2.815303 -50.898437 9
43.862384 0.289367 -50.881147 9
46.925304 -2.769076 -50.317304 9
49.812250 -6.534984 -49.039730 9
52.471688 -11.296108 -46.770787 9
54.921323 -17.140444 -43.447771 9
57.810133 -21.704459 -41.500771 9
58.784219 -34.481993 -31.336537 9
-114.525470 146.091015 -65.462022 0
-107.683214 145.672428 -69.627946 0
-103.007350 144.194474 -71.431680 3
-95.902539 144.189749 -76.135762 3
-89.079182 144.182878 -80.652296 3
-85.469432 142.373834 -81.462224 3
-83.675089 139.468922 -80.110520 3
-85.980440 38.575475 9.480506 8
-78.906585 39.552477 3.917322 8
-72.656905 39.813855 -0.474492 8
-67.011635 39.546074 -4.003733 8
-56.763974 45.006306 -15.589677 9
-49.558947 47.154966 -22.264813 9
-44.168510 47.256465 -25.948721 9
-39.672447 46.333791 -28.145586 9
-35.407812 45.191571 -29.997949 9
-31.196785 44.055211 -31.820597 9
-27.140100 42.775419 -33.416385 9
-23.099286 41.541821 -35.042713 9
-19.157931 40.226487 -36.532470 9
-15.235031 38.946877 -38.041907 9
-11.378491 37.624504 -39.470755 9
-7.640897 36.162722 -40.699829 9
-3.884228 34.786113 -42.016629 9
-0.520595 32.754554 -42.502230 9
2.208105 29.545221 -41.540445 9
5.832501 27.997574 -42.622919 9
9.409998 26.398323 -43.630097 9
12.956199 24.771575 -44.593363 9
16.454801 23.076574 -45.466391 9
19.930665 21.358613 -46.305171 9
23.383888 19.612833 -47.105548 9
26.788792 17.771675 -47.791641 9
30.177427 15.901637 -48.442678 9
33.534926 13.958150 -49.009994 9
36.885499 11.995590 -49.557038 9
40.202143 9.932782 -49.995225 9
43.493688 7.780407 -50.339763 9
46.645059 5.167307 -50.191270 9
49.646777 1.995045 -49.457981 9
52.496624 -1.827603 -48.059277 9
55.241797 -6.231184 -46.087181 9
57.896628 -11.252887 -43.519104 9
61.035770 -14.703482 -42.640693 9
62.380537 -25.910385 -33.828174 9
-105.661868 144.196789 -63.217494 3
-98.354605 144.198867 -68.193559 3
-91.330772 144.205734 -72.981248 3
-84.621146 144.188160 -77.533531 3
-81.119150 142.331426 -78.262704 3
-79.325675 139.420381 -76.889069 3
-74.097723 38.549652 9.387193 8
-67.225944 39.592810 3.772162 8
-54.975710 47.381829 -11.515619 9
-47.719576 49.574863 -18.416918 9
-42.526571 49.408461 -21.811419 9
-38.051345 48.437543 -24.000637 9
-33.686959 47.410194 -26.064348 9
-29.381745 46.389426 -28.093868 9
-25.223509 45.244244 -29.912717 9
-21.122309 44.093297 -31.687837 9
-17.117787 42.870972 -33.333791 9
-13.162923 41.641531 -34.939838 9
-9.296949 40.336118 -36.417940 9
-5.459361 39.046559 -37.891083 9
-3.041758 35.325168 -36.231871 9
2.023905 36.313903 -40.570708 9
5.722271 34.952529 -41.885852 9
9.192214 33.202181 -42.699350 9
11.803234 29.746413 -41.409747 9
15.378616 28.207174 -42.483644 9
18.908353 26.609724 -43.474905 9
22.429995 25.029141 -44.475947 9
25.891691 23.343471 -45.342892 9
29.324661 21.613361 -46.151005 9
32.747253 19.877277 -46.947024 9
36.135347 18.068421 -47.655071 9
39.507248 16.225272 -48.321870 9
42.858398 14.327843 -48.926536 9
46.094344 12.082717 -49.143624 9
49.188802 9.355828 -48.835978 9
52.145387 6.087041 -47.952613 9
55.005799 2.338027 -46.576882 9
57.851697 -1.668610 -44.962535 9
60.658682 -6.067521 -42.973193 9
63.006733 -12.631411 -38.745733 9
63.344629 -28.427903 -24.936460 9
-100.938622 144.187692 -59.898461 3
-93.722787 144.197398 -64.952284 3
-86.804338 144.200800 -69.792168 3
-80.147356 144.208383 -74.452767 3
-76.792649 142.276644 -75.042896 3
-74.969377 139.378360 -73.684155 3
-53.729928 49.101980 -6.430912 9
-46.253939 51.529334 -13.856138 9
-41.104994 51.277602 -17.219620 9
-36.539615 50.396188 -19.602636 9
-32.049824 49.513851 -21.931745 9
-27.739394 48.479619 -23.997172 9
-23.509701 47.417689 -25.980746 9
-19.284982 46.434725 -28.032392 9
-15.196833 45.330601 -29.878192 9
-11.201309 44.159441 -31.598062 9
-7.277307 42.945517 -33.228815 9
-3.402039 41.719685 -34.814427 9
0.393831 40.423025 -36.279894 9
4.169016 39.151854 -37.753827 9
7.905312 37.871101 -39.191614 9
11.543140 36.459736 -40.441544 9
15.200169 35.138892 -41.786957 9
18.765420 33.682065 -42.944292 9
21.375574 30.185079 -41.578196 9
24.795746 28.412293 -42.346118 9
28.294676 26.844969 -43.355687 9
31.770319 25.255297 -44.328368 9
35.195510 23.568256 -45.176927 9
38.619702 21.900398 -46.041945 9
42.012904 20.168205 -46.826479 9
45.320693 18.202011 -47.338109 9
48.497433 15.827592 -47.386383 9
51.532537 12.949985 -46.877433 9
54.479284 9.670979 -45.941051 9
57.412781 6.192516 -44.813443 9
60.336034 2.494036 -43.477965 9
63.238577 -1.501667 -41.856999 9
65.479895 -8.504803 -37.036074 5
68.650160 -12.060331 -36.001654 5
71.738350 -16.233871 -34.346804 5
74.517262 -22.290232 -30.761249 5
-96.190107 144.199509 -56.630991 3
-89.087291 144.204239 -61.734344 3
-82.289621 144.194109 -66.603994 3
-75.714572 144.208659 -71.335831 3
-72.428286 142.248627 -71.878302 3
-70.621896 139.332646 -70.472705 3
-53.550227 49.535789 0.694737 9
-45.272021 52.882196 -8.327819 9
-40.016890 52.718784 -11.926164 9
-35.273438 52.029244 -14.668785 9
-30.659932 51.278875 -17.261068 9
-26.236412 50.371938 -19.571103 9
-21.852091 49.507643 -21.891876 9
-17.625462 48.507521 -23.972778 9
-13.490015 47.456716 -25.940510 9
-9.371155 46.465420 -27.950858 9
-5.371348 45.365786 -29.774517 9
-1.452700 44.207445 -31.484721 9
2.423953 43.049790 -33.164697 9
6.218502 41.815568 -34.713929 9
9.958947 40.546054 -36.190818 9
13.680051 39.302306 -37.677004 9
17.331348 37.980719 -39.040040 9
20.926212 36.597344 -40.304408 9
24.524925 35.274384 -41.626889 9
28.052063 33.843314 -42.796766 9
30.801696 30.608213 -41.731145 9
34.090827 28.605318 -42.196818 9
37.552660 27.044622 -43.196576 9
40.997501 25.470701 -44.170989 9
44.380761 23.753312 -44.966925 9
47.629265 21.654097 -45.310106 9
50.747207 19.128707 -45.162114 9
53.755323 16.179332 -44.539676 9
56.736504 13.022088 -43.703189 9
59.738874 9.796231 -42.816690 9
63.150424 7.958557 -43.514628 9
65.161795 0.509230 -37.982306 5
68.490155 -2.041487 -37.953747 5
71.792035 -4.813377 -37.698969 5
75.067204 -7.853507 -37.173849 5
78.308087 -11.258982 -36.282348 5
81.485317 -15.275517 -34.774249 5
84.503870 -20.618986 -31.913898 5
-91.467752 144.203338 -53.349470 3
-84.495490 144.191166 -58.475875 3
-77.778369 144.190571 -63.423686 3
-71.301292 144.201383 -68.203955 3
-68.112138 142.191839 -68.653498 3
-66.257190 139.300612 -67.286393 3
-44.822227 53.574318 -1.674286 9
-39.295226 53.689950 -5.819139 9
-34.358681 53.196236 -8.951409 9
-29.544253 52.667719 -11.959714 9
-24.892550 52.037802 -14.751083 9
-20.416128 51.272571 -17.284110 9
-16.076729 50.410852 -19.623694 9
-11.820497 49.521734 -21.874918 9
-7.695841 48.519935 -23.921304 9
-3.639170 47.495004 -25.894507 9
0.403459 46.532985 -27.915827 9
4.323301 45.442805 -29.724025 9
8.169186 44.296479 -31.423297 9
11.958542 43.117222 -33.048469 9
15.694054 41.902896 -34.599470 9
19.380929 40.656533 -36.082992 9
23.022571 39.378086 -37.501474 9
26.648528 38.125761 -38.931923 9
30.198213 36.759516 -40.196730 9
33.751151 35.452733 -41.519090 9
37.220518 33.992416 -42.632710 9
40.093884 31.017768 -41.866797 9
43.279222 28.798969 -42.047087 9
46.612074 26.971028 -42.705916 9
49.800970 24.717570 -42.852434 9
52.977286 22.385178 -42.912800 9
55.914678 19.215818 -41.998918 9
59.100243 16.762537 -41.947112 9
62.250287 14.107262 -41.674887 9
63.403521 3.647832 -32.497988 9
67.846315 5.598031 -37.558748 5
71.216110 3.354458 -37.833575 5
74.571754 0.978086 -37.969490 5
77.919132 -1.531895 -37.969934 5
81.248676 -4.257864 -37.749177 5
84.571203 -7.190483 -37.323901 5
87.864774 -10.519296 -36.496902 5
91.136369 -14.305439 -35.214623 5
94.311058 -19.240132 -32.761574 5
96.960494 -29.217090 -25.102914 5
-86.783793 144.191188 -50.031889 3
-79.864193 144.208101 -55.281064 3
-73.274422 144.187746 -60.242813 3
-66.875089 144.207159 -65.096812 3
-63.767723 142.155992 -65.466483 3
-61.899187 139.266169 -64.090018 3
-45.420979 52.964347 7.190194 9
-39.103324 53.981720 1.482002 9
-33.745930 53.962325 -2.497637 9
-28.697656 53.686610 -5.994562 9
-23.927495 53.166069 -9.043169 9
-19.261447 52.623858 -11.990625 9
-14.700354 52.050704 -14.827328 9
-10.367945 51.244987 -17.264673 9
-6.119505 50.410593 -19.609204 9
-1.954902 49.539844 -21.853575 9
2.087418 48.557782 -23.896122 9
6.040690 47.507263 -25.803392 9
10.017262 46.584555 -27.850419 9
13.865427 45.508326 -29.649982 9
17.638449 44.363019 -31.324075 9
21.364382 43.194698 -32.938519 9
25.047549 42.006095 -34.499207 9
28.674385 40.760669 -35.960409 9
32.267761 39.500916 -37.380606 9
35.829473 38.225767 -38.760100 9
39.358712 36.927601 -40.090858 9
42.813044 35.487821 -41.225540 9
46.126282 33.701027 -41.914326 9
49.319631 31.576518 -42.181930 9
52.358478 28.958080 -41.849893 9
55.375530 26.191645 -41.354590 9
58.421687 23.423619 -40.876819 9
61.461254 20.527557 -40.266452 9
63.377310 13.326988 -34.611039 9
66.971657 12.097405 -36.036117 5
70.376381 10.141558 -36.607988 5
73.772965 8.121589 -37.108690 5
77.159040 6.010182 -37.509695 5
80.536415 3.793873 -37.799104 5
83.907990 1.461624 -37.968192 5
87.268926 -1.046365 -37.954742 5
90.634840 -3.678315 -37.820913 5
93.988091 -6.596277 -37.394809 5
97.347337 -9.745935 -36.743273 5
100.685772 -13.440479 -35.539373 5
103.992666 -17.993555 -33.467377 5
106.836423 -28.603578 -25.110816 5
-82.084734 144.194497 -46.744111 3
-75.298382 144.190501 -52.005803 3
-68.749656 144.203728 -57.097258 3
-62.480503 144.196622 -61.949206 3
-59.421350 142.123940 -62.279342 3
-57.540722 139.233921 -60.889595 3
-40.107497 52.739214 11.417597 9
-38.082432 48.167956 14.423658 9
-28.369744 53.993088 1.210726 9
-23.186746 53.973301 -2.720248 9
-18.302937 53.683768 -6.151104 9
-13.481031 53.448383 -9.585642 9
-8.327331 53.881251 -13.936201 4
-4.435244 52.470024 -15.483913 4
-0.351098 51.444616 -17.559659 9
3.681599 50.420719 -19.594784 9
7.745794 49.542964 -21.796770 9
11.706953 48.572677 -23.825144 9
15.596629 47.555728 -25.749711 9
19.491368 46.635800 -27.772157 9
23.268103 45.563636 -29.550084 9
26.979018 44.429617 -31.213413 9
30.648429 43.276877 -32.823714 9
34.268218 42.080055 -34.349500 9
37.856974 40.875071 -35.840792 9
41.405183 39.632719 -37.261186 9
44.834163 38.134127 -38.332129 9
48.081443 36.165450 -38.792260 9
51.201638 33.815876 -38.772012 9
54.258285 31.221865 -38.455908 9
57.329525 28.596772 -38.116565 9
60.425281 25.968534 -37.789422 9
62.942007 21.171169 -34.848458 9
65.908349 17.730872 -33.603080 5
69.353144 16.013195 -34.441992 5
72.782840 14.235398 -35.206223 5
76.202264 12.403902 -35.905819 5
79.606036 10.477558 -36.495409 5
83.006550 8.496550 -37.024592 5
86.396769 6.404494 -37.431437 5
89.787433 4.235413 -37.758104 5
93.175738 1.945782 -37.958720 5
96.558043 -0.530909 -37.963658 5
99.951475 -3.119407 -37.861248 5
103.347029 -5.946236 -37.517502 5
106.699862 -9.580314 -36.326801 5
109.880954 -15.960919 -32.242339 5
-77.414340 144.186637 -43.422896 3
-70.702853 144.197156 -48.775309 3
-64.266313 144.197974 -53.895726 3
-58.079630 144.194343 -58.809574 3
-55.070614 142.097253 -59.092234 3
-53.186244 139.200327 -57.674455 3
-20.442712 71.502404 -14.856276 1
-15.216603 71.861914 -19.300783 1
-12.816796 68.406166 -17.646970 1
-13.412254 60.492351 -9.107440 4
-8.043780 61.224044 -14.031084 4
-4.231260 59.735124 -15.473141 4
-0.889170 57.542584 -15.826994 4
2.681101 55.740569 -16.753329 4
5.593743 52.828645 -16.030871 4
9.274089 51.252281 -17.265707 9
13.331882 50.430851 -19.561560 9
17.320846 49.580595 -21.770920 9
19.965013 46.119125 -20.262986 9
25.025694 47.619991 -25.701139 9
28.829533 46.670777 -27.655099 9
32.552766 45.630151 -29.449570 9
36.220118 44.540540 -31.147141 9
39.816454 43.353852 -32.686869 9
43.357061 42.092358 -34.103385 9
46.717770 40.406444 -34.942451 9
49.939508 38.347746 -35.288458 9
53.051900 35.946590 -35.195213 9
56.130767 33.385282 -34.908030 9
59.248965 30.876314 -34.700996 9
62.364841 28.283235 -34.401966 9
64.676502 22.659889 -30.368904 5
68.181168 21.198471 -31.522762 5
71.650837 19.631652 -32.537807 5
75.089527 17.952148 -33.409589 5
78.538907 16.327622 -34.342368 5
81.953837 14.539433 -35.076743 5
85.370362 12.740219 -35.797228 5
88.774458 10.841004 -36.401530 5
92.178874 8.892099 -36.951105 5
95.575305 6.816707 -37.360504 5
98.977630 4.677683 -37.704953 5
102.383229 2.425761 -37.931647 5
105.774115 -0.163458 -37.795593 5
109.081870 -4.011392 -36.294929 5
112.259610 -10.385335 -32.086898 5
115.217932 -22.246338 -22.049017 5
-72.718914 144.200778 -40.139852 3
-66.130212 144.194599 -45.511950 3
-59.769532 144.205940 -50.711736 3
-53.687380 144.189951 -55.652292 3
-50.730893 142.064649 -55.877780 3
-22.436839 99.789716 -35.068017 3
-20.284201 96.572899 -33.452092 3
-18.078891 93.362108 -31.880407 3
-15.900606 90.059939 -30.187666 3
-20.211597 78.366242 -14.557089 1
-14.982478 78.696583 -19.080517 1
-12.618741 75.284095 -17.407895 1
-11.073057 70.640414 -13.793430 1
-6.730948 69.937937 -16.517901 1
-3.075978 68.307781 -17.721720 1
-0.721174 64.684029 -15.803301 4
2.813897 62.883746 -16.724913 4
5.677328 59.985947 -15.960656 4
8.392318 56.780885 -14.752512 4
10.928202 53.178378 -12.981682 4
14.800848 51.984814 -14.787882 9
18.875869 51.264945 -17.246075 9
22.847483 50.449666 -19.518118 9
26.744242 49.582512 -21.672277 9
30.569103 48.658567 -23.705790 9
34.315249 47.650173 -25.584309 9
38.057784 46.721250 -27.539119 9
41.718126 45.681617 -29.308722 9
45.201549 44.264095 -30.537968 9
48.526972 42.462734 -31.235402 9
51.706827 40.253831 -31.385775 9
54.823864 37.822528 -31.248553 9
57.948553 35.355542 -31.075276 9
61.112116 32.949988 -30.992539 9
63.400519 27.395921 -26.906518 9
66.830781 25.658758 -27.726480 5
70.344434 24.258060 -28.961476 5
73.851672 22.877047 -30.207832 5
77.329995 21.414043 -31.340876 5
80.786053 19.878700 -32.375936 5
84.221094 18.256271 -33.298403 5
87.649376 16.600626 -34.176140 5
91.065992 14.868528 -34.959697 5
94.477687 13.078360 -35.673661 5
97.884496 11.207552 -36.294190 5
101.292784 9.275537 -36.846670 5
104.698368 7.215671 -37.257423 5
108.048157 4.413892 -36.836585 5
111.304492 0.048707 -34.686536 5
114.466707 -6.782426 -29.851815 5
117.909293 -11.130979 -27.851140 6
121.407136 -15.939755 -25.400534 6
-68.047023 144.206223 -36.821242 3
-61.550270 144.202080 -42.255169 3
-55.301596 144.198575 -47.477291 3
-49.292844 144.190613 -52.489372 3
-46.376262 142.044418 -52.671638 3
-32.530573 121.451160 -42.482449 3
-30.493500 118.416885 -40.959192 3
-28.423441 115.372829 -39.448008 3
-26.337138 112.301733 -37.916721 3
-24.228162 109.208551 -36.375825 3
-22.083593 106.106047 -34.849454 3
-19.952963 102.938401 -33.237470 3
-20.535958 96.560855 -25.976773 3
-17.963871 93.705702 -25.049888 3
-13.458681 93.217316 -28.223703 3
-11.123902 90.069579 -26.780452 3
-11.620836 83.109481 -18.949498 1
-9.398396 79.560772 -16.976357 1
-8.949715 73.411676 -10.773121 1
-4.663780 72.630232 -13.428997 1
-0.721608 71.436886 -15.359219 1
3.529916 70.810330 -18.142256 1
6.349238 67.966742 -17.383058 1
8.452344 63.867097 -14.691938 4
10.960180 60.337139 -12.934083 4
13.274903 56.355800 -10.530466 4
16.116299 53.233421 -9.468873 9
20.268307 52.614736 -12.148043 9
24.355156 51.988595 -14.761421 9
28.346838 51.284516 -17.209199 9
32.235605 50.469878 -19.450157 9
36.066065 49.628188 -21.610041 9
39.829179 48.728902 -23.648804 9
43.484692 47.657521 -25.410970 9
46.948044 46.161701 -26.557083 9
50.234042 44.216813 -27.072408 9
53.416367 41.966680 -27.170744 9
56.555002 39.545135 -27.044183 9
59.729948 37.180447 -27.002640 9
62.916093 34.795443 -26.942828 9
65.537829 30.319246 -24.171653 5
69.026086 28.817439 -25.294662 5
72.520814 27.377599 -26.484565 5
75.984170 25.844549 -27.543742 5
79.467338 24.430188 -28.741711 5
82.958012 23.095320 -30.026416 5
86.422235 21.672157 -31.189633 5
89.866059 20.167761 -32.243750 5
93.289477 18.554279 -33.158597 5
96.710398 16.918002 -34.041618 5
100.124976 15.216157 -34.843461 5
103.533925 13.425185 -35.539137 5
106.908611 11.223469 -35.757760 5
110.213202 8.013813 -34.824007 5
113.461600 3.438635 -32.360674 5
116.672632 -3.070957 -27.764990 5
120.300908 -3.815910 -29.737772 6
123.831687 -6.767741 -29.236235 6
127.390229 -10.254124 -28.170542 6
130.993566 -14.610505 -26.189614 6
-63.399517 144.201230 -33.458221 3
-56.986351 144.203606 -38.964794 3
-50.840822 144.189655 -44.218677 3
-44.890368 144.200243 -49.326151 3
-41.996126 142.044895 -49.489245 3
-40.067792 139.146722 -48.023439 3
-38.075440 136.268756 -46.628585 3
-36.124265 133.325262 -45.122615 3
-34.135006 130.379171 -43.640811 3
-32.120580 127.419413 -42.160176 3
-30.070799 124.454796 -40.698816 3
-30.121443 119.444694 -35.237668 3
-31.494572 112.956771 -27.050435 3
-32.939592 106.127057 -18.426319 3
-34.505591 98.881044 -9.242573 3
-28.861825 93.285893 -7.925043 3
-23.707980 93.167496 -12.134820 3
-18.658154 93.083858 -16.288871 3
-13.722047 93.018645 -20.361485 3
-8.725180 93.189824 -24.736920 3
-6.369608 90.029751 -23.258531 3
-5.844088 84.297787 -17.434377 1
-2.928273 81.719875 -17.048603 1
-0.939572 77.758896 -14.370514 1
1.892040 74.961970 -13.662874 1
5.062511 72.662624 -13.776189 1
8.871150 71.405295 -15.555946 1
11.023843 67.410042 -12.952498 1
13.288788 63.477187 -10.504415 4
14.722144 57.889137 -5.544123 4
17.146416 53.919793 -3.175153 9
21.491095 53.608655 -6.407141 9
25.710297 53.193858 -9.415643 9
29.769942 52.582647 -12.070637 9
33.792442 52.017273 -14.739644 9
37.682934 51.276431 -17.101059 9
41.481101 50.427318 -19.261570 9
45.134160 49.314705 -21.006818 9
48.565634 47.691275 -22.001374 9
51.844064 45.669484 -22.425277 9
55.021875 43.339901 -22.421214 9
58.215154 41.011743 -22.425284 9
61.442594 38.744761 -22.518705 9
63.398488 32.035090 -16.660350 9
67.664789 33.204120 -21.384970 5
71.189023 31.859876 -22.721688 5
74.686619 30.462078 -23.971667 5
78.159493 29.003262 -25.128189 5
81.632100 27.581193 -26.319293 5
85.082029 26.084923 -27.403991 5
88.540259 24.661995 -28.570758 5
92.002283 23.299321 -29.801500 5
95.457379 21.937501 -31.021755 5
98.883054 20.406625 -32.024964 5
102.305033 18.849826 -32.990510 5
105.709256 17.121610 -33.745592 5
109.041197 14.570188 -33.522696 5
112.302148 10.792768 -31.874886 5
115.540530 5.767794 -28.815946 5
119.061126 4.114467 -29.721385 6
122.562910 1.865059 -29.943019 6
126.081835 -0.569400 -29.966010 6
129.625972 -3.160729 -29.827910 6
133.201318 -6.036773 -29.391049 6
136.820623 -9.363552 -28.480472 6
140.506133 -13.366970 -26.861862 6
-58.766409 144.191239 -30.058718 3
-52.691164 144.019014 -35.215564 3
-47.391326 143.442947 -39.242276 3
-42.924613 142.368291 -41.984663 3
-39.998722 140.183100 -42.150797 3
-41.134443 134.732832 -35.165476 3
-42.686809 128.734202 -27.206055 3
-44.332894 122.420719 -18.811459 3
-24.142414 92.967570 -3.675395 3
-19.007357 92.883777 -8.002979 3
-14.000602 92.805467 -12.219411 3
-9.145043 92.695808 -16.264188 3
-3.952921 93.190886 -21.266417 3
-1.578118 90.014993 -19.745194 3
0.123076 85.817059 -16.497677 1
2.971992 83.171325 -15.961645 1
4.379817 78.297594 -11.693160 1
6.874351 74.950999 -10.055770 1
10.248496 72.967639 -10.689382 1
13.532137 70.850008 -11.088521 1
17.452192 69.867039 -13.295654 1
15.963616 59.028604 0.166929 4
17.812682 53.882624 4.409649 9
22.453263 54.057325 0.311745 9
26.816993 53.858005 -3.124554 9
31.072275 53.592895 -6.388636 9
35.181815 53.162067 -9.336585 9
39.177213 52.610832 -12.046179 9
43.090734 51.995639 -14.608318 9
46.683691 50.684969 -16.109760 9
50.080143 48.907185 -16.912228 9
53.350893 46.788968 -17.217978 9
56.596248 44.574206 -17.386473 9
59.836105 42.307784 -17.485028 9
63.096372 40.065226 -17.620663 9
66.098132 36.866341 -16.451164 5
69.702090 35.750526 -18.134960 5
73.263294 34.553350 -19.684482 5
76.803602 33.345482 -21.197979 5
80.301279 32.020315 -22.536545 5
83.777520 30.649129 -23.798549 5
87.234496 29.226685 -24.979825 5
90.686397 27.815277 -26.162806 5
94.118407 26.319345 -27.226723 5
97.554257 24.870397 -28.340520 5
101.001338 23.533870 -29.584715 5
104.436762 22.147353 -30.755870 5
107.806791 20.157857 -31.180635 5
111.099659 17.139832 -30.364418 5
114.337503 12.815780 -28.008333 5
117.777116 10.501028 -28.097275 6
121.261568 8.622374 -28.712327 6
124.756107 6.667280 -29.241308 6
128.263697 4.605901 -29.652474 6
131.788871 2.418096 -29.926367 6
135.337367 0.028841 -29.981845 6
138.916505 -2.511839 -29.881643 6
142.535728 -5.314070 -29.507413 6
146.209212 -8.471435 -28.763340 6
149.963628 -12.222822 -27.397510 6
-19.306685 92.751019 0.433284 3
-11.737339 95.745013 -9.649151 3
-6.846748 95.687923 -13.881934 3
-3.187471 94.160628 -15.344552 3
0.843861 93.201812 -17.776625 3
3.240314 90.011138 -16.213020 3
5.136993 86.014756 -13.281166 1
8.486800 84.113366 -14.014183 1
10.894687 80.742228 -12.230798 1
11.887651 74.951780 -6.427766 1
13.978438 70.764451 -3.414550 1
18.686500 71.079072 -7.846150 1
21.195439 67.528629 -5.913177 1
17.438229 51.804222 15.480585 9
22.743110 53.122723 9.399658 9
27.632227 53.877356 4.335581 9
32.133443 54.043960 0.292088 9
36.409658 53.905141 -3.197557 9
40.530483 53.576474 -6.326876 9
44.474313 52.969846 -8.975508 9
48.081785 51.621564 -10.470287 9
51.461793 49.713297 -11.114502 9
54.732037 47.493744 -11.296614 9
58.031858 45.333526 -11.564955 9
61.330425 43.141566 -11.787628 9
64.305598 39.818197 -10.414486 5
68.037276 39.037321 -12.627426 5
71.669464 38.010217 -14.462704 5
75.271055 36.961806 -16.239965 5
78.845106 35.894741 -17.964922 5
82.369240 34.694002 -19.484929 5
85.873161 33.471364 -20.955051 5
89.347043 32.161344 -22.290793 5
92.809871 30.846689 -23.604452 5
96.252403 29.459045 -24.808635 5
99.686123 28.050912 -25.974117 5
103.107953 26.582818 -27.052279 5
101.621820 -19.601053 28.145056 5
109.836219 22.488218 -27.737891 5
113.111304 19.059327 -26.381660 5
116.428265 15.441085 -24.830271 5
119.939172 14.306997 -26.333335 6
123.421437 12.655487 -27.200435 6
126.907400 10.879059 -27.916723 6
130.403835 9.059228 -28.582969 6
133.913022 7.129396 -29.123040 6
137.439836 5.090506 -29.541883 6
140.989105 2.939793 -29.840044 6
144.566895 0.643617 -29.982907 6
148.181310 -1.839856 -29.927854 6
-8.900716 99.394143 -8.425601 2
-5.157350 97.899636 -10.045797 2
-2.034853 95.643374 -10.207151 3
2.810996 95.763406 -14.692993 3
5.648741 93.197846 -14.219492 3
8.079741 90.008054 -12.640572 3
10.034968 86.017098 -9.686447 1
13.110720 83.676882 -9.665315 1
13.987448 77.690613 -3.384402 1
14.868735 71.415887 3.241365 1
19.439529 71.413497 -0.795700 1
23.134957 69.965197 -2.342187 1
20.018078 46.044010 28.722211 9
27.517999 51.891013 15.219832 9
32.608634 53.161046 9.263310 9
37.301893 53.832833 4.372766 9
41.680489 54.010032 0.352640 9
45.672368 53.429794 -2.422301 9
49.289173 52.002055 -3.855238 9
52.659683 49.948691 -4.321788 9
55.972336 47.717971 -4.518522 9
59.334377 45.609195 -4.894458 9
62.704347 43.505676 -5.274821 9
