ply
format ascii 1.0
element vertex 1364
property float x
property float y
property float z
property int scalar_Label
end_header
-189.615019 145.574410 48.750932 0
-186.807456 145.586939 48.081024 0
-183.924327 145.562999 47.382786 0
-181.023783 145.576965 46.687617 0
-178.044867 145.556681 45.963880 0
-175.029038 145.554342 45.233753 0
-171.966866 145.560408 44.492680 0
-168.862209 145.580931 43.742963 0
-166.526203 146.500146 43.387285 0
-163.273067 146.468437 42.585855 0
-159.989585 146.471210 41.783250 0
-156.690341 146.523878 40.986549 0
-152.322030 145.568951 39.693681 0
-148.811889 145.564989 38.828574 0
-145.230777 145.563254 37.944671 0
-142.609922 146.540360 37.519969 0
-137.796945 145.522933 36.095798 0
-134.150515 145.678813 35.226137 0
-130.252245 145.681226 34.257154 0
-126.268327 145.687188 33.265739 0
-120.463281 144.219572 31.485064 3
-116.212349 144.192046 30.415508 3
-111.860621 144.167584 29.319404 3
-107.459468 144.190984 28.219615 3
-102.932008 144.202853 27.083453 3
-98.237911 144.176904 25.894821 3
-93.474607 144.193056 24.696004 3
-88.561922 144.193975 23.453931 3
-83.527222 144.204908 22.181036 3
-78.316733 144.191971 20.856112 3
-72.988754 144.201939 19.504177 3
-67.449233 144.174889 18.088048 3
-61.676266 144.104104 16.600574 3
2.203946 106.518499 -7.913268 2
-240.298929 141.204063 61.893534 0
-240.304904 145.683722 62.938383 0
-238.446258 146.238476 62.656715 0
-235.934125 145.529254 61.935335 0
-233.744060 145.514400 61.445481 0
-231.563338 145.562446 60.971095 0
-229.321824 145.542644 60.466230 0
-227.073771 145.557771 59.966772 0
-224.792877 145.561229 59.456039 0
-222.497839 145.587113 58.946076 0
-220.100352 145.488826 58.383200 0
-217.751751 145.521957 57.860356 0
-215.344733 145.509113 57.312483 0
-212.923927 145.524227 56.766641 0
-210.476346 145.547414 56.215297 0
-207.967771 145.528964 55.639260 0
-205.883671 146.179343 55.311637 0
-198.434729 139.216151 52.018572 0
-200.275600 145.544345 53.881498 0
-197.611998 145.516308 53.262574 0
-195.648260 146.477871 53.028181 0
-192.448157 145.836376 52.143756 0
-190.163995 146.449648 51.753783 0
-187.477799 146.588985 51.162214 0
-184.585786 146.526038 50.475864 0
-181.650779 146.471150 49.779958 0
-178.159683 145.820545 48.819096 0
-175.685829 146.431484 48.377590 0
-172.191166 145.921830 47.444692 0
-168.954030 145.779776 46.652974 0
-165.796027 145.792003 45.912850 0
-162.851492 146.094969 45.286313 0
-159.465421 145.989390 44.463302 0
-156.658166 146.546538 43.922711 0
-153.265100 146.560891 43.121675 0
-148.739591 145.529494 41.819279 0
-145.214833 145.573331 40.990456 0
-142.456574 146.410745 40.517347 0
-137.794688 145.525946 39.210146 0
-134.117556 145.643818 38.356571 0
-130.267694 145.679601 37.442094 0
-126.305127 145.693577 36.494220 0
-122.242974 145.701529 35.519487 0
-116.303886 144.221688 33.767997 3
-111.959179 144.190787 32.713461 3
-107.554008 144.198595 31.651009 3
-102.998865 144.176322 30.544079 3
-98.368297 144.187187 29.424282 3
-93.616486 144.198814 28.273478 3
-88.734117 144.208601 27.088776 3
-83.684325 144.194531 25.856422 3
-78.519222 144.199650 24.598235 3
-73.218467 144.213588 23.306963 3
-67.734379 144.208596 21.964978 3
-62.089856 144.206394 20.582408 3
-3.023086 109.682870 -1.195815 2
4.133409 109.704293 -2.948458 2
-240.280612 137.038142 63.329328 0
-240.135908 141.357749 64.258858 0
-240.054085 145.633769 65.191219 0
-238.243691 146.278018 64.944332 0
-235.738851 145.576930 64.248347 0
-233.555511 145.566872 63.773972 0
-231.364044 145.586662 63.303469 0
-229.102129 145.522376 62.798110 0
-226.843275 145.511913 62.304316 0
-223.730326 144.065849 61.306747 0
-221.611341 144.417367 60.921271 0
-219.910837 145.494015 60.785923 0
-217.559875 145.516285 60.275203 0
-215.208482 145.584874 59.773542 0
-212.759719 145.548064 59.226317 0
-210.299726 145.544942 58.682966 0
-207.784080 145.509111 58.119129 0
-205.945447 146.508518 57.930251 0
-203.394608 146.504138 57.363396 0
-200.584674 146.190784 56.670607 0
-198.211846 146.538338 56.217853 0
-195.526571 146.507511 55.612142 0
-192.810082 146.490813 55.001449 0
-189.980166 146.384060 54.344776 0
-187.316983 146.546005 53.782530 0
-184.464472 146.524959 53.137126 0
-181.557391 146.496089 52.476649 0
-178.659242 146.536831 51.832062 0
-175.664259 146.522932 51.152734 0
-172.662278 146.561519 50.481958 0
-168.693734 145.587107 49.373880 0
-166.355622 146.486279 49.035688 0
-163.182688 146.523411 48.322340 0
-159.970399 146.582185 47.603474 0
-156.611945 146.554427 46.831656 0
-153.187150 146.527858 46.043742 0
-148.734606 145.559938 44.819658 0
-145.167466 145.552953 44.000875 0
-141.554937 145.574479 43.176467 0
-137.784076 145.521192 42.298618 0
-134.095841 145.619054 41.470387 0
-130.281092 145.676265 40.603158 0
-126.314433 145.676213 39.687540 0
-122.268953 145.687939 38.754864 0
-116.305594 144.176595 37.058082 3
-112.022725 144.185759 36.067211 3
-107.648858 144.206982 35.056365 3
-103.143043 144.211150 34.009916 3
-98.515191 144.210892 32.932742 3
-93.745271 144.195503 31.817904 3
-88.864666 144.193393 30.678548 3
-83.872680 144.207728 29.515108 3
-78.693720 144.188636 28.299559 3
-73.389243 144.185646 27.056427 3
-67.964906 144.206668 25.788599 3
-62.301892 144.176636 24.452726 3
-3.376957 109.693243 3.548411 2
3.765160 109.703527 1.869548 2
-239.915305 136.775861 65.593190 0
-239.792771 141.129272 66.488765 0
-239.541477 145.045076 67.264078 0
-238.161845 146.556207 67.293954 0
-235.481131 145.500260 66.507856 0
-233.325027 145.537030 66.061879 0
-231.151958 145.584823 65.613895 0
-228.896204 145.525079 65.125058 0
-226.687055 145.595855 64.672771 0
-223.543138 144.090349 63.690449 0
-221.261558 144.158599 63.220740 0
-219.761786 145.564328 63.196935 0
-217.430970 145.610774 62.710623 0
-214.982132 145.516154 62.168836 0
-212.554158 145.506222 61.648428 0
-210.069771 145.460177 61.107620 0
-208.283894 146.500749 60.942394 0
-205.774123 146.497287 60.403429 0
-203.229545 146.495060 59.856440 0
-200.624774 146.460440 59.288954 0
-198.001720 146.454272 58.722626 0
-194.644322 145.522158 57.804826 0
-191.940384 145.534907 57.223307 0
-189.200988 145.556268 56.635061 0
-186.358455 145.502852 56.008152 0
-183.568561 145.572343 55.417211 0
-180.696627 145.597411 54.798416 0
-177.745139 145.585666 54.153857 0
-174.751065 145.584099 53.501242 0
-171.687273 145.563577 52.828639 0
-168.595040 145.573228 52.155130 0
-165.460817 145.598823 51.474811 0
-162.193622 145.544840 50.748160 0
-158.990134 145.623710 50.061748 0
-155.535847 145.508266 49.279638 0
-152.155078 145.537763 48.542337 0
-148.695682 145.556776 47.784650 0
-145.134920 145.546687 46.997749 0
-141.529065 145.565118 46.205733 0
-138.701078 146.374774 45.745190 0
-134.050020 145.572462 44.553702 0
-130.243046 145.627311 43.721635 0
-126.334299 145.668220 42.863183 0
-122.295870 145.675399 41.968124 0
-116.391437 144.202172 40.359051 3
-112.116487 144.205902 39.408639 3
-107.738892 144.212006 38.434784 3
-103.230297 144.201830 37.427383 3
-98.618484 144.201708 36.397872 3
-93.890114 144.205064 35.341914 3
-89.020437 144.197658 34.251087 3
-84.009687 144.184755 33.126448 3
-78.885036 144.190575 31.978864 3
-73.594460 144.182700 30.790171 3
-68.165773 144.185887 29.571480 3
-62.559527 144.178491 28.309584 3
12.232475 99.334715 2.610830 2
-239.160393 140.293205 68.531647 0
-238.790055 143.969034 69.194153 0
-237.926173 146.524029 69.530446 0
-235.305205 145.580845 68.805526 0
-233.119500 145.552570 68.352513 0
-230.979984 145.655281 67.934664 0
-228.693799 145.532154 67.440988 0
-226.466277 145.563361 66.989688 0
-224.181819 145.540154 66.515262 0
-221.896275 145.562048 66.049073 0
-219.526095 145.489592 65.546058 0
-217.172281 145.493693 65.061135 0
-214.799067 145.514460 64.574970 0
-212.376131 145.505546 64.072049 0
-209.941118 145.527392 63.572185 0
-207.438413 145.497389 63.047411 0
-204.982097 145.585723 62.555206 0
-202.411289 145.558538 62.015704 0
-199.822646 145.558923 61.477383 0
-197.198213 145.562542 60.931668 0
-194.564428 145.606199 60.391345 0
-191.832890 145.573976 59.815020 0
-189.101761 145.597758 59.249255 0
-186.331794 145.626959 58.675840 0
-183.487539 145.619715 58.079077 0
-180.557503 145.566395 57.454645 0
-177.649262 145.598488 56.850996 0
-174.635262 145.565844 56.211780 0
-171.580315 145.547747 55.566193 0
-168.466077 145.525235 54.906634 0
-165.331786 145.543474 54.250214 0
-162.085457 145.504455 53.558308 0
-158.784343 145.473694 52.855813 0
-155.480173 145.506103 52.164380 0
-152.040611 145.467819 51.429845 0
-148.714333 145.609967 50.753853 0
-145.060092 145.499535 49.958449 0
-141.505391 145.557735 49.216333 0
-137.835873 145.579149 48.442007 0
-135.128220 146.545299 48.055000 0
-130.210184 145.583060 46.822808 0
-126.321181 145.631665 46.005009 0
-122.357965 145.693127 45.173185 0
-116.432187 144.190363 43.619494 3
-112.186419 144.206924 42.717283 3
-107.790140 144.186364 41.775026 3
-103.315516 144.191461 40.820228 3
-98.723492 144.194480 39.839164 3
-94.028450 144.210457 38.837778 3
-89.172316 144.199872 37.796003 3
-84.204993 144.204870 36.732599 3
-79.105176 144.213962 35.640760 3
-73.846500 144.213355 34.512151 3
-68.419530 144.202215 33.344552 3
-62.838351 144.195769 32.143865 3
-56.695423 143.934126 30.772763 3
-238.297992 138.978490 70.448436 0
-237.951643 142.719103 71.091103 0
-237.510843 146.132616 71.652497 0
-235.109568 145.620698 71.077878 0
-232.911110 145.560595 70.629117 0
-230.696543 145.517324 70.180027 0
-228.487450 145.530195 69.742362 0
-226.235078 145.510800 69.289625 0
-223.975359 145.524784 68.841427 0
-221.726515 145.602137 68.407087 0
-219.366049 145.538211 67.923347 0
-217.039476 145.578411 67.465775 0
-214.638251 145.546365 66.979257 0
-212.224047 145.543466 66.495321 0
-209.789038 145.557660 66.010112 0
-207.329405 145.583851 65.521896 0
-204.824735 145.593406 65.021159 0
-202.288230 145.607734 64.514589 0
-199.723638 145.633450 64.004179 0
-197.073759 145.593912 63.463965 0
-194.441862 145.632262 62.941704 0
-191.736324 145.626216 62.395898 0
-188.977601 145.606416 61.836432 0
-186.196844 145.614557 61.277425 0
-183.339367 145.583912 60.695285 0
-180.466101 145.591950 60.116868 0
-177.511080 145.560800 59.514207 0
-174.516689 145.543757 58.905870 0
-171.466112 145.523140 58.285126 0
-168.386267 145.531183 57.663460 0
-165.198303 145.482845 57.008953 0
-161.997136 145.484776 56.360807 0
-158.738668 145.490416 55.701353 0
-155.384434 145.462648 55.015832 0
-151.961152 145.432728 54.315501 0
-148.504550 145.438494 53.614676 0
-144.958278 145.426254 52.891866 0
-141.482193 145.550710 52.208437 0
-137.811023 145.561120 51.463638 0
-134.068647 145.579377 50.705397 0
-130.260994 145.613276 49.936357 0
-126.333824 145.617707 49.137057 0
-122.335616 145.638995 48.325983 0
-116.490550 144.193591 46.865076 3
-112.235662 144.191363 45.996392 3
-107.882415 144.194117 45.108104 3
-103.388309 144.171834 44.185944 3
-98.598663 144.010647 43.177167 3
-88.376525 139.843443 40.314809 3
-38.314232 106.470326 23.893734 3
-41.948249 113.473804 25.933382 3
-45.410292 120.182296 27.882685 3
-3.271657 95.061075 14.608379 3
1.972249 96.198025 13.743476 3
13.548691 93.209676 10.818334 3
-237.192624 137.162172 72.251840 0
-236.859078 140.956881 72.869177 0
-236.468647 144.497803 73.429830 0
-235.353409 146.509061 73.575622 0
-232.707425 145.575573 72.896709 0
-230.532838 145.599100 72.480636 0
-228.275863 145.517037 72.029573 0
-226.060437 145.556361 71.608226 0
-223.796304 145.555004 71.170050 0
-221.548404 145.626442 70.747968 0
-219.202450 145.579283 70.285525 0
-216.839391 145.553092 69.823422 0
-214.480977 145.582332 69.372051 0
-212.063546 145.566947 68.901137 0
-209.660558 145.622116 68.445560 0
-207.189966 145.623922 67.967206 0
-204.686441 145.627421 67.482659 0
-202.133959 145.611522 66.985033 0
-199.574436 145.637192 66.493376 0
-196.970293 145.652642 65.991119 0
-194.270193 145.592050 65.456512 0
-191.597534 145.622463 64.943410 0
-188.849813 145.609548 64.407865 0
-186.065730 145.606138 63.866845 0
-183.216884 145.578836 63.308855 0
-180.351475 145.588874 62.754209 0
-177.397625 145.551557 62.173792 0
-174.419165 145.545323 61.594030 0
-171.366965 145.514989 60.995506 0
-168.268464 145.494540 60.389624 0
-165.212461 145.582007 59.811170 0
-162.027783 145.591236 59.193586 0
-158.818136 145.637244 58.577589 0
-155.503270 145.638231 57.932953 0
-152.113579 145.629744 57.271935 0
-148.722393 145.686928 56.622222 0
-145.199115 145.682787 55.935717 0
-141.898041 145.958017 55.342200 0
-138.771371 146.454639 54.822013 0
-135.275917 146.669397 54.179581 0
-131.476978 146.679430 53.441379 0
-127.543623 146.647036 52.669283 0
-123.354706 146.474443 51.822252 0
-118.744643 146.034788 50.845395 0
-8.245994 58.848212 13.768803 4
-13.801150 68.519777 16.574952 1
-10.036938 70.589737 16.209613 1
-3.761677 70.764281 15.016787 1
3.070430 70.638709 13.661690 1
9.957041 70.608936 12.312787 1
42.615595 52.032909 2.634490 9
73.006287 35.976465 -6.153197 5
81.827572 35.734725 -7.918113 5
91.169510 35.315220 -9.816551 5
101.182779 34.637640 -11.892221 5
129.874016 21.993479 -19.742486 6
146.349906 17.865711 -23.693993 6
-235.538999 138.740476 74.563781 0
-235.025881 142.076754 75.032008 0
-234.596586 145.459025 75.523853 0
-232.992957 146.511009 75.401138 0
-230.280395 145.515404 74.723977 0
-228.061271 145.496865 74.304846 0
-225.856693 145.548981 73.900511 0
-223.646092 145.633114 73.500577 0
-221.376993 145.660419 73.080167 0
-219.071323 145.672112 72.650372 0
-216.706655 145.634685 72.201317 0
-214.337272 145.638182 71.758425 0
-211.937503 145.642078 71.310024 0
-209.510049 145.651995 70.857576 0
-207.074482 145.697999 70.409841 0
-204.533925 145.639705 69.924899 0
-201.988324 145.626425 69.446761 0
-199.422709 145.636407 68.968944 0
-196.807823 145.630319 68.479308 0
-194.143604 145.610821 67.978296 0
-191.450028 145.606504 67.474495 0
-188.716385 145.604656 66.963749 0
-185.958530 145.626796 66.452674 0
-183.152251 145.643786 65.931807 0
-180.290403 145.649305 65.398741 0
-177.401685 145.679743 64.865019 0
-174.450518 145.694692 64.317139 0
-171.973599 146.302905 63.958670 0
-169.138759 146.550660 63.472308 0
-166.122789 146.652586 62.927508 0
-163.005135 146.703762 62.355252 0
-159.680785 146.599929 61.718240 0
-156.243630 146.448494 61.052243 0
-152.483078 146.043867 60.283050 0
-145.593084 142.647929 58.422008 0
-137.229769 138.034592 56.079512 0
-37.392015 47.336451 22.048722 9
-32.092121 47.754839 21.133840 9
-26.716997 48.201624 20.210016 9
-21.142121 48.568520 19.235637 9
-15.502372 48.982022 18.257360 9
-9.724998 49.381664 17.251351 9
-4.171585 50.075520 16.337387 9
-1.780202 53.461108 16.470623 4
-0.491899 57.725568 16.959062 4
-8.262029 69.083305 20.341601 1
-4.246314 71.015164 19.925558 1
28.494937 51.276764 10.473513 9
35.547221 51.502134 9.202511 9
43.289238 51.362023 7.741242 9
72.064799 36.433909 -0.151841 5
80.568795 36.380297 -1.739251 5
89.353471 36.302735 -3.382575 5
98.629343 36.070694 -5.143187 5
109.352900 35.078789 -7.302092 5
130.415316 27.710074 -12.469699 6
143.034754 26.119505 -15.082117 6
-233.325925 139.158364 76.562347 0
-232.792592 142.395029 76.979585 0
-232.295258 145.591064 77.397237 0
-230.643401 146.561146 77.251288 0
-227.899134 145.569371 76.595036 0
-225.631022 145.501664 76.172644 0
-223.478744 145.680088 75.810785 0
-221.200396 145.684179 75.398619 0
-218.889151 145.679569 74.979432 0
-216.528481 145.641825 74.546342 0
-214.201857 145.705612 74.135942 0
-211.799267 145.697051 73.700593 0
-209.348496 145.664036 73.252970 0
-206.880258 145.654910 72.806350 0
-204.408654 145.690147 72.366558 0
-201.860209 145.664992 71.903597 0
-199.610205 146.103321 71.568928 0
-197.276283 146.460937 71.206575 0
-194.772358 146.630012 70.783778 0
-192.149921 146.690343 70.322597 0
-189.429893 146.676792 69.832388 0
-186.601080 146.581643 69.309914 0
-183.654407 146.400604 68.752866 0
-180.507544 146.042222 68.131799 0
-175.056932 143.049694 66.674819 0
-168.445182 138.896676 64.823639 0
-61.002831 21.228350 26.657521 9
-60.928755 26.984750 27.572966 9
-60.162028 31.867848 28.224490 9
-57.222408 34.353643 28.101951 9
-54.239331 36.800478 27.966004 9
-51.218556 39.217719 27.819189 9
-48.193707 41.642034 27.673428 9
-44.653902 43.572709 27.356756 9
-40.398134 44.846612 26.807007 9
-35.286619 45.372435 25.984549 9
-30.075242 45.896432 25.144710 9
-24.590255 46.264963 24.231727 9
-19.130787 46.757162 23.344026 9
-13.475402 47.177001 22.410502 9
-7.759615 47.648841 21.475415 9
-1.916369 48.117959 20.518002 9
4.125851 48.530445 19.516845 9
10.305050 48.944342 18.492393 9
16.652814 49.339717 17.435834 9
23.184200 49.711292 16.343668 9
34.383349 46.673619 13.870910 9
36.793061 50.414053 14.058527 9
45.008500 49.932392 12.531856 9
72.271556 36.077125 5.457685 5
80.408000 36.264104 4.056124 5
88.884665 36.375438 2.583070 5
97.691750 36.430225 1.043417 5
107.194916 36.201549 -0.664407 5
125.712951 30.400637 -4.872690 6
136.261347 30.017175 -6.787908 6
147.504918 29.418969 -8.859678 6
-230.682341 138.755390 78.367210 0
-229.976945 141.632394 78.670853 0
-229.339771 144.545609 78.992440 0
-226.500324 143.425054 78.326229 0
-225.650717 145.882665 78.543638 0
-223.810920 146.580393 78.325221 0
-221.629217 146.719675 77.964017 0
-219.283502 146.629353 77.540323 0
-216.984779 146.663624 77.144024 0
-214.660856 146.702923 76.744624 0
-212.275594 146.693018 76.327701 0
-209.773745 146.555642 75.871904 0
-207.183923 146.342454 75.389980 0
-204.468009 146.005076 74.868047 0
-199.835131 143.029903 73.617227 0
-194.481398 139.232150 72.118205 0
-97.513918 11.805335 36.126709 8
-93.783771 13.079712 35.675471 8
-89.949595 14.260100 35.193108 8
-86.076712 15.437258 34.704620 8
-82.136831 16.578303 34.200170 8
-78.063221 17.606122 33.656605 8
-73.957733 18.651652 33.111303 8
-69.731941 19.612556 32.533564 8
-65.434932 20.552780 31.941540 8
-60.827673 21.206702 31.253895 9
-60.401686 26.557945 31.998129 9
-58.168659 29.844758 32.119809 9
-55.286130 32.416220 32.022472 9
-52.449743 35.039164 31.941928 9
-49.475720 37.524007 31.817871 9
-46.334134 39.849950 31.642028 9
-42.560749 41.571825 31.267249 9
-37.787028 42.371797 30.582197 9
-32.705043 42.959272 29.813311 9
-27.340760 43.374167 28.971161 9
-22.080927 43.981209 28.177419 9
-16.663971 44.540591 27.350904 9
-11.103946 45.071385 26.496966 9
-5.404162 45.582309 25.617545 9
0.404058 46.105161 24.722876 9
6.494094 46.501458 23.762339 9
12.604617 46.993737 22.814464 9
18.864951 47.479327 21.841603 9
25.218712 48.007303 20.860896 9
31.830471 48.455836 19.825805 9
38.727855 48.814742 18.730160 9
49.759535 46.299719 16.495005 9
73.433227 35.041769 10.780123 5
81.446472 35.313655 9.488535 5
89.601522 35.641059 8.183418 5
98.132110 35.871961 6.801985 5
115.980847 30.174873 2.937737 6
124.467027 30.888061 1.642678 6
134.291830 30.919348 0.019067 6
149.727502 27.705780 -3.047391 6
-222.535206 136.701288 79.033057 0
-221.214281 138.475632 79.055790 0
-219.549624 139.629935 78.934686 0
-216.746840 138.878495 78.356057 0
-94.458034 -5.027251 37.658540 8
-92.757012 -0.757901 37.979648 8
-90.062439 2.090399 37.936188 8
-86.957998 4.375566 37.746464 8
-83.591375 6.323755 37.467009 8
-80.049596 8.066979 37.130965 8
-76.343024 9.631943 36.743852 8
-72.509427 11.077102 36.320234 8
-68.581356 12.450453 35.872329 8
-60.915183 9.486882 34.192361 9
-60.927199 15.564728 35.066742 9
-60.373858 20.870332 35.739353 9
-58.439966 24.546152 35.953838 9
-55.790470 27.406199 35.935739 9
-53.023225 30.133031 35.880753 9
-50.322039 32.926612 35.847621 9
-47.465048 35.557501 35.767164 9
-44.020296 37.603717 35.508286 9
-39.696090 38.814234 34.987405 9
-34.766522 39.503494 34.294524 9
-25.623139 36.299920 32.357000 9
-24.381622 40.644159 32.794031 9
-19.122042 41.289582 32.046309 9
-13.713749 41.893871 31.270290 9
-8.192624 42.494697 30.477291 9
-2.500319 43.046547 29.651334 9
3.361073 43.558374 28.794118 9
9.317432 44.097939 27.927507 9
15.310121 44.715511 27.068315 9
21.525869 45.263993 26.165123 9
27.892337 45.808386 25.239113 9
34.427015 46.340912 24.286410 9
41.234785 46.789901 23.279797 9
68.046233 32.824538 16.962428 5
75.677260 33.235544 15.823979 5
83.389438 33.732406 14.687531 5
91.392037 34.173888 13.499017 5
99.753571 34.524823 12.242454 5
109.144314 34.359950 10.748632 5
125.702001 29.789826 7.468240 6
134.902671 30.208864 6.096722 6
144.600314 30.496427 4.629730 6
-60.428355 -23.358111 34.406456 9
-59.257352 -18.027425 34.932137 9
-65.388217 -3.722199 37.807598 8
-60.885267 -2.842506 37.218520 9
-60.848048 3.441192 38.055880 9
-59.192074 7.684685 38.367937 9
-60.541930 15.316943 39.607281 9
-58.074796 18.455828 39.647887 9
-55.836101 21.826880 39.757301 9
-53.241197 24.784157 39.757325 9
-50.620825 27.703160 39.750122 9
-47.937378 30.547696 39.724956 9
-44.793496 32.917339 39.565977 9
-40.787678 34.438830 39.160429 9
-35.988626 35.230427 38.535089 9
-31.004780 35.922571 37.869757 9
-26.040264 36.717018 37.223441 9
-20.833879 37.369723 36.522683 9
-15.513560 38.008592 35.804692 9
-10.137922 38.690418 35.086295 9
-4.636608 39.355326 34.348560 9
0.908478 40.078399 33.614389 9
6.754846 40.644639 32.814940 9
12.680771 41.249776 32.011083 9
18.613823 41.954485 31.222281 9
24.816590 42.550389 30.379876 9
31.179053 43.133915 29.514013 9
37.713557 43.701616 28.622430 9
45.873184 43.180984 27.336381 9
71.302026 30.265154 21.719584 5
78.825691 30.783499 20.680989 5
86.323397 31.458432 19.671099 5
94.092368 32.083924 18.616475 5
102.222999 32.609428 17.496590 5
120.199188 26.836832 14.019961 6
128.770014 27.516070 12.862762 6
137.639576 28.165094 11.660003 6
146.842610 28.772916 10.405101 6
-57.408380 -20.057736 39.323863 9
-60.728154 -9.231851 41.171233 9
-62.254781 -0.912918 42.439441 9
-61.125884 4.010816 42.888292 9
-59.533343 8.300867 43.190907 9
-57.634762 12.174165 43.397964 9
-55.563763 15.804907 43.551218 9
-53.276323 19.158500 43.639760 9
-50.793838 22.274298 43.671723 9
-47.830420 24.863143 43.568275 9
-44.177381 26.739140 43.275101 9
-39.694878 27.802196 42.758973 9
-34.936088 28.654961 42.177961 9
-30.098148 29.505996 41.587634 9
-25.719812 30.876982 41.133543 9
-21.568284 32.521384 40.750115 9
-16.464690 33.335501 40.123936 9
-11.244956 34.128639 39.480808 9
-5.921384 34.916654 38.824629 9
-0.383979 35.607755 38.127682 9
5.229778 36.329146 37.426394 9
10.875287 37.120657 36.732435 9
16.719283 37.845471 36.004087 9
22.790911 38.488459 35.235288 9
28.912297 39.199560 34.471222 9
35.149776 39.928308 33.695873 9
41.808666 40.447168 32.835897 9
68.676986 26.073371 27.141745 5
75.652946 26.906296 26.285749 5
82.961657 27.624902 25.370857 5
90.444656 28.352943 24.436044 5
98.158240 29.057832 23.469156 5
106.136427 29.724992 22.463598 5
125.581908 23.019205 18.864834 6
133.859447 23.942090 17.859798 6
142.436350 24.825001 16.811419 6
151.362916 25.647546 15.710098 6
-53.655285 -17.728552 43.989936 9
-55.863993 -8.432461 45.383942 9
-55.804630 -2.102137 46.113523 9
-54.893959 3.088757 46.592387 9
-53.477853 7.601195 46.923271 9
-51.671091 11.602480 47.141932 9
-49.449054 15.094462 47.245099 9
-46.653853 17.935716 47.193951 9
-43.034313 19.897864 46.926382 9
-38.617449 21.060900 46.455708 9
-34.022232 22.104333 45.948904 9
-29.359812 23.149061 45.435865 9
-24.556228 24.125460 44.898092 9
-19.733114 25.157585 44.367307 9
-14.729677 26.093770 43.803204 9
-9.658450 27.046973 43.234925 9
-4.458957 27.964845 42.647929 9
0.882863 28.840525 42.039543 9
6.292217 29.745462 41.428724 9
10.880248 31.441996 41.029256 9
15.880703 32.853230 40.542217 9
21.700462 33.664628 39.874164 9
27.634780 34.483112 39.194938 9
33.757366 35.254608 38.488056 9
40.053173 35.998287 37.758022 9
68.105972 20.347297 32.087332 5
74.682593 21.432951 31.371006 5
81.436751 22.500340 30.632656 5
88.442225 23.503403 29.856850 5
95.985276 24.251740 28.981931 5
103.400622 25.222560 28.156063 5
124.218683 17.339428 24.450715 6
132.370554 18.272987 23.532825 6
141.052646 19.010812 22.525110 6
149.838036 19.841453 21.520406 6
-47.999287 -11.168508 48.852736 9
-48.704164 -3.929361 49.731463 9
-47.763220 1.247753 50.169801 9
-45.905306 5.298832 50.366671 9
-43.012220 8.157638 50.299110 9
-39.165423 9.981099 49.995121 9
-35.134014 11.645445 49.652606 9
-30.888315 13.131077 49.265543 9
-26.539186 14.563634 48.862434 9
-22.090648 15.952731 48.444925 9
-17.453269 17.215822 47.992221 9
-12.709463 18.442234 47.525088 9
-7.884369 19.660803 47.050086 9
-2.918118 20.819730 46.553723 9
2.205055 21.911406 46.033194 9
7.442891 22.980743 45.499099 9
12.793811 24.034017 44.952440 9
18.284506 25.053085 44.387836 9
23.884228 26.069626 43.812923 9
29.659286 27.033340 43.213616 9
35.532278 28.013947 42.607849 9
41.597324 28.940520 41.975666 9
71.539230 11.478152 36.215086 5
77.499549 13.056511 35.681895 5
83.728423 14.526466 35.106917 5
90.206597 15.913224 34.495651 5
96.934305 17.226655 33.849382 5
103.859762 18.512781 33.180109 5
128.352053 7.879574 28.937260 6
135.123858 9.747695 28.367191 6
142.314901 11.445970 27.730482 6
149.885944 13.016109 27.037142 6
-18.948115 -5.380670 50.700585 9
-17.399980 -0.779010 50.986915 9
-14.368782 2.249199 50.933064 9
-10.783853 4.723070 50.758105 9
-6.882413 6.908204 50.518565 9
-2.691411 8.848864 50.222380 9
1.754438 10.593971 49.878936 9
6.404649 12.203940 49.500740 9
11.175951 13.764854 49.106953 9
16.189858 15.174419 48.672279 9
21.308147 16.565140 48.227389 9
26.608614 17.874978 47.756507 9
32.063654 19.135364 47.266377 9
37.668132 20.357202 46.758889 9
43.577508 21.421387 46.203014 9
92.555685 -4.952859 37.663792 5
94.600784 -0.094788 37.988783 5
98.864329 3.079983 37.876398 5
104.120982 5.566439 37.578329 5
25.929130 -5.848151 50.654802 9
27.396985 -0.959637 50.984402 9
30.757613 2.187861 50.936838 9
34.815381 4.737714 50.757734 9
39.296235 6.960558 50.504313 9
44.559729 8.575993 50.109236 9
38.946844 0.663010 -50.984959 9
35.579205 -1.282747 -50.982147 9
32.369163 -2.409195 -50.924681 9
29.187198 -3.544041 -50.874173 9
26.075313 -4.326010 -50.802960 9
22.990366 -5.055434 -50.733564 9
19.930451 -5.730387 -50.665696 9
16.894769 -6.335737 -50.598055 9
13.883859 -6.832308 -50.527452 9
10.887135 -7.319749 -50.461505 9
7.908939 -7.712199 -50.393416 9
4.938751 -8.154076 -50.334426 9
1.982065 -8.532560 -50.275614 9
-0.964695 -8.887360 -50.220038 9
-3.901206 -9.149049 -50.162116 9
-6.831572 -9.393667 -50.107817 9
-9.756934 -9.673141 -50.061261 9
-12.677429 -9.894450 -50.014978 9
-15.594718 -10.088624 -49.971407 9
-18.510131 -10.253678 -49.930355 9
-21.421328 -10.493873 -49.900217 9
-24.334329 -10.638074 -49.867161 9
-27.248369 -10.760189 -49.837128 9
-30.162723 -10.889373 -49.812472 9
-33.079784 -10.997191 -49.790878 9
-35.993757 -11.167022 -49.779125 9
-38.924391 -11.171764 -49.758731 9
-41.847795 -11.296834 -49.752930 9
-44.869562 -10.571135 -49.682573 9
-48.164289 -7.763512 -49.447218 9
49.943560 -7.932390 -48.752635 9
46.019282 -12.655862 -48.990464 9
42.760386 -14.187745 -48.967361 9
39.730629 -14.579639 -48.853485 9
36.719982 -14.954459 -48.743469 9
33.729195 -15.299734 -48.636150 9
30.750806 -15.659372 -48.535233 9
27.793664 -15.962878 -48.434536 9
24.852263 -16.238429 -48.336400 9
21.920838 -16.526747 -48.244321 9
19.005022 -16.769017 -48.153073 9
16.098018 -17.020698 -48.067476 9
13.206538 -17.194080 -47.979692 9
10.316940 -17.444785 -47.903507 9
7.438546 -17.646504 -47.827634 9
4.566874 -17.849800 -47.756543 9
1.702552 -18.028180 -47.687812 9
-1.156490 -18.208628 -47.623836 9
-4.010854 -18.398367 -47.565243 9
-6.860151 -18.547989 -47.507522 9
-9.706120 -18.688081 -47.453412 9
-12.549737 -18.786235 -47.399925 9
-15.391493 -18.917599 -47.353906 9
-18.232288 -19.029162 -47.310493 9
-21.073633 -19.108027 -47.268478 9
-23.914307 -19.213630 -47.233312 9
-26.755855 -19.312459 -47.201907 9
-29.601030 -19.372192 -47.171271 9
-32.448054 -19.439152 -47.145672 9
-35.300646 -19.472063 -47.121290 9
-38.157372 -19.502452 -47.101041 9
-41.020105 -19.517668 -47.083758 9
-43.905719 -19.375334 -47.056238 9
-46.905788 -18.363642 -46.952423 9
-50.128808 -15.852252 -46.713780 9
-53.847485 -10.220142 -46.189892 9
57.174028 -4.065824 -45.199910 9
51.762254 -15.179390 -46.085425 9
47.989717 -19.139526 -46.306400 9
44.717282 -20.898381 -46.325450 9
41.692386 -21.509943 -46.240519 9
38.755778 -21.720325 -46.121978 9
35.828341 -21.953513 -46.010382 9
32.914457 -22.180552 -45.902885 9
30.007719 -22.442590 -45.803457 9
27.126026 -22.603681 -45.698717 9
24.246179 -22.830262 -45.604938 9
21.379483 -23.031053 -45.513099 9
18.525295 -23.199677 -45.422497 9
15.679999 -23.360330 -45.335473 9
12.843148 -23.509265 -45.251608 9
10.012628 -23.664529 -45.172672 9
7.192705 -23.750511 -45.091013 9
4.374102 -23.899850 -45.019956 9
1.560285 -24.061011 -44.954303 9
-1.247701 -24.196393 -44.890214 9
-4.050712 -24.289153 -44.825928 9
-6.850981 -24.379513 -44.765503 9
-9.649106 -24.480068 -44.710209 9
-12.445418 -24.569757 -44.657877 9
-15.239932 -24.698056 -44.613571 9
-18.034562 -24.765199 -44.567025 9
-20.829673 -24.824957 -44.523744 9
-23.624967 -24.899728 -44.486031 9
-26.421976 -24.962286 -44.451068 9
-29.220862 -25.023337 -44.419957 9
-32.019729 -25.116049 -44.396134 9
-34.825280 -25.154548 -44.370693 9
-37.635213 -25.185999 -44.348522 9
-40.453521 -25.178241 -44.326278 9
-43.282829 -25.122500 -44.303049 9
-46.186740 -24.511418 -44.226038 9
-49.227125 -23.001045 -44.059401 9
-52.516635 -19.983042 -43.739789 9
-56.078246 -15.602189 -43.282333 9
-59.992361 -9.612071 -42.661562 9
58.614626 -12.724384 -42.696313 9
54.259830 -18.723686 -43.169299 9
50.385292 -23.043043 -43.474798 9
47.008470 -25.333894 -43.572826 9
43.922851 -26.369878 -43.543044 9
40.991990 -26.704930 -43.443120 9
38.105611 -26.868638 -43.329206 9
35.226032 -27.063795 -43.223009 9
32.367734 -27.195284 -43.114169 9
29.513809 -27.367744 -43.013992 9
26.673005 -27.518399 -42.915601 9
23.841700 -27.667864 -42.821198 9
21.019364 -27.815882 -42.730713 9
18.203047 -27.986418 -42.646763 9
15.401129 -28.087936 -42.559164 9
12.605302 -28.192611 -42.475858 9
9.814001 -28.316719 -42.398637 9
7.029701 -28.420796 -42.323068 9
4.249207 -28.545988 -42.253729 9
1.474379 -28.650672 -42.185926 9
-1.295278 -28.716698 -42.117570 9
-4.062673 -28.801545 -42.055115 9
-6.827489 -28.885305 -41.996298 9
-9.590190 -28.953084 -41.939411 9
-12.351312 -29.072716 -41.892148 9
-15.111304 -29.150942 -41.843894 9
-17.871304 -29.209127 -41.797054 9
-20.632408 -29.246227 -41.751487 9
-23.393998 -29.300782 -41.711590 9
-26.153394 -29.422084 -41.683018 9
-28.919268 -29.451280 -41.647554 9
-31.687669 -29.485249 -41.616296 9
-34.457911 -29.536535 -41.590688 9
-37.234021 -29.561583 -41.565721 9
-40.013223 -29.599824 -41.545934 9
-42.804404 -29.572962 -41.522308 9
-45.544262 -30.020878 -41.557119 9
-48.602372 -28.030195 -41.314216 9
-51.834337 -25.132937 -40.970208 9
-55.113475 -22.348914 -40.642881 9
-58.965446 -16.393632 -39.953105 9
-64.838587 0.665127 -37.985186 8
-67.991525 0.738324 -37.982714 8
-71.161162 0.835737 -37.981618 8
-74.356671 0.996437 -37.977422 8
-77.562797 1.135923 -37.979909 8
-80.809369 1.389476 -37.973520 8
-84.127995 1.876426 -37.944580 8
-87.496655 2.473006 -37.907438 8
-90.918308 3.174808 -37.862693 8
72.304002 3.336886 -37.842429 5
68.331236 0.481016 -37.996504 5
64.794239 -0.851720 -37.981592 5
57.498578 -18.818913 -39.911361 9
53.281967 -24.399194 -40.413871 9
49.610535 -27.955512 -40.688160 9
46.237836 -30.418737 -40.840908 9
43.190448 -31.469735 -40.832588 9
40.198604 -32.380060 -40.812383 9
37.339131 -32.665568 -40.722229 9
34.512549 -32.832623 -40.621917 9
31.700816 -32.975190 -40.522546 9
28.900934 -33.105787 -40.425555 9
26.115326 -33.198884 -40.327800 9
23.336171 -33.306334 -40.235495 9
20.562031 -33.440322 -40.150105 9
17.800854 -33.524202 -40.062267 9
15.044833 -33.622502 -39.979797 9
12.297649 -33.688688 -39.896970 9
9.552476 -33.798606 -39.823059 9
6.811612 -33.927447 -39.755018 9
4.080374 -33.973918 -39.680319 9
1.351280 -34.047138 -39.612387 9
-1.373110 -34.077537 -39.542587 9
-4.096955 -34.170983 -39.484038 9
-6.817734 -34.239515 -39.425806 9
-9.536690 -34.294130 -39.369230 9
-12.254854 -34.308600 -39.311008 9
-14.972647 -34.361848 -39.260990 9
-17.689610 -34.446646 -39.218280 9
-20.408013 -34.485061 -39.173098 9
-23.125110 -34.580176 -39.138376 9
-25.845062 -34.633344 -39.101713 9
-28.566210 -34.697321 -39.069735 9
-31.293775 -34.703148 -39.033741 9
-34.017993 -34.794794 -39.011895 9
-36.755059 -34.775746 -38.979379 9
-39.491735 -34.811676 -38.957125 9
-42.855294 -29.294333 -38.235054 9
-45.121586 -33.717540 -38.774862 9
-49.004163 -25.248038 -37.684470 9
-51.307274 -29.174460 -38.168362 9
-54.601833 -26.083294 -37.765946 9
-57.964467 -22.997655 -37.367508 9
-64.739154 -0.355723 -34.491412 8
-65.744409 -12.154234 -35.988221 8
-68.768101 -12.197904 -35.997398 8
-71.817331 -12.164131 -36.000450 8
-74.879931 -12.124495 -36.006479 8
-77.953391 -12.093935 -36.017407 8
-81.051807 -12.012898 -36.025713 8
-84.143136 -12.023289 -36.049404 8
-87.269716 -11.948058 -36.066088 8
-90.400954 -11.916715 -36.092194 8
-93.560853 -11.838415 -36.116270 8
-96.746870 -11.729734 -36.140460 8
-99.948872 -11.630924 -36.169892 8
-103.171253 -11.528816 -36.202947 8
-106.752739 -10.345488 -36.104134 8
106.720462 -4.864729 -37.259729 5
102.488385 -7.161741 -37.322376 5
98.929751 -7.760825 -37.187349 5
95.404790 -8.361750 -37.058223 5
91.914540 -8.958842 -36.934195 5
88.495627 -9.435293 -36.800773 5
85.103106 -9.920301 -36.673616 5
81.749432 -10.370676 -36.547275 5
78.423378 -10.818542 -36.425612 5
75.133390 -11.230720 -36.304372 5
71.887009 -11.572376 -36.179024 5
68.653612 -11.950169 -36.062869 5
65.445593 -12.316018 -35.949783 5
60.338981 -20.700774 -36.864175 9
56.375520 -24.899166 -37.254820 9
52.633342 -28.530862 -37.580576 9
49.031246 -31.897137 -37.879302 9
45.717348 -34.209341 -38.048334 9
42.697205 -35.266537 -38.059990 9
39.803857 -35.786947 -38.006136 9
37.003327 -35.873193 -37.899439 9
34.212832 -35.960032 -37.796343 9
31.425131 -36.092388 -37.702721 9
28.656719 -36.158103 -37.603787 9
25.888251 -36.286841 -37.516589 9
23.135651 -36.357250 -37.425060 9
20.380678 -36.514330 -37.348395 9
17.637686 -36.635702 -37.270330 9
14.906602 -36.705193 -37.188637 9
12.182813 -36.754783 -37.107523 9
9.463335 -36.811167 -37.030530 9
6.744202 -36.933621 -36.965621 9
4.032317 -37.017489 -36.898712 9
1.326428 -37.054489 -36.828631 9
-1.377088 -37.098666 -36.762639 9
-4.078624 -37.155182 -36.701425 9
-6.778354 -37.227844 -36.645500 9
-9.476117 -37.273675 -36.589009 9
-12.173083 -37.307245 -36.533908 9
-14.869484 -37.367999 -36.485562 9
-17.566841 -37.382382 -36.433922 9
-20.264234 -37.429744 -36.389815 9
-22.964204 -37.441774 -36.343889 9
-25.664191 -37.493970 -36.306480 9
-28.369170 -37.497231 -36.265362 9
-31.072188 -37.572549 -36.237149 9
-33.779755 -37.621978 -36.208386 9
-36.496015 -37.614168 -36.174744 9
-39.215214 -37.626449 -36.146866 9
-41.949333 -37.551145 -36.109905 9
-44.770454 -36.822043 -35.985681 9
-47.716558 -35.300550 -35.754915 9
-50.808797 -33.006176 -35.420186 9
-54.002146 -30.391463 -35.043986 9
-57.279982 -27.622831 -34.649374 9
-60.639418 -24.748377 -34.243085 9
-64.726852 -18.220465 -33.334492 8
-67.710048 -18.205459 -33.329954 8
-70.694817 -18.237421 -33.335217 8
-73.698198 -18.231740 -33.338596 8
-76.707915 -18.251751 -33.348872 8
-79.751378 -18.178217 -33.349578 8
-82.791293 -18.179936 -33.364080 8
-85.848758 -18.166454 -33.379897 8
-88.920661 -18.153872 -33.399281 8
-92.032113 -18.052271 -33.409854 8
-95.131457 -18.056526 -33.438545 8
-98.273791 -17.969722 -33.458222 8
-101.427549 -17.907526 -33.484878 8
-104.606944 -17.824492 -33.512291 8
-108.399892 -15.914459 -33.292335 8
107.201426 -13.572757 -34.865151 5
103.290422 -15.104678 -34.866177 5
99.880727 -15.421650 -34.712807 5
96.488980 -15.768961 -34.568339 5
93.128193 -16.109214 -34.427735 5
89.810027 -16.404284 -34.285773 5
86.527027 -16.670218 -34.144449 5
83.265104 -16.946553 -34.008990 5
80.039058 -17.182863 -33.872475 5
76.818139 -17.477601 -33.748210 5
73.640870 -17.697777 -33.617981 5
70.477125 -17.943278 -33.495350 5
67.351394 -18.120519 -33.367360 5
64.633427 -16.742820 -33.027694 5
59.329724 -26.062472 -34.178936 9
55.634262 -29.276579 -34.490191 9
52.023113 -32.458671 -34.803434 9
48.572416 -35.236964 -35.066216 9
45.353570 -37.188941 -35.218289 9
42.357222 -38.228776 -35.246328 9
39.518835 -38.559271 -35.177852 9
36.734572 -38.662809 -35.080532 9
33.970658 -38.704629 -34.977620 9
31.203880 -38.823424 -34.888839 9
28.448332 -38.931312 -34.801642 9
25.703329 -39.027075 -34.715810 9
22.967185 -39.117425 -34.632263 9
20.238853 -39.205755 -34.551455 9
17.519471 -39.275250 -34.470923 9
14.808483 -39.320504 -34.389838 9
12.097552 -39.428686 -34.320820 9
9.396129 -39.487344 -34.247526 9
6.700652 -39.522592 -34.173699 9
4.007720 -39.576797 -34.105494 9
1.318448 -39.625658 -34.039348 9
-1.368025 -39.675873 -33.976221 9
-4.050547 -39.660116 -33.906203 9
-6.734467 -39.789766 -33.860345 9
-9.414922 -39.805330 -33.800480 9
-12.095026 -39.832643 -33.745097 9
-14.774815 -39.878306 -33.695167 9
-17.454944 -39.913531 -33.646430 9
-20.135627 -39.954782 -33.601310 9
-22.818855 -39.963726 -33.554117 9
-25.502770 -40.001324 -33.513882 9
-28.447871 -35.956021 -32.869195 9
-31.177009 -35.983144 -32.832214 9
-33.909204 -36.014143 -32.798547 9
-36.649439 -35.999344 -32.760787 9
-38.968127 -40.151864 -33.347653 9
-41.680529 -40.118743 -33.313055 9
-44.481748 -39.410583 -33.180267 9
-47.368741 -38.205256 -32.975715 9
-50.413788 -36.100231 -32.639087 9
-53.546453 -33.740242 -32.266740 9
-57.738199 -25.159418 -30.965435 9
-60.039723 -28.652708 -31.474523 9
-64.841388 -18.027818 -29.871633 8
-66.963452 -22.568310 -30.543453 8
-69.910985 -22.611004 -30.544370 8
-72.883340 -22.585280 -30.537987 8
-75.853951 -22.623069 -30.544093 8
-78.855182 -22.578976 -30.540917 8
-81.859868 -22.578148 -30.547233 8
-84.873905 -22.594430 -30.559143 8
-87.897037 -22.629198 -30.576873 8
-90.958759 -22.574597 -30.584297 8
-94.026125 -22.559091 -30.600682 8
-97.116365 -22.522145 -30.616994 8
-100.219016 -22.502622 -30.639079 8
-103.353557 -22.439120 -30.657790 8
-106.718847 -21.727092 -30.582926 8
-112.576606 -13.702101 -29.420643 8
-117.591940 -8.660994 -28.708447 7
-120.962303 -8.582730 -28.740056 7
-124.373278 -8.459545 -28.768543 7
-127.799762 -8.363692 -28.804713 7
-131.286319 -8.181039 -28.831666 7
-134.761900 -8.097839 -28.877108 7
-138.282306 -7.973164 -28.920178 7
-141.844009 -7.820857 -28.963007 7
-145.452751 -7.632149 -29.004379 7
-149.093407 -7.445910 -29.050114 7
127.469196 0.713441 -29.989166 6
123.228731 -0.782495 -29.984812 6
116.828074 -7.671357 -30.752694 5
109.612197 -17.045246 -31.888492 5
105.087253 -20.112117 -32.137206 5
101.679702 -20.468731 -32.004032 5
98.348206 -20.700884 -31.857386 5
95.037150 -20.950580 -31.717558 5
91.781039 -21.117324 -31.569861 5
88.531971 -21.333571 -31.433443 5
85.304383 -21.557309 -31.302147 5
82.118661 -21.721909 -31.166099 5
78.958453 -21.872583 -31.031820 5
75.794897 -22.103841 -30.913244 5
72.677466 -22.246989 -30.785320 5
69.574474 -22.405744 -30.663344 5
66.476746 -22.614371 -30.552417 5
63.765963 -21.359063 -30.225014 5
58.633773 -30.087818 -31.405061 9
55.080995 -32.809933 -31.687919 9
51.579174 -35.606494 -31.987598 9
48.174982 -38.262521 -32.271367 9
45.038419 -39.905868 -32.405919 9
42.114380 -40.661159 -32.408958 9
39.290637 -40.997844 -32.351307 9
36.525768 -41.081540 -32.257880 9
33.769465 -41.174567 -32.168761 9
31.027570 -41.236538 -32.077691 9
28.287824 -41.344057 -31.996461 9
25.569366 -41.357623 -31.903447 9
22.847182 -41.456152 -31.826339 9
20.139367 -41.495409 -31.742725 9
17.429282 -41.616727 -31.674583 9
14.733644 -41.659245 -31.596804 9
12.041149 -41.726208 -31.525473 9
9.357877 -41.736921 -31.447919 9
6.674916 -41.799307 -31.381048 9
3.996627 -41.850526 -31.314984 9
1.321717 -41.901716 -31.251455 9
-1.351459 -41.987409 -31.195903 9
-4.020062 -42.011144 -31.133067 9
-6.687883 -42.078631 -31.079646 9
-9.353525 -42.058908 -31.014866 9
-12.019015 -42.145117 -30.969360 9
-14.684272 -42.166612 -30.916023 9
-17.348880 -42.236662 -30.872855 9
-20.015842 -42.240105 -30.821501 9
-22.683236 -42.275705 -30.777692 9
-25.350890 -42.338116 -30.740584 9
-28.023695 -42.345400 -30.697068 9
-30.696705 -42.393776 -30.662530 9
-33.372574 -42.442588 -30.630464 9
-36.053465 -42.473571 -30.597937 9
-38.738008 -42.509977 -30.568675 9
-41.450957 -42.334254 -30.507705 9
-44.216566 -41.803054 -30.391900 9
-47.092919 -40.559672 -30.163739 9
-50.090975 -38.679547 -29.835190 9
-53.181033 -36.487173 -29.458422 9
-56.323760 -34.287657 -29.082609 9
-59.539030 -31.970697 -28.690024 9
-65.216462 -16.402702 -26.161648 8
-66.436288 -25.774280 -27.659415 8
-69.356552 -25.834882 -27.657477 8
-72.304759 -25.810497 -27.644421 8
-75.253256 -25.839997 -27.642681 8
-78.208610 -25.890609 -27.646979 8
-81.202078 -25.833209 -27.636478 8
-84.190075 -25.855900 -27.641576 8
-87.190297 -25.884399 -27.650292 8
-90.215663 -25.873125 -27.655287 8
-93.256648 -25.862314 -27.663082 8
-96.307124 -25.875011 -27.677418 8
-99.385849 -25.849479 -27.688357 8
-102.469286 -25.866371 -27.708939 8
-105.732510 -25.386898 -27.652327 8
-109.943553 -22.180761 -27.159315 8
-115.746617 -14.651655 -25.973629 8
-118.952068 -14.881833 -26.041146 7
-122.268415 -14.857971 -26.070825 7
-125.626120 -14.786910 -26.096027 7
-129.007756 -14.719320 -26.124948 7
-132.395483 -14.701380 -26.165038 7
-135.833127 -14.625368 -26.199055 7
-139.301260 -14.543738 -26.235473 7
-142.794086 -14.472369 -26.276884 7
-146.313077 -14.409368 -26.323034 7
-149.888248 -14.291024 -26.363805 7
149.649535 -8.036538 -28.908883 6
145.654340 -8.541508 -28.757182 6
141.725253 -9.007045 -28.605112 6
137.834154 -9.485802 -28.460373 6
134.005257 -9.924712 -28.314860 6
130.245951 -10.302006 -28.165073 6
126.513704 -10.705313 -28.024121 6
122.838051 -11.066420 -27.881516 6
118.720827 -12.552154 -27.916234 5
111.619177 -21.402321 -29.092211 5
107.359893 -23.744327 -29.275646 5
103.962605 -24.077750 -29.153609 5
100.648815 -24.271954 -29.013951 5
97.384179 -24.405131 -28.868593 5
94.133630 -24.567253 -28.731489 5
90.920656 -24.691059 -28.592017 5
87.721911 -24.839869 -28.460061 5
84.544640 -24.991533 -28.332081 5
81.406756 -25.087097 -28.198635 5
78.279953 -25.211195 -28.073092 5
75.157380 -25.387742 -27.959267 5
72.089065 -25.443655 -27.829376 5
69.002565 -25.627718 -27.723275 5
65.978222 -25.646890 -27.593747 5
62.948775 -25.744623 -27.479958 5
59.354131 -28.240018 -27.758659 9
54.657448 -35.760474 -28.860745 9
51.254750 -38.194631 -29.141473 9
47.903019 -40.675165 -29.434495 9
45.743809 -37.543677 -28.811381 9
41.900246 -42.927661 -29.588889 9
39.112753 -43.142937 -29.521085 9
36.368361 -43.184212 -29.427220 9
34.268800 -39.292363 -28.684713 9
30.913609 -43.221422 -29.239511 9
28.188004 -43.311132 -29.161167 9
25.475119 -43.369726 -29.080109 9
22.769525 -43.429928 -29.001743 9
20.070611 -43.493060 -28.926264 9
17.379209 -43.546938 -28.851611 9
14.696758 -43.567673 -28.773742 9
12.013665 -43.653410 -28.709106 9
9.339889 -43.687127 -28.638032 9
6.667744 -43.758525 -28.575587 9
4.001279 -43.803449 -28.510944 9
1.338744 -43.833168 -28.445972 9
-1.322387 -43.894757 -28.388619 9
-3.981225 -43.970163 -28.335830 9
-6.636954 -43.998302 -28.277221 9
-9.291682 -44.031109 -28.221581 9
-11.946043 -44.008052 -28.158591 9
-14.600404 -44.048323 -28.108534 9
-17.255130 -44.080472 -28.059237 9
-19.910482 -44.117818 -28.012965 9
-22.568103 -44.130242 -27.964556 9
-25.226781 -44.162931 -27.921732 9
-27.889091 -44.173439 -27.877218 9
-30.552587 -44.210719 -27.839400 9
-33.216912 -44.275451 -27.808404 9
-35.890442 -44.273766 -27.768098 9
-38.565692 -44.302556 -27.735125 9
-41.249945 -44.293370 -27.697707 9
-43.996751 -43.821192 -27.582583 9
-46.839613 -42.740072 -27.364424 9
-49.814871 -40.925365 -27.021535 9
-52.866543 -38.893466 -26.642885 9
-55.981221 -36.771506 -26.250421 9
-59.162746 -34.557009 -25.843745 9
-65.178830 -17.052967 -22.795033 8
-65.951648 -28.750431 -24.797613 8
-68.861322 -28.757042 -24.780863 8
-72.544401 -25.170492 -24.144370 8
-75.508450 -25.198528 -24.135682 8
-78.491109 -25.197698 -24.124300 8
-81.482801 -25.213622 -24.118137 8
-84.491065 -25.216949 -24.112124 8
-87.513112 -25.222158 -24.108782 8
-89.586540 -28.744719 -24.717235 8
-92.615032 -28.704858 -24.710821 8
-95.654210 -28.686311 -24.710470 8
-98.709014 -28.672942 -24.713408 8
-101.783670 -28.653056 -24.717629 8
-104.892862 -28.584537 -24.715864 8
-108.617340 -26.754015 -24.411510 8
-114.031855 -20.243670 -23.299859 8
-117.455998 -19.724492 -23.228100 7
-120.667558 -19.869042 -23.273817 7
-123.972671 -19.819356 -23.288584 7
-127.272815 -19.844994 -23.319054 7
-130.627042 -19.795562 -23.339271 7
-133.995944 -19.774230 -23.367098 7
-137.383398 -19.771792 -23.400977 7
-140.813740 -19.733306 -23.431472 7
-144.265543 -19.711331 -23.467691 7
-147.772882 -19.632856 -23.497109 7
146.707651 -14.822972 -26.067352 6
142.887704 -15.114960 -25.910198 6
139.132263 -15.359707 -25.749974 6
135.397069 -15.642572 -25.600376 6
131.733827 -15.854557 -25.443565 6
128.093994 -16.093101 -25.295294 6
124.463168 -16.389896 -25.160740 6
120.913490 -16.582322 -25.013041 6
116.242432 -19.480145 -25.317929 5
110.371875 -25.491117 -26.147831 5
106.550850 -26.824013 -26.206794 5
103.238736 -26.997813 -26.076379 5
99.969272 -27.130627 -25.942530 5
96.738366 -27.227516 -25.805965 5
93.514166 -27.371490 -25.680602 5
90.336105 -27.451532 -25.547622 5
87.152130 -27.613244 -25.431636 5
84.009683 -27.717282 -25.308936 5
80.887637 -27.822170 -25.189393 5
77.784616 -27.930095 -25.073331 5
74.701104 -28.037298 -24.960056 5
71.636795 -28.142303 -24.849263 5
68.598384 -28.217924 -24.736199 5
65.613437 -28.153661 -24.601631 5
62.835336 -27.324799 -24.336808 5
57.819460 -35.682145 -25.673565 9
54.360721 -38.147712 -25.991235 9
51.003043 -40.440025 -26.282979 9
47.701076 -42.743325 -26.580800 9
44.646901 -44.106445 -26.717509 9
41.758117 -44.805483 -26.740593 9
39.000704 -44.913329 -26.662132 9
36.266529 -44.950842 -26.573528 9
33.534750 -45.030070 -26.494523 9
30.807970 -45.138653 -26.422937 9
28.101917 -45.168590 -26.339573 9
25.401139 -45.214893 -26.261249 9
22.709341 -45.247137 -26.182529 9
20.019066 -45.323265 -26.113731 9
17.343566 -45.322203 -26.033199 9
14.665204 -45.403626 -25.969473 9
11.994646 -45.462669 -25.903772 9
9.331206 -45.492988 -25.834917 9
6.672759 -45.507066 -25.765115 9
4.014427 -45.577535 -25.707435 9
1.361947 -45.600939 -25.643219 9
-1.288064 -45.621559 -25.580425 9
-3.936487 -45.652464 -25.521403 9
-6.583325 -45.681910 -25.464017 9
-9.229067 -45.703812 -25.407149 9
-11.874491 -45.700601 -25.347588 9
-14.519261 -45.779724 -25.304861 9
-17.165337 -45.780045 -25.249652 9
-19.812745 -45.782813 -25.196724 9
-22.460037 -45.830554 -25.153832 9
