ply
format ascii 1.0
element vertex 1414
property float x
property float y
property float z
property int scalar_Label
end_header
90.077959 17.265769 -33.821153 5
92.181976 16.229930 -34.373860 5
94.266929 15.108547 -34.874711 5
96.341481 13.926588 -35.342266 5
98.416043 12.723040 -35.803831 5
100.484481 11.461916 -36.236135 5
102.542687 10.109750 -36.618425 5
104.591895 8.655454 -36.945280 5
106.579903 6.760989 -37.000997 5
108.483599 4.184050 -36.638958 5
110.273028 0.565019 -35.644064 5
111.925578 -4.511123 -33.774918 5
-14.889161 71.048018 -10.973274 1
-1.154976 81.025841 -23.349311 1
1.063082 79.888273 -23.629662 1
3.039418 78.520025 -23.663206 1
4.937004 77.076579 -23.620053 1
6.635206 75.420495 -23.360334 1
8.311981 73.734108 -23.077686 1
9.940494 71.984304 -22.739448 1
9.601046 67.921885 -20.082226 1
7.348259 61.442892 -15.067262 4
8.753431 59.208680 -14.345846 4
10.017956 56.763906 -13.436441 4
11.218868 54.192570 -12.426153 4
12.270041 51.372163 -11.200349 4
12.479201 47.347657 -8.855111 9
15.375688 46.927247 -9.962577 9
18.338286 46.658518 -11.198989 9
21.216121 46.330782 -12.365665 9
24.057011 46.008768 -13.524183 9
26.873318 45.709739 -14.690697 9
29.604673 45.338130 -15.778867 9
30.660303 42.309684 -14.477059 9
34.961967 44.593261 -17.920934 9
37.577958 44.198810 -18.957170 9
40.123292 43.734672 -19.923294 9
42.496847 43.010559 -20.656817 9
44.750370 42.098595 -21.225808 9
46.851483 40.919306 -21.567258 9
48.891344 39.627204 -21.817478 9
50.867226 38.205871 -21.965432 9
52.839664 36.769049 -22.108247 9
54.810583 35.318857 -22.248147 9
56.788904 33.873222 -22.400152 9
58.769158 32.419526 -22.554131 9
59.773897 28.652213 -20.867002 9
59.793555 22.319461 -17.187170 9
59.766819 15.527753 -13.222318 9
67.175976 27.708654 -24.118794 5
69.476987 27.071512 -24.941057 5
71.779821 26.477775 -25.795143 5
74.052624 25.838406 -26.612869 5
76.277672 25.093296 -27.350171 5
78.508456 24.395249 -28.123343 5
80.716392 23.655633 -28.866166 5
82.919334 22.927927 -29.618870 5
85.099311 22.148800 -30.335440 5
87.341526 21.622584 -31.236233 5
89.466788 20.694489 -31.849276 5
91.586929 19.755166 -32.458778 5
93.692167 18.760306 -33.034067 5
95.792432 17.743905 -33.599996 5
97.884382 16.685518 -34.143061 5
99.960078 15.537728 -34.631849 5
102.048388 14.433534 -35.158149 5
104.120988 13.223411 -35.621087 5
106.146059 11.699020 -35.884371 5
108.093954 9.609681 -35.788866 5
109.960479 6.804561 -35.246567 5
111.735817 3.048116 -34.118275 5
113.460221 -1.578583 -32.473037 5
115.063358 -7.902808 -29.801763 5
-2.074852 83.878995 -21.187067 1
0.376751 82.950644 -21.713841 1
2.703659 81.927421 -22.128127 1
4.898406 80.793208 -22.416142 1
7.023671 79.605079 -22.643063 1
8.975039 78.244582 -22.685319 1
9.948314 75.803380 -21.594041 1
9.284661 71.450573 -18.537157 1
7.857179 66.065886 -14.477871 4
9.360018 63.996918 -13.885157 4
10.619237 61.603423 -12.979557 4
11.750809 59.007107 -11.892180 4
12.827022 56.286512 -10.706497 4
13.799864 53.369762 -9.354950 4
14.662911 50.234301 -7.820569 4
15.840826 47.454464 -6.663743 9
18.814170 47.168595 -7.922087 9
21.779641 46.936368 -9.215510 9
24.749333 46.777800 -10.562104 9
27.580854 46.477128 -11.759570 9
30.371874 46.174914 -12.941896 9
33.119543 45.864189 -14.103303 9
35.803665 45.508390 -15.211358 9
38.430137 45.111746 -16.271462 9
40.986711 44.647188 -17.260937 9
43.366957 43.914166 -18.004603 9
45.613020 42.966242 -18.556022 9
47.698652 41.732817 -18.859156 9
49.708400 40.354311 -19.041630 9
51.705884 38.946190 -19.205435 9
53.753583 37.635994 -19.459287 9
55.730178 36.170118 -19.588529 9
57.774207 34.841777 -19.840487 9
58.762975 31.081810 -18.095043 9
59.805709 27.285202 -16.361059 9
59.768823 20.668772 -12.384863 9
66.056903 29.737131 -21.083117 5
68.390314 29.140001 -21.950105 5
70.717214 28.567263 -22.833671 5
73.019424 27.968582 -23.694225 5
75.324075 27.418567 -24.590432 5
76.813550 24.438542 -23.616166 5
79.831646 26.136161 -26.236728 5
82.041007 25.406278 -26.991670 5
84.258693 24.734801 -27.791037 5
86.439436 23.966038 -28.518348 5
88.629680 23.258317 -29.292227 5
90.793422 22.477977 -30.014231 5
92.974337 21.791255 -30.806150 5
95.151273 21.119627 -31.610137 5
97.258769 20.168050 -32.216611 5
99.363092 19.204285 -32.819543 5
101.451408 18.160105 -33.371759 5
103.538652 17.098996 -33.918836 5
105.596605 15.856453 -34.348574 5
107.583295 14.141536 -34.467014 5
109.503925 11.886916 -34.237761 5
111.339634 8.839939 -33.502473 5
113.144457 5.215610 -32.417758 5
114.950210 1.125526 -31.067211 5
115.944976 -10.788946 -24.688964 5
118.919815 -5.523373 -29.483246 6
120.955399 -9.127498 -28.566329 6
122.623573 -17.948996 -24.400207 6
125.035638 -18.583513 -25.445728 6
-3.975011 85.833608 -17.974721 1
-1.149149 85.215046 -18.891614 1
-2.505490 80.528332 -15.191048 1
4.007406 83.623545 -20.276537 1
6.429665 82.723621 -20.835113 1
8.710706 81.705748 -21.255199 1
9.552310 79.152450 -20.001250 1
9.015817 75.017164 -17.072374 1
8.749721 71.059972 -14.392765 1
9.961020 68.705454 -13.459044 1
11.065748 66.183064 -12.371350 4
12.209418 63.659172 -11.306719 4
13.255049 60.962490 -10.089272 4
14.175096 58.045292 -8.675243 4
15.018725 54.956763 -7.120080 4
15.709121 51.581037 -5.312630 4
16.133971 47.741344 -3.085681 9
19.261464 47.636056 -4.562109 9
22.283199 47.452080 -5.941977 9
25.292916 47.321316 -7.354921 9
28.176375 47.069304 -8.634018 9
31.078269 46.912884 -9.987814 9
33.843066 46.604421 -11.182750 9
36.564969 46.286412 -12.355416 9
39.273252 46.006176 -13.550099 9
41.813147 45.491152 -14.518047 9
44.184047 44.717854 -15.244219 9
46.369153 43.630478 -15.685245 9
48.461997 42.379936 -15.982789 9
50.529492 41.083262 -16.243859 9
52.529954 39.650178 -16.391015 9
54.558548 38.267793 -16.589292 9
56.602536 36.912570 -16.817541 9
58.636694 35.529839 -17.028897 9
59.767432 32.046624 -15.478714 9
59.735920 25.633653 -11.521039 9
59.747951 18.978267 -7.442885 9
67.193811 30.977359 -18.749106 5
69.568283 30.476700 -19.707691 5
71.923480 29.972977 -20.659301 5
74.238989 29.405769 -21.556032 5
76.544360 28.853235 -22.461426 5
78.819840 28.254530 -23.327685 5
81.091515 27.685531 -24.215107 5
83.320542 27.018780 -25.025001 5
85.549396 26.387209 -25.861292 5
87.764174 25.743263 -26.687465 5
89.953764 25.041236 -27.469662 5
92.126808 24.305239 -28.227240 5
94.283931 23.530986 -28.957929 5
96.455266 22.842566 -29.753525 5
98.588438 22.010452 -30.446064 5
100.775376 21.455797 -31.341354 5
102.878654 20.517664 -31.963286 5
104.969573 19.512634 -32.542995 5
106.992567 18.102425 -32.845183 5
108.947418 16.200402 -32.817606 5
110.830555 13.673835 -32.378439 5
112.664702 10.539734 -31.551073 5
114.489660 6.956562 -30.453833 5
115.950565 -0.213722 -26.996836 5
118.564088 2.143246 -29.934418 6
120.689156 0.143432 -29.978161 6
122.821458 -2.049497 -29.915763 6
124.954067 -4.606855 -29.640533 6
127.074444 -7.891908 -28.927458 6
129.117275 -13.487623 -26.789459 6
131.287610 -18.402617 -25.140903 6
-6.271766 93.916297 -18.641491 3
-3.375211 93.324400 -19.622189 3
-1.076306 92.237409 -19.989663 3
0.861297 90.837434 -19.979054 3
-0.640382 86.152445 -16.124259 1
2.253899 85.627134 -17.167606 1
0.702454 80.684645 -13.126585 1
7.600940 84.280560 -18.858282 1
10.027130 83.412030 -19.461128 1
10.035069 79.960001 -17.180419 1
7.096679 73.144533 -11.242852 1
8.347025 70.824983 -10.327021 1
11.758393 70.985150 -12.110013 1
12.735791 68.325219 -10.845911 1
13.654183 65.536051 -9.472829 4
14.596695 62.713306 -8.094693 4
15.330970 59.556468 -6.399772 4
15.976060 56.198303 -4.534151 4
16.697796 52.849668 -2.718193 4
16.900371 48.684710 -0.116491 4
19.532699 47.850186 -0.903241 9
22.658194 47.776940 -2.437150 9
25.686384 47.636053 -3.883222 9
28.691114 47.533403 -5.347181 9
31.619008 47.384770 -6.747437 9
34.483270 47.205254 -8.100341 9
37.251699 46.935730 -9.351297 9
39.971010 46.646669 -10.569427 9
42.496261 46.076964 -11.512651 9
43.498192 42.773374 -9.924232 9
47.091629 44.225342 -12.722863 9
49.171418 42.915891 -12.977252 9
51.233224 41.571662 -13.205029 9
53.294181 40.223842 -13.435008 9
55.377321 38.920137 -13.709600 9
57.426722 37.541682 -13.923926 9
59.474480 36.152845 -14.135753 9
59.739151 30.596123 -10.769517 9
59.755052 24.149099 -6.713656 9
65.827788 32.453859 -15.208160 5
68.278979 32.081755 -16.296850 5
69.824370 29.346763 -15.415736 5
73.061382 31.190107 -18.331445 5
75.413002 30.713736 -19.315413 5
77.736709 30.206472 -20.269663 5
80.025980 29.642268 -21.174273 5
82.295070 29.058226 -22.060237 5
84.554804 28.486370 -22.953493 5
86.795215 27.891215 -23.826343 5
89.022981 27.292160 -24.694558 5
91.236609 26.680877 -25.552089 5
93.422227 25.997498 -26.353886 5
95.599621 25.312966 -27.155152 5
97.761589 24.592914 -27.930453 5
99.901812 23.799657 -28.652804 5
102.059665 23.114550 -29.457058 5
104.180508 22.266636 -30.144087 5
106.319798 21.533952 -30.917853 5
108.246084 19.550705 -30.799885 5
109.649449 14.057451 -28.213657 5
112.018101 14.533250 -29.881928 5
113.911705 11.685089 -29.224919 5
115.920810 9.430007 -29.006580 5
117.998505 7.522095 -29.047742 6
120.141023 6.033688 -29.390921 6
122.287973 4.446980 -29.681125 6
124.439749 2.726300 -29.896641 6
126.593867 0.774487 -29.976155 6
128.761384 -1.345462 -29.965166 6
130.937236 -3.841496 -29.732598 6
133.127546 -6.850914 -29.197655 6
135.321238 -11.281968 -27.794353 6
137.539050 -18.275665 -24.832735 6
-10.340869 94.164757 -13.174306 3
-5.689450 94.986025 -16.008258 3
-2.144152 94.949900 -17.716998 3
1.415880 95.005885 -19.500611 3
3.585129 93.848464 -19.775030 3
5.137296 92.122166 -19.361377 3
2.586404 86.373397 -14.184155 1
0.431485 80.811966 -9.334872 1
8.447600 85.503226 -16.500601 1
7.150296 80.700358 -12.601213 1
10.871515 81.151878 -14.765047 1
8.540381 75.005624 -9.450183 1
9.986949 72.912955 -8.767231 1
11.836608 71.262551 -8.589244 1
14.089817 70.089028 -8.939731 1
14.916552 67.189185 -7.415988 1
15.586458 64.022223 -5.638606 4
16.147857 60.631132 -3.661019 4
16.827841 57.300307 -1.788898 4
16.885016 53.031388 1.021600 4
16.179303 47.557031 5.019849 9
19.610899 47.785868 3.099471 9
22.879130 47.872668 1.352544 9
26.012379 47.845313 -0.253924 9
29.087682 47.810630 -1.830345 9
32.057165 47.688973 -3.299149 9
34.986011 47.576854 -4.757807 9
37.854898 47.439941 -6.173518 9
38.945872 44.301065 -4.689067 9
43.160185 46.622591 -8.434989 9
45.497262 45.723004 -9.084599 9
47.707125 44.611210 -9.532697 9
49.799686 43.285793 -9.783609 9
51.889733 41.955992 -10.034989 9
53.994806 40.656815 -10.319022 9
56.120524 39.402331 -10.647871 9
58.172809 37.988907 -10.838613 9
59.303827 34.472123 -9.171884 9
59.802611 29.318708 -6.106866 9
59.767692 22.602159 -1.744959 9
66.834259 33.370114 -12.563975 5
69.313967 33.050214 -13.718053 5
71.727885 32.617991 -14.768204 5
74.151864 32.271051 -15.883473 5
76.510681 31.798168 -16.886277 5
78.857264 31.342232 -17.897790 5
81.190834 30.900724 -18.915914 5
83.483689 30.382411 -19.866590 5
85.749772 29.822833 -20.780375 5
88.018631 29.319937 -21.736579 5
90.254596 28.746076 -22.633355 5
92.471726 28.143919 -23.505913 5
94.673768 27.522479 -24.362107 5
96.855350 26.853349 -25.180717 5
99.040103 26.234339 -26.037635 5
100.713386 23.193235 -25.061382 5
103.350767 24.824522 -27.621703 5
105.458688 23.909896 -28.259582 5
107.490402 22.557948 -28.579504 5
109.462380 20.776900 -28.596297 5
111.362250 18.387864 -28.189076 5
113.270349 15.820946 -27.678245 5
115.221873 13.304958 -27.229909 5
117.333463 11.845823 -27.551510 6
119.487790 10.667699 -28.081397 6
121.629312 9.285376 -28.478852 6
123.786319 7.950324 -28.920220 6
125.940558 6.436572 -29.251383 6
128.108206 4.904439 -29.583690 6
130.280752 3.183104 -29.803840 6
132.467340 1.343616 -29.962423 6
134.667008 -0.754538 -29.969932 6
136.887937 -3.103903 -29.836148 6
139.134343 -5.964236 -29.399267 6
141.419925 -9.855400 -28.338649 6
143.797555 -18.081994 -24.594681 6
-14.318391 91.433556 -5.493326 3
-3.954885 97.051788 -14.628409 3
-8.028747 90.290933 -7.845728 3
0.717448 94.875928 -15.453489 3
4.276827 94.962385 -17.309121 3
7.267140 94.591511 -18.562546 3
8.595381 92.659428 -17.891905 3
9.898468 90.681993 -17.181073 3
8.858359 86.280224 -13.600917 1
11.693503 85.804989 -14.719593 1
11.777976 82.420217 -12.425415 1
10.442206 77.371544 -8.259626 1
11.336464 74.670078 -6.860491 1
12.124547 71.786662 -5.285905 1
14.928629 71.238160 -6.359506 1
15.867721 68.461546 -4.944982 1
16.536153 65.281033 -3.118011 4
16.884060 61.602042 -0.788154 4
16.738377 57.158403 2.316264 4
15.003145 50.405221 7.820422 4
15.794238 46.893422 9.790768 9
19.363710 47.252824 7.666865 9
22.796281 47.518235 5.674168 9
26.125508 47.728929 3.768501 9
29.321763 47.830950 2.002187 9
32.453563 47.921135 0.273563 9
35.424614 47.837453 -1.256687 9
38.334567 47.730038 -2.742789 9
41.140933 47.520318 -4.109039 9
43.684955 46.912911 -5.071682 9
46.021055 45.969926 -5.701631 9
48.267815 44.883841 -6.191852 9
50.378636 43.549020 -6.446403 9
52.535954 42.308568 -6.793678 9
54.640936 40.965162 -7.048119 9
56.762475 39.655665 -7.338616 9
58.890860 38.361046 -7.647176 9
59.747942 34.155103 -5.324906 9
59.770563 27.773583 -1.101669 9
59.754536 20.942546 3.436576 9
67.797296 34.167336 -9.796266 5
70.295213 33.869040 -10.992280 5
72.743728 33.504409 -12.121195 5
75.168019 33.134728 -13.237553 5
77.584394 32.805069 -14.380220 5
79.951640 32.391762 -15.444341 5
82.313518 32.021519 -16.538112 5
84.629306 31.562150 -17.551349 5
86.929880 31.106647 -18.562752 5
89.182669 30.535006 -19.474806 5
91.457596 30.094218 -20.489749 5
93.675255 29.484684 -21.365287 5
95.888932 28.901443 -22.260020 5
98.097194 28.340123 -23.170229 5
100.298929 27.796836 -24.092695 5
102.463740 27.122430 -24.912071 5
104.623493 26.456960 -25.738561 5
106.693669 25.329193 -26.214540 5
108.698486 23.786076 -26.384907 5
110.627260 21.667503 -26.138807 5
112.541513 19.261716 -25.700856 5
114.494281 16.892011 -25.313582 5
115.947508 10.206911 -21.818249 5
118.756179 14.449465 -26.262426 6
120.914172 13.381218 -26.859318 6
123.069398 12.230695 -27.405292 6
125.225537 11.007366 -27.908754 6
127.387273 9.741566 -28.392322 6
129.551298 8.350294 -28.799965 6
131.724778 6.895506 -29.176418 6
133.909065 5.355453 -29.508391 6
136.106410 3.709457 -29.783849 6
138.318567 1.862068 -29.941800 6
140.551875 -0.181252 -29.989768 6
142.812568 -2.485487 -29.889394 6
145.110941 -5.234045 -29.527794 6
147.469770 -8.840798 -28.649899 6
-9.819483 98.989785 -9.287415 2
-6.710178 98.430731 -10.482012 2
-3.599920 97.929397 -11.722435 2
-0.235955 97.709660 -13.298856 3
2.934785 97.387276 -14.706179 3
-1.226038 90.352205 -7.541452 3
7.216466 94.986754 -15.215746 3
10.401454 94.829520 -16.759495 3
11.626124 92.789016 -15.951126 3
12.629986 90.496263 -14.852766 3
11.896728 86.342755 -11.534724 1
12.502852 83.494119 -9.843263 1
11.642675 78.960844 -6.198619 1
11.574145 75.168621 -3.496011 1
12.972561 72.963294 -2.686099 1
14.784058 71.216966 -2.420643 1
16.456449 69.291358 -1.959990 1
16.908572 65.816101 0.228556 4
16.507644 61.140826 3.705213 4
5.858749 42.755532 22.208114 9
10.559818 44.299224 18.615855 9
14.835248 45.426511 15.536852 9
18.754403 46.196856 12.892752 9
22.409148 46.710911 10.564442 9
25.932623 47.144232 8.358568 9
29.269648 47.400306 6.371930 9
32.560827 47.685064 4.386061 9
35.641334 47.726500 2.678489 9
38.727237 47.865617 0.896434 9
41.526159 47.598737 -0.453365 9
44.125788 47.043761 -1.499957 9
46.464500 46.058249 -2.111578 9
48.732759 44.963303 -2.613431 9
50.885278 43.658381 -2.911577 9
53.014174 42.308920 -3.170277 9
55.205695 41.089990 -3.557140 9
57.355104 39.787386 -3.867525 9
59.518237 38.516237 -4.211165 9
59.798394 32.904135 -0.545767 9
59.754350 26.218857 4.028146 9
66.109504 34.963439 -5.501529 5
68.678572 34.743609 -6.805364 5
71.239478 34.577830 -8.145377 5
73.730419 34.299357 -9.373297 5
76.183724 33.984897 -10.559460 5
78.610619 33.661027 -11.728216 5
80.985252 33.243968 -12.808023 5
83.363190 32.898895 -13.942414 5
85.717039 32.540489 -15.057930 5
88.052121 32.183177 -16.167336 5
90.331723 31.689165 -17.156370 5
92.605379 31.227548 -18.167756 5
94.859825 30.746940 -19.159118 5
97.094328 30.238697 -20.124171 5
99.306166 29.683482 -21.048281 5
101.513676 29.158019 -21.993790 5
103.249001 26.302541 -21.098937 5
105.821501 27.702385 -23.561401 5
107.868837 26.409130 -23.908271 5
109.842964 24.615644 -23.879835 5
111.783444 22.468203 -23.597843 5
113.728204 20.150890 -23.208477 5
115.772743 18.359261 -23.235324 5
118.126129 19.014482 -25.091517 6
120.290052 18.214100 -25.862392 6
122.300122 15.823488 -25.479285 6
124.459221 14.786790 -26.097053 6
126.617921 13.684264 -26.674566 6
128.780490 12.545248 -27.234076 6
130.946279 11.330596 -27.749018 6
133.120247 10.094598 -28.258778 6
135.300478 8.749348 -28.703408 6
137.491169 7.320690 -29.102820 6
139.694614 5.765313 -29.429510 6
141.914933 4.110045 -29.704025 6
144.155486 2.339196 -29.918020 6
146.422710 0.306757 -29.977942 6
148.721992 -1.896686 -29.947819 6
-9.376192 103.092669 -8.683588 2
-5.217525 103.369139 -11.073358 2
-2.205657 102.792241 -12.238306 2
0.908239 102.357232 -13.564352 2
3.068196 101.147995 -13.824924 2
4.141332 98.982649 -12.817090 2
6.238868 97.730554 -13.020469 3
7.971315 96.150260 -12.795000 3
10.064796 94.918854 -13.018318 3
13.103167 94.643058 -14.441228 3
14.038911 92.288900 -13.240942 3
14.702507 89.606722 -11.661581 3
13.221775 84.563367 -7.232662 1
13.727996 81.523892 -5.318536 1
11.184432 74.961757 0.767812 1
13.160590 73.375871 0.837290 1
14.691602 71.260900 1.523149 1
16.643024 69.631134 1.629840 1
15.993255 64.737802 5.479637 4
-3.935988 29.781933 41.283604 9
1.526472 31.954394 36.746284 9
12.558502 42.116820 23.468142 9
17.224287 43.815330 19.696054 9
21.538158 45.184057 16.347521 9
25.379622 46.006648 13.642587 9
28.914469 46.489411 11.343708 9
32.402588 47.015024 9.036400 9
35.672779 47.301024 7.015412 9
36.565010 43.656136 9.087784 9
41.794285 47.462541 3.484538 9
42.649545 43.712351 5.643853 9
46.847371 46.022212 1.663422 9
49.067643 44.780790 1.285386 9
51.232977 43.440056 1.004148 9
53.424548 42.154692 0.665423 9
55.628693 40.900430 0.293948 9
57.848418 39.685874 -0.118001 9
58.771160 35.565763 2.235245 9
59.755392 31.395018 4.584880 9
59.782858 24.722247 9.223499 9
66.883660 35.290049 -2.216340 5
69.519368 35.198837 -3.669118 5
72.070898 34.969262 -4.980912 5
74.608153 34.777036 -6.314234 5
77.146471 34.668323 -7.709988 5
79.588495 34.357290 -8.913105 5
82.019141 34.082123 -10.138233 5
84.417864 33.777588 -11.328096 5
86.769227 33.384269 -12.432443 5
89.120179 33.055181 -13.584731 5
91.435416 32.664607 -14.677152 5
93.750563 32.340845 -15.819408 5
96.013623 31.876408 -16.837296 5
98.263855 31.416922 -17.854656 5
100.495832 30.935553 -18.849704 5
102.703640 30.396837 -19.794411 5
104.454764 27.547688 -18.876087 5
106.988320 28.767955 -21.236077 5
108.551490 24.566112 -19.279786 5
110.973916 25.323033 -21.260990 5
112.922227 23.107510 -20.912470 5
114.923283 21.061534 -20.716285 5
115.901892 10.544297 -14.072892 5
119.425020 20.715973 -23.216696 6
121.599995 20.025870 -24.070311 6
123.767117 19.287490 -24.889612 6
125.925366 18.463260 -25.648137 6
127.980032 16.128564 -25.308359 6
130.142796 15.089852 -25.929660 6
132.309496 14.022007 -26.537106 6
134.479349 12.870791 -27.092962 6
136.656240 11.673553 -27.625323 6
138.841829 10.428060 -28.133715 6
141.037448 9.057476 -28.566218 6
143.246754 7.651563 -28.986817 6
145.471675 6.168572 -29.368084 6
147.716716 4.531426 -29.659954 6
149.986862 2.736775 -29.863325 6
-8.827284 104.197920 -5.951717 2
-5.025423 104.160582 -7.976894 2
-1.284500 104.158902 -9.999085 2
1.997022 103.853123 -11.549189 2
4.568453 102.997025 -12.307875 2
5.675154 100.869711 -11.329348 2
6.751328 98.685774 -10.295422 2
9.139516 97.705010 -10.871604 3
10.805759 96.057831 -10.563605 3
12.542894 94.476084 -10.345982 3
14.758857 93.379269 -10.751913 3
15.691279 90.966408 -9.486375 3
13.960546 85.655743 -4.626215 1
14.450237 82.585414 -2.639859 1
10.957569 74.944199 4.897606 1
10.759193 70.794062 8.049621 1
14.471911 71.156760 5.725713 1
15.998024 68.958062 6.485847 1
7.617874 29.836307 39.660946 9
19.127326 41.376455 24.807740 9
23.905142 43.461256 20.600976 9
28.134693 44.905250 17.164205 9
31.944901 45.852989 14.320081 9
35.354335 46.285849 12.071711 9
38.782315 46.867115 9.701967 9
41.889707 47.011518 7.826325 9
44.555771 46.456744 6.702854 9
47.027001 45.593834 5.909102 9
49.286287 44.358601 5.501090 9
51.497071 43.037819 5.178856 9
53.733733 41.774320 4.797031 9
55.971524 40.520392 4.404127 9
58.188040 39.226881 4.048337 9
59.158220 35.117472 6.428021 9
59.720812 29.858999 9.863139 9
59.800734 23.149333 14.613259 9
67.518200 35.244886 1.467036 5
70.212781 35.250026 -0.113331 5
72.902050 35.337783 -1.753057 5
75.488404 35.240117 -3.203632 5
78.007716 35.036310 -4.542597 5
80.523930 34.905121 -5.934904 5
83.000739 34.737573 -7.281482 5
85.401245 34.403364 -8.467737 5
87.814179 34.184742 -9.746945 5
90.168526 33.837198 -10.903087 5
92.522760 33.561800 -12.113770 5
94.824464 33.156720 -13.204380 5
97.125025 32.815181 -14.342736 5
99.393114 32.405419 -15.416565 5
101.652468 32.024367 -16.508819 5
103.878728 31.552590 -17.520165 5
95.977317 -22.685385 25.660891 5
108.114046 29.580436 -18.693137 5
110.120126 27.907843 -18.731083 5
112.090883 25.890262 -18.506858 5
113.703086 21.152276 -16.143635 5
115.933795 20.505583 -17.054249 5
118.533765 23.029950 -20.435576 6
120.719164 22.400999 -21.337679 6
122.892107 21.696154 -22.181872 6
125.061472 20.985427 -23.023070 6
127.226865 20.255616 -23.851705 6
129.385178 19.441354 -24.619705 6
131.547167 18.689426 -25.437359 6
133.645281 16.406892 -25.138464 6
135.813452 15.350708 -25.752085 6
137.988603 14.320902 -26.392106 6
140.168784 13.172392 -26.954968 6
142.357933 11.978846 -27.495142 6
144.557887 10.724016 -28.002353 6
146.770790 9.407666 -28.477821 6
149.000170 7.985440 -28.892527 6
-9.705499 104.192759 -1.553110 2
-3.890450 105.716616 -5.937576 2
-2.242978 103.979043 -5.530420 2
1.755247 104.224329 -7.939679 2
5.291446 104.168508 -9.866231 2
7.227034 102.769533 -9.885357 2
8.276864 100.570910 -8.807519 2
9.356323 98.367103 -7.745255 2
12.103510 97.734991 -8.806804 3
13.139993 95.462395 -7.674408 3
14.992619 93.978889 -7.597913 3
16.365307 91.999199 -6.880942 3
14.372042 86.400440 -1.549798 1
14.613590 83.035910 0.839482 1
7.437362 71.224171 13.754493 1
10.893822 71.155143 11.848344 1
14.237564 71.038797 10.038247 1
16.884660 70.155849 9.193753 1
18.721896 68.298584 9.534494 1
15.119572 29.788032 40.232131 9
25.746068 40.790715 25.946754 9
30.525953 43.129210 21.451500 9
34.642224 44.602920 17.976705 9
38.371427 45.598909 15.076098 9
41.680060 46.008782 12.849351 9
44.503808 45.656547 11.463884 9
47.005270 44.770883 10.656359 9
49.305623 43.532165 10.223147 9
51.555127 42.203909 9.882338 9
53.816718 40.905669 9.509094 9
56.105397 39.671311 9.069714 9
58.375146 38.404936 8.661727 9
59.200836 33.854959 11.512113 9
59.819786 28.589129 15.006356 9
59.799806 21.476517 20.229037 9
68.079967 34.986535 5.419414 5
70.874398 35.188896 3.608156 5
73.595808 35.306579 1.899129 5
76.202232 35.206450 0.414774 5
78.862044 35.356909 -1.287756 5
81.396286 35.234152 -2.718684 5
83.916440 35.158089 -4.178358 5
86.366574 34.943552 -5.498011 5
88.812037 34.798276 -6.868438 5
91.204717 34.551496 -8.136097 5
93.562995 34.256041 -9.350549 5
95.904515 33.973255 -10.567116 5
98.207356 33.607770 -11.703042 5
100.508157 33.308998 -12.889287 5
102.770604 32.910711 -13.982792 5
105.005740 32.447449 -15.015389 5
107.132650 31.461099 -15.604618 5
109.196049 30.099776 -15.885513 5
111.172381 28.129394 -15.673633 5
113.169976 26.137371 -15.462213 5
115.219851 24.346412 -15.432079 5
117.590206 24.970910 -17.355835 6
119.787440 24.369551 -18.286086 6
121.986646 23.848776 -19.279048 6
124.165490 23.186282 -20.159620 6
126.343476 22.563058 -21.071166 6
128.513408 21.886511 -21.942071 6
130.678802 21.180368 -22.791729 6
132.840082 20.424481 -23.605805 6
135.000234 19.647246 -24.406755 6
137.162004 18.917753 -25.246359 6
139.321615 18.050555 -25.987908 6
141.478930 15.623668 -25.601387 6
143.662652 14.564365 -26.225266 6
145.855240 13.430309 -26.803748 6
148.057461 12.287139 -27.384888 6
-3.333150 109.840808 -5.564191 2
-1.413070 108.343802 -5.494161 2
0.282685 106.671564 -5.163054 2
2.005351 105.020526 -4.866392 2
3.754615 103.391666 -4.604752 2
8.025494 103.998052 -7.516172 2
9.774550 102.427687 -7.304919 2
10.961907 100.332944 -6.369630 2
12.138031 98.199382 -5.400588 2
13.634270 96.350705 -4.837549 3
14.505022 93.854391 -3.418939 3
15.579019 91.518688 -2.243545 3
14.110547 86.431518 2.508881 1
12.554423 81.058435 7.528540 1
7.245697 71.263153 18.105585 1
10.817853 71.276661 16.024211 1
14.104413 71.044595 14.293436 1
17.467970 70.984767 12.383374 1
22.550184 29.798327 40.705965 9
31.875984 39.484546 27.860707 9
36.907498 42.506882 22.594961 9
40.893854 43.968000 19.125869 9
44.033481 44.074198 17.179978 9
46.663953 43.325042 16.179552 9
49.065502 42.177980 15.612663 9
51.379753 40.875601 15.211970 9
53.673939 39.540163 14.845206 9
53.604788 33.146740 19.697945 9
56.016871 31.906996 19.182511 9
58.455476 30.740941 18.592697 9
59.711170 26.778784 20.812589 9
59.794186 19.734213 26.050959 9
68.428401 34.148184 10.017995 5
71.352998 34.608897 7.901867 5
74.167368 34.903883 5.973873 5
76.900680 35.092642 4.171799 5
79.617671 35.352001 2.323923 5
82.184058 35.267433 0.822396 5
84.781500 35.382544 -0.850296 5
87.264328 35.223797 -2.250919 5
89.746356 35.155833 -3.721697 5
92.173429 34.985371 -5.084944 5
94.584205 34.845854 -6.464044 5
96.955854 34.643867 -7.775156 5
99.278520 34.322123 -8.969408 5
101.595372 34.056977 -10.205015 5
103.886618 33.757805 -11.402107 5
106.091872 33.096863 -12.278840 5
108.212771 32.005354 -12.784939 5
110.242648 30.346107 -12.814039 5
111.791829 25.453014 -10.137064 5
114.277542 26.491727 -12.465746 5
115.919781 21.415080 -9.715839 5
118.815744 26.082690 -15.008752 6
121.041827 25.701297 -16.125688 6
123.239463 25.140106 -17.093648 6
125.426361 24.530430 -18.021482 6
127.613617 23.995344 -19.007747 6
129.787979 23.354812 -19.910136 6
131.961716 22.772069 -20.857823 6
134.126768 22.083624 -21.724102 6
136.289119 21.362239 -22.566883 6
138.450819 20.640856 -23.411968 6
140.611883 19.874818 -24.226165 6
142.773998 19.096940 -25.034954 6
144.939066 18.219107 -25.774051 6
147.142793 15.895052 -25.465528 6
149.337474 14.838480 -26.096290 6
-4.139097 109.895451 -1.232213 2
-0.412292 109.787411 -3.323158 2
2.774404 109.324383 -4.819871 2
4.477959 107.684194 -4.520528 2
6.117840 105.988361 -4.142257 2
7.593757 104.143397 -3.552488 2
10.489563 103.572371 -4.802779 2
12.577784 102.305020 -5.032379 2
12.551567 99.033401 -2.443210 2
13.117487 96.250764 -0.589534 3
14.908069 94.637224 -0.378628 3
14.672242 90.923935 2.674077 3
1.408528 73.241916 24.377510 1
29.873935 29.805581 41.155175 9
34.021558 31.105966 37.639059 9
42.736731 40.952445 24.745474 9
33.886408 18.359640 47.571072 9
44.034866 31.447628 31.297711 9
50.647364 38.391378 21.914755 9
52.963119 36.954323 21.611440 9
55.321175 35.609125 21.208839 9
57.667498 34.243770 20.826275 9
59.115186 30.803624 22.588738 9
58.306307 21.802682 30.011562 9
58.670359 15.148284 34.906513 9
68.421728 32.345758 15.687901 5
71.574249 33.293306 13.018103 5
74.554172 33.941404 10.682169 5
77.425550 34.433975 8.530118 5
80.213934 34.823957 6.505590 5
82.910423 35.065163 4.649604 5
85.554899 35.265168 2.854979 5
88.106037 35.270729 1.264928 5
90.634646 35.307064 -0.337158 5
93.115903 35.280237 -1.863798 5
95.558404 35.211039 -3.336239 5
97.949268 35.033985 -4.696253 5
100.328141 34.904760 -6.087779 5
102.663593 34.678670 -7.380365 5
104.945004 34.279582 -8.509074 5
107.142655 33.508262 -9.302829 5
109.240326 32.187863 -9.616190 5
111.247592 30.250469 -9.403295 5
113.272086 28.269010 -9.170019 5
115.385808 26.758708 -9.355619 5
117.788078 27.449941 -11.408298 6
120.032322 27.076142 -12.549611 6
122.256892 26.626483 -13.622878 6
124.476910 26.233955 -14.739258 6
126.682796 25.795240 -15.813749 6
128.873835 25.268991 -16.814319 6
131.055063 24.684018 -17.766170 6
133.234467 24.164290 -18.769025 6
135.404105 23.527391 -19.678573 6
137.571014 22.893062 -20.590704 6
139.734787 22.202665 -21.460413 6
141.897740 21.537295 -22.351068 6
144.059946 20.842203 -23.220944 6
146.223575 20.074313 -24.038580 6
148.390619 19.255764 -24.822164 6
-5.141895 109.817534 3.432160 2
-1.213671 109.810868 1.083330 2
2.699468 109.885237 -1.323895 2
5.839891 109.411840 -2.827645 2
7.221918 107.498160 -2.116582 2
7.319404 104.439575 0.286608 2
10.589633 104.165347 -1.461526 2
12.328464 102.544584 -1.206778 2
11.696522 98.664461 2.290193 2
12.654699 96.214462 3.677653 3
14.333963 94.442664 4.083547 3
13.740314 90.314758 7.750045 3
40.429288 29.808965 39.522252 9
45.779681 33.874758 32.992709 9
48.240533 32.464929 32.579969 9
50.429489 30.492705 32.777910 9
52.183579 27.543742 34.014980 9
52.474183 21.199743 38.839859 9
54.641072 18.873983 39.323289 9
56.862529 16.619070 39.714344 9
59.199072 14.595124 39.848981 9
67.061615 26.945012 25.199962 5
71.197332 30.292581 19.972514 5
74.640721 32.072324 16.411224 5
77.747473 33.122742 13.633022 5
80.663743 33.790671 11.273268 5
82.237957 30.318898 13.011727 5
86.214307 34.714082 7.049118 5
88.882070 35.037601 5.110254 5
91.479791 35.250361 3.300543 5
94.006997 35.328769 1.638863 5
96.483508 35.328025 0.069355 5
98.926340 35.304335 -1.462864 5
101.328731 35.218469 -2.922673 5
103.167148 32.499640 -1.959861 5
105.972857 34.588822 -5.386979 5
108.149695 33.611715 -6.010173 5
110.237082 32.101375 -6.160165 5
112.245838 29.998848 -5.797669 5
114.319359 28.154593 -5.681170 5
115.924728 22.574024 -2.338352 5
118.988701 28.303688 -8.796908 6
121.253348 28.053715 -10.058604 6
123.479564 27.558284 -11.105325 6
125.709527 27.210359 -12.272055 6
127.920570 26.761222 -13.349349 6
130.123627 26.324284 -14.433078 6
132.318768 25.899575 -15.523301 6
134.503371 25.417945 -16.564162 6
136.678514 24.833184 -17.520169 6
138.850870 24.313243 -18.527151 6
141.017718 23.686925 -19.449298 6
143.182529 23.036940 -20.353624 6
145.345282 22.437729 -21.298394 6
147.509715 21.700613 -22.138330 6
-20.018076 95.735675 28.281444 3
1.913204 109.884084 3.143078 2
5.664053 109.864223 0.849598 2
3.716758 105.085863 5.976492 2
6.381659 104.167362 5.087369 2
10.056435 104.197528 2.794672 2
11.460252 102.223124 3.547106 2
10.774565 98.246260 7.230853 2
12.204986 96.201777 8.020915 3
12.686692 93.183724 10.193669 3
12.771561 89.679769 13.008159 3
46.877416 28.577298 41.317631 9
49.287997 26.865039 41.176518 9
51.337260 24.351561 41.910087 9
72.575794 23.972182 28.704806 5
77.413707 29.782678 20.928657 5
80.746618 31.543182 17.377948 5
83.864522 32.882646 14.302343 5
86.727886 33.598707 11.890310 5
89.500257 34.178424 9.644665 5
92.184238 34.605262 7.577103 5
94.802663 34.940167 5.623924 5
97.354406 35.158106 3.806047 5
99.863684 35.341109 2.041890 5
102.291128 35.292864 0.514845 5
104.674075 35.150835 -0.909751 5
106.949606 34.555102 -1.901695 5
109.112789 33.374902 -2.352611 5
111.169605 31.508973 -2.184939 5
113.230961 29.526620 -1.928329 5
115.372968 27.949792 -2.051804 5
117.865914 29.049972 -4.556831 6
120.162432 28.848752 -5.889864 6
122.442218 28.648351 -7.214377 6
124.702567 28.412060 -8.499088 6
126.941289 28.088136 -9.700982 6
129.161215 27.664859 -10.812475 6
131.376406 27.325148 -11.989702 6
133.470610 24.475634 -11.073253 6
135.767907 26.427361 -14.148357 6
137.953396 26.022420 -15.258792 6
140.130158 25.531406 -16.296046 6
142.301477 24.986232 -17.287903 6
144.468985 24.436757 -18.275482 6
146.633490 23.871549 -19.250128 6
148.798840 23.201889 -20.143121 6
-20.732537 99.427499 30.298109 3
-18.156889 97.957554 29.907423 3
-15.605535 96.493839 29.525334 3
-13.046518 95.061407 29.110657 3
-10.208996 93.890468 28.299230 3
5.112423 103.624319 10.454102 2
8.604692 103.421566 8.414475 2
10.524018 101.854613 8.511336 2
6.429457 94.607624 17.169161 3
10.127118 94.618354 14.816691 3
12.307437 93.209170 14.612129 3
11.794543 89.049061 18.413912 3
83.555911 29.072710 22.077606 5
86.889724 31.175788 18.169396 5
89.942892 32.594454 15.007750 5
92.766331 33.407551 12.494435 5
95.493516 34.048266 10.184820 5
98.126638 34.490356 8.099173 5
100.694150 34.821287 6.146753 5
103.223140 35.145097 4.224036 5
105.619957 34.973609 2.795086 5
107.871857 34.126506 2.017009 5
109.997062 32.555189 1.917940 5
112.087711 30.671209 2.098012 5
114.169785 28.572784 2.459153 5
115.908218 23.658634 5.366268 5
119.017042 29.388285 -1.404258 6
121.332153 29.243258 -2.810889 6
123.627532 29.083468 -4.193698 6
125.905007 28.916675 -5.560272 6
128.159825 28.664936 -6.843225 6
130.405729 28.496084 -8.189931 6
132.626685 28.130137 -9.359061 6
134.837581 27.767744 -10.525794 6
137.040356 27.467738 -11.739883 6
139.229798 26.990950 -12.800803 6
141.413138 26.543441 -13.883125 6
143.590006 26.104219 -14.969301 6
145.761497 25.622431 -16.018158 6
147.928864 25.118154 -17.047067 6
-18.866207 101.643289 31.916526 3
-16.302908 100.169389 31.519604 3
-13.764391 98.701355 31.132618 3
-11.252249 97.236564 30.758857 3
-8.740872 95.795100 30.364554 3
-6.101960 94.488360 29.771284 3
-3.119998 93.517988 28.666908 3
0.739429 93.399877 26.263838 3
5.269546 94.008804 22.803287 3
9.195464 94.167452 20.118554 3
11.552156 92.870736 19.694648 3
10.741621 88.353935 24.076214 3
87.126364 18.813044 33.006208 5
93.031795 30.863620 18.895448 5
96.013125 32.344997 15.664850 5
98.809702 33.330344 12.975424 5
101.466382 33.927842 10.705923 5
104.053726 34.403508 8.584511 5
106.492381 34.306530 7.045214 5
108.714654 33.121244 6.569137 5
110.849394 31.375738 6.624010 5
112.219676 24.443606 11.572164 5
115.095890 27.314505 7.228151 5
117.742227 29.123135 3.934391 6
120.146059 29.399874 2.096334 6
122.492800 29.405425 0.524619 6
124.814052 29.373740 -0.999589 6
127.107711 29.251518 -2.429819 6
129.385697 29.160363 -3.876805 6
131.639216 28.946868 -5.205005 6
133.879176 28.751838 -6.540705 6
136.104183 28.532626 -7.846922 6
138.314275 28.221002 -9.066014 6
140.513762 27.889967 -10.262556 6
142.703742 27.564579 -11.458453 6
144.885846 27.148681 -12.573537 6
147.063528 26.643671 -13.611309 6
149.321092 23.790933 -12.719858 6
-19.599731 105.321860 33.956546 3
-17.027428 103.833955 33.548782 3
-14.476661 102.355562 33.146348 3
-11.960075 100.875600 32.767325 3
-9.450302 99.414388 32.375802 3
-6.938230 97.979407 31.959198 3
-4.460504 96.539578 31.568999 3
-1.971057 95.133569 31.140849 3
0.770905 93.982164 30.322035 3
3.923561 93.253839 28.860418 3
8.140753 93.613404 25.741301 3
10.497943 92.249015 25.362268 3
93.992277 19.788608 32.430339 5
99.126358 30.400711 19.768118 5
102.072084 32.113757 16.296772 5
104.770577 32.953689 13.748547 5
107.203791 32.625881 12.391082 5
109.461018 31.379268 11.948318 5
111.563041 29.116627 12.490511 5
113.658170 26.589686 13.265851 5
115.915447 24.997295 13.120926 5
118.801492 28.510019 8.125360 6
121.230194 28.813745 6.219812 6
123.627096 29.104142 4.346713 6
125.988202 29.317420 2.564064 6
128.313386 29.401585 0.917028 6
130.608964 29.372354 -0.612288 6
132.743687 26.400104 0.517309 6
135.138787 29.213027 -3.543748 6
137.374854 29.009763 -4.883703 6
139.597486 28.813472 -6.221183 6
141.807028 28.635719 -7.566437 6
144.004964 28.309425 -8.775677 6
146.194460 27.949961 -9.951028 6
148.372947 27.688943 -11.204801 6
-20.327756 109.016853 35.990692 3
-17.755716 107.507427 35.583969 3
-15.221837 105.995816 35.204962 3
-12.646205 104.540988 34.746701 3
-10.149374 103.051187 34.373055 3
-7.640708 101.594819 33.961341 3
-5.153870 100.144971 33.558471 3
-2.690653 98.698880 33.168130 3
-0.235043 97.269255 32.768088 3
2.197743 95.842015 32.381259 3
4.713217 94.514251 31.849271 3
7.568731 93.540329 30.770215 3
9.424822 91.624452 31.210918 3
101.226667 23.033340 29.509352 5
105.162204 29.626353 20.954955 5
107.675776 29.392632 19.441451 5
109.904106 27.567454 19.537497 5
111.939608 24.346825 21.005597 5
113.540164 17.610534 25.895899 5
119.754690 26.726570 13.536474 6
122.287175 27.689690 10.945081 6
124.746240 28.360895 8.663217 6
127.143254 28.734994 6.687709 6
129.506041 29.058106 4.780770 6
131.832793 29.246368 3.018167 6
134.132489 29.381016 1.321557 6
136.403627 29.323788 -0.185159 6
138.659071 29.373978 -1.776770 6
140.893633 29.218057 -3.171098 6
143.114052 29.062686 -4.556412 6
145.321477 28.871044 -5.900777 6
147.516712 28.678813 -7.236454 6
-21.070691 112.714978 38.047161 3
-18.472449 111.201663 37.606376 3
-15.915711 109.685960 37.196993 3
-13.388244 108.174617 36.804330 3
-10.851291 106.695495 36.375977 3
-8.365875 105.201839 35.997069 3
-5.867794 103.742137 35.578671 3
-3.366283 102.309938 35.133097 3
-0.918639 100.856969 34.744257 3
1.515726 99.415215 34.354717 3
3.939129 97.986049 33.961607 3
6.351461 96.568800 33.565613 3
8.755821 95.165832 33.162418 3
120.339609 21.144685 22.831130 6
123.212370 24.820768 17.486295 6
125.804765 26.520001 14.137625 6
128.281266 27.502945 11.522306 6
130.698577 28.265389 9.149214 6
133.057990 28.642709 7.167445 6
135.385632 28.959601 5.263000 6
137.683183 29.161012 3.484873 6
139.956923 29.372513 1.714283 6
142.207241 29.366173 0.158645 6
144.439139 29.420030 -1.438859 6
146.656661 29.296270 -2.864345 6
148.861025 29.153333 -4.263027 6
-21.811559 116.429380 40.105395 3
-19.184082 114.912395 39.625946 3
-16.641808 113.365240 39.236252 3
-14.112614 111.834238 38.841654 3
-11.571474 110.337184 38.407706 3
-9.022020 108.872447 37.938516 3
-6.546383 107.377145 37.551250 3
-4.077461 105.900240 37.152409 3
-1.612719 104.443640 36.738395 3
0.846933 103.006581 36.310566 3
3.265107 101.557222 35.924522 3
5.679863 100.126923 35.523897 3
8.083227 98.708312 35.121238 3
8.096495 95.031907 38.526286 3
129.342490 24.487382 18.219410 6
131.856718 26.183747 14.866424 6
134.283440 27.276012 12.139978 6
136.653686 28.045346 9.755564 6
138.980646 28.528217 7.669825 6
141.276245 28.906786 5.704190 6
143.545165 29.151617 3.882857 6
145.792160 29.298446 2.169096 6
148.020635 29.370051 0.539227 6
-22.514368 120.183366 42.119211 3
-19.925389 118.617862 41.690885 3
-17.365148 117.060417 41.277271 3
-14.791822 115.538218 40.821881 3
-12.279593 114.000109 40.427642 3
-9.751700 112.498296 39.988711 3
-7.247314 111.004790 39.560353 3
-4.759183 109.523942 39.133107 3
-2.303961 108.041716 38.732487 3
0.157795 106.588396 38.300828 3
2.573441 105.120348 37.918112 3
4.991062 103.676204 37.512419 3
7.390479 102.238325 37.115268 3
7.858054 99.040638 39.804946 3
135.482036 23.849600 19.256152 6
137.932739 25.939536 15.510519 6
140.303539 27.091164 12.721574 6
142.627951 27.869770 10.323988 6
144.916385 28.546260 8.050849 6
147.180719 28.832893 6.169311 6
-23.288885 123.909416 44.235671 3
-20.675314 122.334428 43.774934 3
-18.042264 120.800027 43.262050 3
-15.518520 119.223071 42.874410 3
-12.980830 117.680802 42.444444 3
-10.452130 116.158355 42.003790 3
-7.944586 114.646705 41.570312 3
-5.462401 113.141662 41.151211 3
-2.993654 111.650961 40.730006 3
-0.523412 110.185773 40.284635 3
1.884567 108.694623 39.912866 3
4.334899 107.261000 39.455174 3
6.731370 105.805215 39.061050 3
7.633424 103.039824 41.060274 3
141.665405 23.070287 20.440905 6
144.032319 25.521962 16.330853 6
146.344729 26.875835 13.339612 6
149.137070 12.140518 25.804989 6
-21.374279 126.099136 45.799013 3
-18.805632 124.500567 45.373618 3
-16.223978 122.937043 44.905872 3
-13.682843 121.374804 44.470436 3
-11.164555 119.823567 44.044026 3
-8.651794 118.294218 43.602491 3
-6.153691 116.780181 43.159351 3
-3.650519 115.295369 42.685606 3
-1.208495 113.790078 42.281443 3
1.213631 112.292713 41.886936 3
3.649389 110.829246 41.450530 3
6.046273 109.357177 41.054709 3
7.422926 107.029843 42.293178 3
147.935533 21.311698 22.603428 6
-22.140867 129.842065 47.925495 3
-19.524430 128.246502 47.434418 3
-16.965730 126.644794 46.998182 3
-14.382995 125.084958 46.503529 3
-11.846143 123.523670 46.049507 3
-9.325664 121.978091 45.595391 3
-6.838895 120.435587 45.167616 3
-4.353017 118.917566 44.718569 3
-1.893374 117.405721 44.286748 3
0.536936 115.896221 43.878437 3
2.981109 114.420955 43.427251 3
5.383247 112.936288 43.021419 3
7.176768 110.969528 43.586135 3
-22.846595 133.639119 49.981313 3
-20.259128 132.001736 49.529265 3
-17.655878 130.401248 49.029884 3
-15.094710 128.804276 48.564546 3
-12.559426 127.218676 48.111936 3
-10.022758 125.660619 47.633198 3
-7.533334 124.098420 47.200427 3
-5.050576 122.557038 46.754910 3
-2.578462 121.033537 46.302863 3
-0.118815 119.526190 45.847508 3
2.321748 118.029491 45.399851 3
4.719720 116.524206 44.998753 3
6.920099 114.883693 44.900456 3
-23.574450 137.444142 52.081258 3
-20.961943 135.794277 51.593477 3
-18.377759 134.157552 51.119644 3
-15.796984 132.546930 50.625276 3
-13.265947 130.935124 50.177657 3
-10.741623 129.345809 49.715943 3
-8.200241 127.793916 49.204573 3
-5.739844 126.216757 48.791144 3
-3.254305 124.681125 48.316907 3
-0.812407 123.140979 47.887557 3
1.627750 121.623866 47.439165 3
4.066438 120.130156 46.971075 3
6.474124 118.637367 46.531493 3
-24.498348 141.174854 54.468198 3
-21.672326 139.602939 53.683512 3
-19.084092 137.942405 53.202587 3
-16.491279 136.312679 52.689380 3
-13.950645 134.682270 52.226242 3
-11.409540 133.079238 51.737895 3
-8.905077 131.481462 51.279795 3
-6.401738 129.909233 50.799696 3
-3.923479 128.347283 50.334435 3
-1.454031 126.805192 49.859754 3
0.978187 125.263033 49.421298 3
3.415490 123.748808 48.952762 3
5.829323 122.242089 48.500453 3
-23.315501 142.982756 57.105581 3
-20.091005 141.597533 55.732010 3
-17.260835 140.058993 54.879118 3
-14.640933 138.444957 54.299327 3
-12.079551 136.828525 53.778876 3
-9.594717 135.196196 53.348300 3
-7.084276 133.604776 52.855472 3
-4.592899 132.028475 52.367861 3
-2.145075 130.450715 51.925076 3
0.300304 128.896199 51.463871 3
2.741486 127.363847 50.986915 3
5.160339 125.840829 50.524133 3
5.271791 122.652282 53.917460 3
-23.412447 144.189956 61.608012 3
-19.064263 143.319910 58.593670 3
-15.752628 142.012003 57.012843 3
-12.874580 140.529921 56.024844 3
-10.253795 138.946725 55.388257 3
-7.782720 137.309174 54.953412 3
-5.285681 135.712419 54.455157 3
-2.796352 134.137737 53.944773 3
-0.352578 132.560969 53.483359 3
2.081673 131.003079 53.014880 3
4.484556 129.448883 52.575963 3
5.051251 126.629100 55.214269 3
-26.143150 144.193393 70.061621 3
-19.777415 144.207032 64.073797 3
-14.912285 143.630717 60.161813 3
-11.480873 142.418415 58.314372 3
-8.566117 140.987637 57.202609 3
-5.941366 139.436563 56.503692 3
-3.458165 137.834913 56.000084 3
-1.014706 136.235866 55.536525 3
1.444259 134.671806 55.024744 3
3.843619 133.095282 54.588468 3
4.770779 130.552945 56.625273 3
-29.056421 144.183904 79.034621 3
-22.432722 144.203635 72.626729 3
-16.210222 144.200164 66.639004 3
-10.883930 143.900256 61.861013 3
-7.334217 142.784296 59.736347 3
-4.337587 141.429432 58.424709 3
-1.679025 139.927219 57.613998 3
0.790347 138.346277 57.082114 3
3.216157 136.765148 56.598629 3
4.538716 134.500481 57.969225 3
-25.253958 144.193141 81.689459 3
-18.768644 144.201183 75.263227 3
-12.650907 144.197709 69.221683 3
-6.995162 144.116629 63.735100 3
-3.221243 143.156317 61.147182 3
-0.154026 141.873434 59.643208 3
2.518259 140.409241 58.749262 3
4.280069 138.423156 59.375076 3
-28.197698 144.202453 91.218330 3
-21.499803 144.189599 84.422912 3
-15.136290 144.191945 77.957741 3
-9.099042 144.199663 71.825654 3
-3.394010 144.195365 66.052922 3
0.793049 143.497735 62.660341 3
3.933051 142.289055 60.951258 3
-31.362114 144.193132 101.392240 3
-24.348897 144.198439 94.055428 3
-17.738757 144.198968 87.155139 3
-11.472520 144.207194 80.613524 3
-5.559707 144.203035 74.464407 3
0.048362 144.197161 68.643273 3
2.737504 142.671101 67.739624 3
-34.691100 144.199111 112.151839 3
-27.381859 144.203196 104.292398 3
-20.518355 144.195574 96.936992 3
-14.018435 144.197524 89.969915 3
-7.874358 144.197139 83.396949 3
-2.041015 144.202827 77.158439 3
1.410429 143.024956 74.966603 3
0.319262 139.235242 80.931565 3
-37.515101 144.520497 122.413050 0
-30.623215 144.200865 115.205350 3
-23.466511 144.193568 107.318106 3
-16.700316 144.196085 99.860459 3
-10.312400 144.197402 92.832078 3
-4.281680 144.191496 86.216592 3
0.016361 143.392041 82.538076 3
-1.115053 139.537349 88.774404 3
-38.584717 145.681507 130.024717 0
-32.095224 145.084107 123.428404 0
-26.578479 144.203102 118.320470 3
-19.547361 144.195486 110.363773 3
-12.884061 144.204878 102.813656 3
-6.629992 144.192964 95.766327 3
-1.423070 143.788282 90.431462 3
-2.628963 139.848323 97.016412 3
-41.289729 146.220172 140.680910 0
-34.500738 145.625916 133.535400 0
-26.706919 145.672137 124.374395 0
-22.580064 144.193942 121.548443 3
-15.631463 144.205439 113.447074 3
-9.113412 144.198905 105.884042 3
-2.941161 144.199307 98.726047 3
-4.207403 140.181264 105.649512 3
-44.377176 146.697797 152.351926 0
-38.503118 145.571653 146.820711 0
-30.491397 145.546236 137.230153 0
-22.648227 145.676889 127.643310 0
-18.559376 144.205201 124.775721 3
-11.767856 144.198017 116.667934 3
-5.336944 144.203526 108.987611 3
-5.883679 140.522115 114.759604 3
-42.513899 145.636242 160.573439 0
-33.989949 145.661220 149.996840 0
-26.246663 145.582100 140.548134 0
-18.643016 145.666374 131.057998 0
-13.865623 144.564232 126.741266 0
-7.906414 144.197142 119.945228 3
-7.646250 140.882860 124.349400 3
-6.956723 137.723792 128.021959 0
-46.915702 145.669139 175.526602 0
-38.243288 145.567720 164.628321 0
-29.877797 145.586889 153.965984 0
-20.484131 146.344965 140.949502 0
-14.683141 145.642360 134.620982 0
-8.674700 145.206359 127.659638 0
-6.390598 142.940573 128.086933 0
-7.775283 138.616411 136.166631 0
-50.166955 146.302327 188.820877 0
-42.504205 145.606830 179.792139 0
-31.465471 146.610083 163.856296 0
-25.454113 145.663410 157.401586 0
-17.837470 145.652144 147.481515 0
-8.687653 146.654641 134.071808 0
-8.154549 143.419675 138.223384 0
-9.783188 138.908626 147.113685 0
-47.141586 145.634628 196.239418 0
-35.712719 146.575817 179.393737 0
-29.263735 145.654661 172.107316 0
-21.289180 145.631632 161.422540 0
-13.668929 145.685773 151.116444 0
-10.178301 143.842660 149.274326 0
-11.901709 139.223915 158.697024 0
-52.163430 145.666944 214.058694 0
-42.499597 145.623270 200.684119 0
-31.277320 146.569324 183.628900 0
-24.929788 145.645816 176.277912 0
-16.991296 145.671678 165.259186 0
-12.313458 144.297078 160.970809 0
-14.176694 139.545536 171.055153 0
-56.205174 146.251694 230.530673 0
-47.444662 145.629102 218.954519 0
-36.006742 146.418482 201.314360 0
-28.861815 145.660726 192.320674 0
-20.582880 145.651907 180.528034 0
-14.603124 144.769643 173.446412 0
-16.559351 139.908686 184.123399 0
-53.022803 145.560448 239.267491 0
-42.708473 145.609558 223.948075 0
