ply
format ascii 1.0
element vertex 1390
property float x
property float y
property float z
property int scalar_Label
end_header
-30.312668 54.319987 5.225128 9
-26.291317 54.429665 4.521755 9
-22.182788 54.509543 3.798499 9
-17.978870 54.554346 3.053053 9
-23.339710 65.909788 5.840439 1
-23.225603 70.600458 6.575757 1
-23.165543 75.249444 7.314532 1
-22.587783 79.225151 7.852774 1
-21.249779 82.302523 8.110860 1
-23.937710 89.619881 9.772223 3
-22.194538 92.115901 9.865147 3
-18.136912 92.231224 9.161318 3
-16.908957 95.257892 9.432810 3
-9.901363 92.574564 7.751982 3
-8.236502 95.223444 7.885575 3
-8.871737 100.025825 8.777545 2
-8.225501 103.541335 9.233641 2
-4.491108 104.204730 8.679068 2
9.014674 96.241270 4.990153 2
4.739928 104.178905 7.039102 2
11.265816 102.669497 5.637942 2
27.504661 93.179960 1.218156 3
31.090672 94.548616 0.807280 3
32.979081 97.330627 0.927664 3
34.708128 100.231053 1.096090 3
36.411636 103.139899 1.270951 3
38.150485 106.010938 1.433941 3
39.900356 108.864842 1.592732 3
41.582117 111.760510 1.770918 3
43.291270 114.627907 1.940190 3
45.006886 117.483747 2.106976 3
46.660106 120.376131 2.291289 3
48.372686 123.221993 2.458062 3
50.068913 126.074163 2.629294 3
51.811275 128.892836 2.787449 3
53.512693 131.735161 2.957238 3
55.197318 134.585442 3.131832 3
56.910909 137.416384 3.298697 3
58.666290 140.222390 3.454659 3
61.197784 142.586096 3.402012 3
65.270112 144.111327 2.941230 3
72.081838 144.203817 1.764028 3
79.318074 144.201584 0.497383 3
86.838997 144.191996 -0.819718 3
94.627866 144.192679 -2.181388 3
102.702418 144.203210 -3.590767 3
111.135546 144.197253 -5.064935 3
119.881686 144.207711 -6.590423 3
127.715805 144.806923 -7.857950 0
135.272176 145.676991 -9.031192 0
145.121981 145.686523 -10.747514 0
155.412402 145.700329 -12.539289 0
166.236896 145.693411 -14.426946 0
177.607581 145.677514 -16.410582 0
189.466593 145.692010 -18.473472 0
202.034880 145.667941 -20.665600 0
215.161328 145.682744 -22.947611 0
229.034838 145.685777 -25.360824 0
-151.716262 -19.203511 19.626448 7
-148.472691 -18.674439 19.111208 7
-144.959640 -19.148598 18.400833 7
-151.532588 17.607160 24.981889 7
-148.566293 17.900254 24.485220 7
-145.643260 18.382764 24.024992 7
-142.696993 18.817797 23.554396 7
-139.736051 19.239527 23.080002 7
-136.753458 19.629850 22.597894 7
-133.757482 20.018503 22.113940 7
-130.747173 20.404951 21.627893 7
-127.733895 20.823242 21.146815 7
-124.667945 21.137530 20.641776 7
-121.592189 21.471948 20.138764 7
-118.500510 21.811137 19.634424 7
-115.795900 23.159778 19.349112 8
-113.543604 25.594396 19.305796 8
-111.272351 27.918354 19.243577 8
-108.735933 29.576540 19.036496 8
-105.866190 30.469444 18.657686 8
-102.730396 30.803327 18.149639 8
-99.519837 31.027717 17.612919 8
-96.264530 31.214801 17.063559 8
-93.015728 31.472750 16.526694 8
-89.732830 31.718586 15.982832 8
-86.439508 32.000702 15.443357 8
-83.087749 32.228496 14.886337 8
-79.684444 32.420434 14.315743 8
-76.245647 32.609840 13.739377 8
-72.744854 32.752643 13.146024 8
-69.217293 32.914444 12.551667 8
-65.898535 33.490430 12.056622 9
-65.266515 38.511310 12.697106 9
-64.247580 42.767866 13.156455 9
-61.712628 44.538886 12.979773 9
-59.147513 46.260661 12.791298 9
-56.543522 47.924206 12.588163 9
-53.997667 49.676735 12.409348 9
-51.299886 51.211539 12.172263 9
-48.356805 52.411579 11.843100 9
-45.071946 53.165570 11.388389 9
-41.451537 53.510779 10.814836 9
-37.587140 53.595301 10.160634 9
-33.698288 53.722111 9.509471 9
-29.783700 53.889644 8.860909 9
-25.766222 54.001954 8.187153 9
-21.675814 54.101579 7.499825 9
-17.436619 54.101245 6.772670 9
-22.625330 65.244530 9.356731 1
-22.609034 70.046957 10.085370 1
-21.333670 73.323254 10.366997 1
-17.097335 73.280479 9.637365 1
-6.089461 65.984580 6.645496 1
-21.653582 87.286191 12.555717 3
-21.195082 91.154370 13.070418 3
-17.891822 92.048107 12.646335 3
-15.083282 93.484137 12.390316 3
-12.525468 95.193296 12.219622 3
-8.508193 95.515090 11.589010 3
-3.753968 95.214024 10.738553 3
-5.639593 101.154675 11.974248 2
-3.448774 103.253479 11.929000 2
0.434291 103.853080 11.367268 2
5.342608 103.624399 10.505353 2
22.800007 92.772268 5.884738 3
27.486968 93.139187 5.154235 3
31.354757 94.264063 4.680080 3
33.402117 96.910922 4.749241 3
35.145058 99.795870 4.907461 3
36.822094 102.720965 5.083896 3
38.570085 105.580537 5.239131 3
40.293043 108.450068 5.401019 3
41.967400 111.346481 5.576144 3
43.692442 114.197892 5.736661 3
45.400926 117.054321 5.901633 3
47.067777 119.933022 6.077948 3
48.795573 122.764555 6.237599 3
50.485389 125.617027 6.407772 3
-151.687026 -17.067902 23.815164 7
-148.961963 -14.596985 23.659570 7
-145.433933 -15.304802 22.931244 7
-149.587062 12.214702 27.399849 7
-146.718467 13.032322 26.998419 7
-143.854664 13.871288 26.601888 7
-140.963366 14.625356 26.190097 7
-138.047246 15.313452 25.766094 7
-135.459919 17.028316 25.541022 7
-132.461614 17.477365 25.072276 7
-129.456149 17.941574 24.605481 7
-126.428431 18.379468 24.132335 7
-123.377591 18.793013 23.652959 7
-120.284829 19.136921 23.157884 7
-117.198276 19.541931 22.673404 7
-114.858413 21.841556 22.579655 8
-112.645583 24.387159 22.542891 8
-110.352341 26.672583 22.457633 8
-106.474480 25.281119 21.593901 8
-104.757103 28.836782 21.785216 8
-101.589722 29.131650 21.278538 8
-98.391563 29.412550 20.765779 8
-95.199786 29.759140 20.264334 8
-91.928887 29.996562 19.735387 8
-88.668426 30.310525 19.219974 8
-85.361069 30.587712 18.692618 8
-82.011979 30.842378 18.156190 8
-78.600044 31.039513 17.602249 8
-75.171048 31.266978 17.050804 8
-71.747156 31.563591 16.511037 8
-68.220361 31.742380 15.938618 8
-65.900454 34.001099 15.861626 9
-64.305378 37.417960 16.069952 9
-63.568752 42.131928 16.605532 9
-60.960528 43.788910 16.399390 9
-58.437239 45.577831 16.227193 9
-53.842469 44.259764 15.272702 9
-53.286553 48.996109 15.846490 9
-50.625588 50.585752 15.626786 9
-47.665678 51.763339 15.300320 9
-44.293352 52.398958 14.829869 9
-40.610216 52.664439 14.256632 9
-36.792730 52.817722 13.646429 9
-32.948722 53.007746 13.038263 9
-28.969898 53.097289 12.394768 9
-24.971450 53.238324 11.756599 9
-20.925004 53.395871 11.114124 9
-16.815049 53.553121 10.462422 9
-14.455716 55.839588 10.403723 4
-18.888188 65.925920 12.576034 4
-17.871271 69.561629 12.932888 1
-14.676132 70.731910 12.581029 1
-10.274578 70.633124 11.851085 1
-7.707757 72.570768 11.714547 1
-7.027456 76.482895 12.170871 1
-9.747155 83.800277 13.672474 1
-11.461224 89.912850 14.837766 3
-9.823464 92.583266 14.962596 3
-6.068089 93.196772 14.447656 3
-3.999660 95.463871 14.446662 3
-0.284448 96.206108 13.959335 3
4.324489 96.196738 13.219749 3
12.377161 93.214858 11.493653 3
17.277035 93.190416 10.707742 3
22.700128 92.814669 9.787801 3
27.502445 93.070900 9.061353 3
31.614253 93.983467 8.543136 3
33.819608 96.495803 8.566191 3
35.566182 99.373283 8.717527 3
38.637476 101.216261 8.506370 3
147.351367 23.081489 -20.336773 6
-149.998046 -8.428164 28.455270 7
-149.763976 3.059683 29.840848 7
-147.087923 4.866398 29.595339 7
-144.352013 6.396106 29.306380 7
-141.573493 7.737934 28.988077 7
-138.747483 8.896844 28.640188 7
-135.900346 9.975954 28.280165 7
-133.021296 10.951804 27.903204 7
-130.145817 11.940761 27.530003 7
-127.217977 12.783153 27.130907 7
-124.267039 13.575220 26.723026 7
-121.314779 14.381853 26.318252 7
-118.331836 15.126716 25.901962 7
-115.908226 17.316817 25.764684 8
-113.779300 20.179237 25.763875 8
-111.667968 22.993542 25.761472 8
-109.234332 24.968561 25.599812 8
-106.495503 26.209762 25.295127 8
-103.456044 26.784997 24.856790 8
-100.310860 27.167958 24.377742 8
-97.127359 27.517018 23.889448 8
-93.888648 27.801850 23.385234 8
-90.653819 28.147681 22.890956 8
-87.352283 28.413847 22.376906 8
-84.073369 28.778831 21.880779 8
-80.744043 29.101323 21.372380 8
-77.362718 29.383345 20.851726 8
-73.955999 29.677145 20.329942 8
-70.512615 29.964357 19.802830 8
-67.052276 30.281117 19.278309 8
-65.803369 34.343012 19.601450 9
-65.186421 39.331292 20.149250 9
-62.661086 41.131309 19.974059 9
-60.163431 42.969499 19.809844 9
-57.586509 44.680894 19.617787 9
-55.080288 46.498810 19.452577 9
-52.498495 48.203271 19.261863 9
-49.756722 49.681140 19.017249 9
-46.718935 50.756256 18.673791 9
-43.284558 51.316089 18.200607 9
-39.530683 51.497608 17.628095 9
-35.777005 51.748271 17.066318 9
-31.956113 51.979080 16.492814 9
-28.034196 52.150768 15.897046 9
-24.055262 52.324115 15.294090 9
-20.070408 52.563938 14.700677 9
-15.887591 52.639488 14.055804 9
-11.893766 53.016453 13.482591 4
-11.355545 57.431696 13.993969 4
-15.740511 67.303281 16.009786 1
-14.506216 70.670986 16.274541 1
-10.169939 70.633078 15.598359 1
-5.855410 70.703625 14.941847 1
-1.976953 71.310701 14.427280 1
-0.746146 74.683243 14.699500 1
3.659906 74.835517 14.044804 1
-1.584791 84.540926 16.181558 1
0.035438 87.353909 16.321986 1
4.117440 87.823175 15.765142 1
45.115280 54.210820 4.877942 9
54.245251 50.907557 3.034688 9
74.355331 38.074596 -1.795302 5
80.412478 38.108270 -2.705100 5
86.814875 37.963916 -3.689875 5
93.309730 37.868832 -4.679651 5
99.943460 37.787325 -5.686344 5
113.184571 32.515923 -8.412677 5
124.678818 28.962885 -10.632791 6
132.528111 28.506399 -11.867919 6
140.867366 27.837756 -13.203967 6
149.381508 27.210863 -14.557825 6
-131.977278 -0.890684 29.980035 7
-129.648458 2.089529 29.925444 7
-127.022018 4.072370 29.708386 7
-124.304054 5.738209 29.441478 7
-121.504614 7.144558 29.132993 7
-118.652156 8.391965 28.799237 7
-116.538002 11.558328 28.811461 8
-114.575656 14.996941 28.882195 8
-112.595059 18.266513 28.932220 8
-110.404311 20.920922 28.878144 8
-107.904132 22.777792 28.682430 8
-105.062904 23.828326 28.338843 8
-101.918805 24.220156 27.870817 8
-98.735467 24.573379 27.393710 8
-95.548258 24.967178 26.922548 8
-92.403652 25.495856 26.475927 8
-89.154421 25.856802 25.994555 8
-85.906458 26.270789 25.521478 8
-82.607838 26.636947 25.036487 8
-79.292399 27.023622 24.553093 8
-75.901708 27.324964 24.049463 8
-72.513781 27.687629 23.555435 8
-69.076289 28.018505 23.051658 8
-65.932752 28.906278 22.662647 9
-64.868907 33.288370 23.020853 9
-64.140732 38.099351 23.485020 9
-61.680363 40.016116 23.332198 9
-59.166428 41.839556 23.161632 9
-56.661071 43.671274 22.995254 9
-54.139414 45.474489 22.824750 9
-51.603158 47.254386 22.651013 9
-48.796467 48.646738 22.390299 9
-45.671796 49.609619 22.030199 9
-42.097987 49.990237 21.531958 9
-38.371102 50.224501 20.994285 9
-34.637278 50.516391 20.464550 9
-30.798524 50.738092 19.912155 9
-26.881678 50.930233 19.346223 9
-22.928716 51.149251 18.780128 9
-18.909777 51.359780 18.205020 9
-14.766338 51.495072 17.603843 9
-10.689556 51.786035 17.034103 9
-7.200995 52.825001 16.647896 4
-6.331169 56.855981 17.029352 4
-12.209789 68.263127 19.343581 1
-10.354175 70.945131 19.412419 1
-6.005967 70.962685 18.777669 1
3.382619 65.820322 16.747414 1
4.139606 69.770082 17.144935 1
25.333661 53.209622 11.931619 9
30.215713 53.384782 11.247451 9
35.177609 53.574573 10.555771 9
40.317939 53.688777 9.830695 9
45.821262 53.564801 9.024544 9
55.485339 49.775439 7.144401 9
74.297375 38.103421 2.923646 5
80.365210 38.111531 2.061037 5
86.581393 38.110223 1.178507 5
92.944716 38.105996 0.277172 5
99.436900 38.119160 -0.637598 5
106.373781 37.899596 -1.643659 5
122.613734 30.473370 -4.921410 6
130.010076 30.317986 -5.978210 6
137.846419 29.974387 -7.119297 6
145.731672 29.751049 -8.248214 6
-117.016411 -3.990455 30.917511 8
-115.000747 -0.198033 30.984237 8
-114.328561 6.934294 31.620711 8
-112.546857 10.933524 31.751554 8
-110.806836 14.881715 31.885971 8
-108.821737 18.097742 31.906131 8
-106.420594 20.241946 31.748778 8
-103.585620 21.357849 31.415642 8
-100.374283 21.651988 30.937744 8
-96.967922 21.577925 30.392009 8
-93.847499 22.173837 29.964933 8
-90.667770 22.686424 29.521823 8
-87.403302 23.072702 29.054113 8
-84.156612 23.543385 28.600443 8
-79.015841 20.454521 27.471419 8
-77.507793 24.334057 27.659384 8
-74.171775 24.784858 27.196405 8
-70.822030 25.261286 26.736340 8
-67.397318 25.657238 26.258289 8
-65.881589 29.349491 26.433597 9
-65.382261 34.641212 26.940711 9
-62.993336 36.704909 26.809324 9
-60.503699 38.591574 26.645430 9
-58.083849 40.578632 26.505309 9
-55.596812 42.451867 26.344698 9
-53.059659 44.244674 26.169856 9
-50.506251 46.012407 25.991991 9
-47.609580 47.289587 25.710595 9
-44.352128 48.082713 25.323841 9
-40.684212 48.354447 24.820263 9
-36.990314 48.655586 24.318469 9
-33.244946 48.953076 23.811033 9
-29.423525 49.217717 23.291102 9
-25.501567 49.422852 22.752134 9
-21.584572 49.705475 22.225099 9
-17.587442 49.960019 21.685669 9
-13.506389 50.186184 21.133318 9
-9.419800 50.479994 20.590408 9
-5.196882 50.690206 20.020812 9
-0.895986 50.890070 19.441401 9
3.457639 51.110929 18.859468 9
7.858158 51.360846 18.276840 9
-3.095478 67.974752 21.778652 1
16.973844 51.772273 17.064651 9
21.673835 51.958863 16.440313 9
26.360478 52.246178 15.832430 9
31.281051 52.389239 15.177562 9
36.296607 52.533471 14.512404 9
41.387449 52.701059 13.842412 9
46.994328 52.486691 13.058296 9
58.309712 47.206101 10.882931 9
74.929147 37.518818 7.452395 5
80.913094 37.595866 6.661728 5
86.947857 37.743768 5.875952 5
93.151833 37.863903 5.067057 5
99.559788 37.934214 4.227755 5
106.211946 37.930333 3.349750 5
122.041283 30.806850 0.363121 6
129.090798 30.894433 -0.549438 6
136.515516 30.832033 -1.527147 6
144.139664 30.765471 -2.528229 6
-111.543062 -8.208477 33.454469 8
-111.641245 1.105462 34.345142 8
-110.544577 6.963188 34.724558 8
-108.898124 11.222892 34.869309 8
-106.749069 14.124140 34.809363 8
-104.110656 15.804591 34.559801 8
-101.094273 16.610942 34.170896 8
-98.048641 17.378284 33.776274 8
-94.996362 18.159684 33.384506 8
-91.882982 18.841868 32.976386 8
-88.781696 19.583127 32.578349 8
-85.621091 20.238704 32.165573 8
-82.422737 20.858325 31.746165 8
-79.215560 21.501222 31.330267 8
-75.798163 21.793850 30.851239 8
-72.137055 21.701184 30.300693 8
-68.777336 22.217595 29.857446 8
-65.833346 23.503016 29.554208 9
-64.329873 27.245838 29.709091 9
-64.083967 32.983552 30.249158 9
-61.699149 35.075761 30.115712 9
-59.255856 37.057422 29.965220 9
-56.866676 39.111256 29.832339 9
-54.399663 41.032741 29.677409 9
-51.930626 42.943834 29.523659 9
-49.184562 44.444751 29.291164 9
-46.194202 45.608368 28.992046 9
-42.758857 46.175522 28.571373 9
-39.139228 46.541559 28.106644 9
-35.422882 46.838368 27.623831 9
-31.680706 47.165726 27.143243 9
-27.885757 47.489380 26.657613 9
-24.036703 47.810233 26.166903 9
-19.991094 47.954169 25.633232 9
-16.010068 48.251668 25.127392 9
-11.968847 48.547632 24.615940 9
-7.841134 48.814023 24.092373 9
-3.677551 49.113267 23.570288 9
0.616554 49.339825 23.025644 9
4.986222 49.561301 22.473190 9
9.429209 49.783360 21.913910 9
13.902441 50.054660 21.358907 9
18.378566 50.403893 20.815013 9
23.108632 50.573714 20.220886 9
27.843594 50.826673 19.638333 9
32.679557 51.067142 19.044245 9
37.593679 51.321243 18.444595 9
42.625670 51.554280 17.830432 9
48.854081 50.773382 16.950840 9
61.826183 44.008795 14.530813 9
76.015138 36.530139 11.877815 5
81.866412 36.726546 11.168398 5
87.871714 36.900633 10.440400 5
94.041445 37.049616 9.692301 5
100.278823 37.259366 8.946360 5
107.366936 36.900123 8.031162 5
122.421690 30.388276 5.404868 6
129.382795 30.533988 4.572780 6
136.585505 30.628028 3.708605 6
144.014467 30.690904 2.816829 6
-107.360559 0.057065 37.359686 8
-105.797989 4.682269 37.510592 8
-103.349702 7.026660 37.337744 8
-100.531993 8.461974 37.035106 8
-97.667717 9.785930 36.718925 8
-94.731095 10.951737 36.381355 8
-91.743114 12.017472 36.030494 8
-88.747542 13.083267 35.681434 8
-85.690151 14.040232 35.316801 8
-82.598207 14.951847 34.946107 8
-79.440643 15.762620 34.560010 8
-76.264087 16.569564 34.173771 8
-73.064828 17.367765 33.786443 8
-69.835019 18.145321 33.395875 8
-66.532036 18.829933 32.989604 8
-65.183533 22.937220 33.168335 9
-64.852400 28.658348 33.637885 9
-62.554702 30.948232 33.525798 9
-60.196857 33.113905 33.396972 9
-57.832520 35.248929 33.267334 9
-55.456823 37.348354 33.135750 9
-53.094609 39.452843 33.009348 9
-50.550645 41.272316 32.834712 9
-47.681170 42.615603 32.574607 9
-44.526783 43.570801 32.242749 9
-41.033233 44.087035 31.827126 9
-37.340823 44.384806 31.367302 9
-33.611563 44.696871 30.906901 9
-29.849986 45.030653 30.447281 9
-26.009433 45.327022 29.976705 9
-22.096753 45.599225 29.497403 9
-18.181577 45.937443 29.027216 9
-14.211994 46.277242 28.553219 9
-10.175018 46.605577 28.072526 9
-6.046759 46.897786 27.579720 9
-1.910778 47.254337 27.095446 9
2.368676 47.521736 26.587306 9
6.709925 47.797879 26.075463 9
11.202986 47.987902 25.539165 9
15.677118 48.280678 25.018894 9
20.217090 48.585320 24.494961 9
24.838620 48.888231 23.964116 9
29.515030 49.219370 23.432800 9
34.413557 49.416407 22.863869 9
39.354964 49.662783 22.298303 9
44.502791 49.804998 21.700347 9
51.785247 48.069039 20.651317 9
71.936384 34.829493 16.847108 5
77.623072 35.077024 16.207316 5
83.453756 35.303980 15.552113 5
89.415999 35.526601 14.884838 5
95.535342 35.728293 14.200819 5
105.425761 32.942665 12.754647 5
117.332799 28.765075 10.925776 6
124.011701 29.013715 10.194557 6
130.712477 29.369764 9.477034 6
137.689627 29.639132 8.722519 6
145.098209 29.717257 7.901753 6
-85.768855 0.104419 37.996195 8
-83.467181 2.891199 37.880932 8
-80.845598 4.965011 37.669244 8
-78.036502 6.639529 37.403835 8
-75.136200 8.130129 37.114806 8
-72.134002 9.430501 36.800180 8
-69.068327 10.625931 36.471934 8
-65.958362 11.759571 36.136107 8
-65.156925 16.991026 36.442729 9
-65.238300 23.588851 36.981073 9
-63.100232 26.222742 36.906292 9
-60.791118 28.531848 36.785696 9
-58.509778 30.858852 36.673485 9
-56.256941 33.204338 36.569782 9
-53.953799 35.445585 36.454139 9
-51.523423 37.472936 36.307437 9
-48.850556 39.129033 36.101634 9
-45.905597 40.394438 35.831295 9
-42.457103 40.964194 35.441112 9
-38.865770 41.385742 35.023449 9
-35.259792 41.845480 34.610474 9
-31.498474 42.154595 34.168341 9
-27.716948 42.501888 33.730312 9
-23.884098 42.847353 33.289103 9
-20.017887 43.216154 32.849197 9
-16.125148 43.617795 32.412333 9
-12.091072 43.913401 31.952256 9
-8.026204 44.243238 31.494962 9
-3.886388 44.556385 31.030624 9
0.284033 44.907228 30.569549 9
4.544839 45.229194 30.098633 9
8.860917 45.565373 29.626058 9
13.291867 45.853433 29.139145 9
17.735070 46.207759 28.660604 9
22.274585 46.540246 28.172508 9
26.864196 46.902296 27.685128 9
31.637629 47.161708 27.170662 9
36.456583 47.463181 26.658813 9
41.410844 47.721385 26.131291 9
46.854624 47.608217 25.516496 9
58.145930 42.192463 23.733291 9
74.194044 32.773753 21.031564 5
79.831079 33.089838 20.450199 5
85.531134 33.453573 19.870943 5
91.430197 33.750144 19.267524 5
97.450796 34.052862 18.655912 5
103.629647 34.335797 18.029637 5
119.995201 26.515685 15.482817 6
126.426404 26.986318 14.858358 6
133.125782 27.364958 14.200609 6
140.097404 27.659247 13.510110 6
147.122808 28.042513 12.828249 6
-64.899164 -18.589041 37.772388 9
-65.907055 -8.977215 38.556255 9
-65.884336 -1.675911 39.049712 9
-65.921594 5.478914 39.544958 9
-64.064663 8.972838 39.542621 9
-65.047054 17.387674 40.256394 9
-63.037265 20.349573 40.204506 9
-60.678398 22.666230 40.065844 9
-58.847173 25.825536 40.058082 9
-56.660672 28.348938 39.963336 9
-54.431447 30.770564 39.859461 9
-52.196215 33.154027 39.755643 9
-49.683894 35.091547 39.588325 9
-46.892639 36.608476 39.359140 9
-43.667495 37.506310 39.034360 9
-40.194959 38.089504 38.659517 9
-36.482700 38.389535 38.237966 9
-32.816707 38.816397 37.835274 9
-29.086986 39.217430 37.426691 9
-25.315168 39.624798 37.017325 9
-21.491605 40.027991 36.605288 9
-17.531455 40.322512 36.172549 9
-13.589251 40.708313 35.752905 9
-9.610028 41.115902 35.334561 9
-5.573819 41.522752 34.913499 9
-1.459219 41.906460 34.485553 9
2.748883 42.253666 34.048010 9
7.017291 42.606398 33.608129 9
11.393056 42.915323 33.156676 9
15.764660 43.306174 32.716565 9
20.268250 43.633046 32.260663 9
24.825958 43.983422 31.804979 9
29.521235 44.274031 31.333460 9
34.226167 44.639264 30.871545 9
39.044350 44.976608 30.399370 9
43.917694 45.346823 29.928527 9
50.984927 43.734545 29.056076 9
71.611231 29.744482 25.669232 5
77.041120 30.183177 25.160659 5
82.671456 30.539705 24.628759 5
88.393827 30.917454 24.094209 5
94.269655 31.266897 23.546351 5
100.211434 31.667504 23.001540 5
106.862116 31.591738 22.346139 5
123.632798 23.478143 19.930656 6
130.085474 23.973225 19.359925 6
136.740335 24.427117 18.770775 6
143.658340 24.801160 18.153708 6
150.580232 25.298799 17.553856 6
-62.766192 -14.276164 41.889843 9
-62.718174 -6.929291 42.310321 9
-62.008406 -1.056694 42.564758 9
-62.260883 6.358379 43.035770 9
-59.901884 8.927441 42.895544 9
-58.251596 12.676495 42.918318 9
-56.419566 16.030988 42.898833 9
-54.491389 19.156865 42.857637 9
-52.683341 22.417097 42.843321 9
-50.234972 24.603590 42.688993 9
-47.722177 26.673026 42.523598 9
-44.839309 28.171073 42.282061 9
-41.478762 28.974342 41.943845 9
-37.917055 29.527908 41.570051 9
-37.304496 34.328099 41.818914 9
-33.653927 34.778975 41.436177 9
-29.935810 35.195877 41.047548 9
-26.223189 35.680762 40.668198 9
-22.440140 36.132247 40.282805 9
-18.613505 36.589053 39.897077 9
-14.736283 37.044346 39.509843 9
-10.825537 37.521651 39.124687 9
-6.839981 37.972034 38.733755 9
-2.735278 38.346777 38.328888 9
1.435814 38.714269 37.920727 9
5.615987 39.143085 37.520409 9
9.917285 39.506745 37.106980 9
14.235343 39.926498 36.700390 9
18.771403 40.184832 36.263678 9
23.235108 40.601149 35.850830 9
27.778691 41.011459 35.433963 9
32.407932 41.413230 35.012406 9
37.092703 41.840148 34.591901 9
42.000169 42.130151 34.143263 9
47.447760 41.989179 33.612107 9
61.763606 33.592213 31.560012 9
75.347286 26.296369 29.673723 5
80.730694 26.828103 29.219173 5
86.251291 27.331185 28.754481 5
91.973943 27.754590 28.269427 5
97.772946 28.214625 27.785719 5
103.832765 28.558660 27.273432 5
124.101834 17.315321 24.465482 6
129.978051 18.253122 24.033370 6
135.426889 19.626541 23.683887 6
141.998251 20.211831 23.169891 6
148.730834 20.790824 22.647025 6
-53.288208 -16.388238 44.733487 9
-56.351823 -3.613159 45.733255 9
-55.961512 2.614522 45.998750 9
-54.871625 7.445060 46.115484 9
-53.398818 11.498735 46.152111 9
-51.698354 15.079438 46.142268 9
-49.694613 18.094964 46.072331 9
-47.339807 20.505358 45.934667 9
-44.550999 22.220616 45.715038 9
-41.283622 23.217046 45.407166 9
-37.753720 23.859538 45.055121 9
-34.196932 24.512882 44.705168 9
-30.612321 25.177079 44.357261 9
-26.933610 25.761257 43.999126 9
-23.227685 26.363459 43.643638 9
-19.471620 26.954102 43.286709 9
-15.651153 27.517335 42.925972 9
-11.801334 28.102014 42.568070 9
-7.828829 28.591585 42.196403 9
-3.844467 29.130787 41.831240 9
0.153482 29.717077 41.472327 9
0.725031 34.436480 41.720832 9
4.922063 34.837242 41.339687 9
9.142969 35.281986 40.963775 9
13.447307 35.704128 40.583056 9
17.715895 36.238708 40.218022 9
22.138833 36.677081 39.836699 9
26.636468 37.111772 39.452977 9
31.154479 37.602296 39.076121 9
35.804182 38.035152 38.688067 9
40.582014 38.420219 38.289956 9
45.871022 38.388093 37.820926 9
65.319536 24.847432 35.113894 9
78.362304 17.963807 33.467685 5
83.609792 18.661726 33.072636 5
88.893767 19.414058 32.684166 5
94.421201 20.037194 32.270689 5
99.994386 20.714898 31.863296 5
106.192945 20.951815 31.374821 5
127.278886 8.801926 28.676885 6
132.988995 9.908552 28.310502 6
138.921760 10.926427 27.925045 6
145.037242 11.896569 27.527260 6
-49.852193 -7.472674 48.861662 9
-50.315994 0.218670 49.229636 9
-49.382231 5.312989 49.339046 9
-47.784775 9.177240 49.328263 9
-45.625967 12.052375 49.218659 9
-42.922182 14.025774 49.015737 9
-39.612846 15.060556 48.711372 9
-36.234096 16.024158 48.401314 9
-32.772533 16.902824 48.083575 9
-29.306277 17.816545 47.771868 9
-25.765205 18.665598 47.454354 9
-22.140402 19.443320 47.129866 9
-18.467588 20.204550 46.804719 9
-14.776046 20.991387 46.483965 9
-10.977314 21.688584 46.153200 9
-7.114368 22.358639 45.819860 9
-3.190342 23.009279 45.484724 9
0.764588 23.681139 45.152877 9
4.805433 24.308741 44.815738 9
8.916601 24.915499 44.476113 9
13.071581 25.535931 44.138433 9
17.305604 26.131541 43.797439 9
21.648371 26.673047 43.448902 9
26.041330 27.230532 43.102169 9
30.500971 27.788079 42.754968 9
35.055924 28.318233 42.403296 9
39.702328 28.829455 42.048114 9
44.639749 29.122698 41.660437 9
44.949952 34.124463 41.958742 9
78.550359 6.426154 37.442429 5
83.051828 7.844276 37.180346 5
87.773147 9.114719 36.897024 5
92.707292 10.255179 36.594314 5
97.844142 11.285292 36.274469 5
103.100901 12.288342 35.949748 5
-28.754560 -1.179703 50.980911 9
-26.903022 2.404396 50.928516 9
-24.282158 4.788252 50.762127 9
-21.341074 6.693581 50.552228 9
-18.147049 8.245232 50.310029 9
-14.830518 9.646563 50.055825 9
-11.436774 10.969572 49.796748 9
-7.899837 12.132461 49.523428 9
-4.291513 13.240212 49.246818 9
-0.561994 14.234016 48.960005 9
3.244989 15.177403 48.669688 9
7.084670 16.130545 48.382520 9
11.102507 16.919097 48.078141 9
15.103980 17.785427 47.784384 9
19.185069 18.615763 47.487915 9
23.439650 19.307368 47.176113 9
27.702881 20.055136 46.872101 9
32.031707 20.795944 46.568238 9
36.480259 21.474485 46.257506 9
41.037213 22.108963 45.941854 9
46.532513 21.843966 45.511955 9
20.179008 0.246322 50.982317 9
22.702663 3.132660 50.895117 9
25.956032 5.136614 50.724090 9
29.488777 6.832842 50.526009 9
33.249008 8.299494 50.307942 9
37.200814 9.591542 50.074862 9
41.291188 10.779075 49.833646 9
226.080032 135.889566 -56.026474 0
221.434898 136.375558 -55.689390 0
217.522266 139.237710 -55.063084 0
213.674684 142.439418 -54.397687 0
209.832598 145.808022 -53.714307 0
231.801010 136.880267 -50.786412 0
226.910170 136.757557 -50.534080 0
222.090686 136.763907 -50.270699 0
217.290622 136.744701 -50.016979 0
212.514481 136.716317 -49.770629 0
207.766921 136.698047 -49.528922 0
203.051694 136.708732 -49.289158 0
198.356774 136.709602 -49.056561 0
193.680635 136.697353 -48.831520 0
188.801101 135.750138 -48.742250 0
184.179260 135.751172 -48.527059 0
179.646614 136.070531 -48.272769 0
175.517689 138.255962 -47.761374 0
171.605197 141.656380 -47.082155 0
167.656847 145.139307 -46.393697 0
237.243705 136.814344 -45.633284 0
232.357852 136.845247 -45.369763 0
227.474946 136.795628 -45.123856 0
222.642885 136.813457 -44.873802 0
217.841002 136.841346 -44.627879 0
213.045538 136.802985 -44.397304 0
208.278788 136.773698 -44.170878 0
203.553545 136.805392 -43.940749 0
198.838086 136.788066 -43.723230 0
194.148593 136.784020 -43.508947 0
189.472660 136.747655 -43.304683 0
184.819709 136.719668 -43.104255 0
180.197628 136.741268 -42.901331 0
175.589558 136.744122 -42.706174 0
170.994407 136.724586 -42.519297 0
166.417361 136.711111 -42.336319 0
161.855824 136.695339 -42.158453 0
157.312775 136.699533 -41.982224 0
152.710803 136.251743 -41.880264 0
148.117758 135.718129 -41.796472 0
143.631146 135.778004 -41.625733 0
139.218107 136.321477 -41.384417 0
135.125830 139.508599 -40.736193 0
131.024054 143.084687 -40.029701 0
237.830367 136.813373 -40.175351 0
232.915438 136.806249 -39.933884 0
228.057447 136.881374 -39.684631 0
223.949403 139.249347 -39.075516 0
218.363181 136.838246 -39.232183 0
213.558791 136.822018 -39.012671 0
208.805621 136.895085 -38.783745 0
204.026387 136.788667 -38.588503 0
199.314169 136.839534 -38.372710 0
194.618825 136.872494 -38.164461 0
189.915287 136.785896 -37.980224 0
185.263489 136.826423 -37.779912 0
180.615814 136.801363 -37.594763 0
175.986159 136.771392 -37.414866 0
171.382903 136.781984 -37.232705 0
166.795161 136.787544 -37.055675 0
162.215385 136.750668 -36.889891 0
157.661170 136.771724 -36.718767 0
153.107631 136.712955 -36.564998 0
148.579313 136.726262 -36.403417 0
144.059790 136.717040 -36.249631 0
139.555121 136.732643 -36.095731 0
135.059023 136.734567 -35.948076 0
130.567859 136.694284 -35.811412 0
126.089525 136.684918 -35.673487 0
121.851172 139.179365 -35.119230 3
117.368481 139.224431 -34.979125 3
112.887826 139.221185 -34.850942 3
108.644868 142.886382 -34.107804 3
238.331217 136.559366 -34.738038 0
233.516849 136.890396 -34.455834 0
228.610975 136.871019 -34.237761 0
223.741982 136.874990 -34.020304 0
218.903722 136.888345 -33.805747 0
214.081458 136.865911 -33.601769 0
209.301624 136.900371 -33.392363 0
204.507722 136.796118 -33.211199 0
199.777602 136.835728 -33.009415 0
195.048241 136.792321 -32.826175 0
190.351274 136.789538 -32.639989 0
185.664585 136.742078 -32.465634 0
181.011366 136.752278 -32.285201 0
176.377556 136.766805 -32.107916 0
171.758454 136.767742 -31.936868 0
167.153156 136.753085 -31.772373 0
162.566285 136.750617 -31.609494 0
157.996705 136.761148 -31.448027 0
153.440374 136.767678 -31.290924 0
148.890220 136.728782 -31.145494 0
144.357691 136.721460 -30.998051 0
139.834146 136.694134 -30.857707 0
135.332473 136.754050 -30.705312 0
130.827551 136.708819 -30.575125 0
126.338807 136.725177 -30.437362 0
122.085478 139.187286 -29.864499 3
117.587225 139.200427 -29.733348 3
113.093885 139.195449 -29.608788 3
108.609001 139.232552 -29.479964 3
104.125150 139.212040 -29.364796 3
99.646794 139.215233 -29.248614 3
95.171496 139.214996 -29.136283 3
90.698084 139.192443 -29.031203 3
86.227276 139.206399 -28.922699 3
81.756937 139.205358 -28.820079 3
77.285011 139.553256 -28.657180 3
72.755931 143.345710 -27.870426 3
234.081599 136.858485 -28.973258 0
229.138018 136.772758 -28.783714 0
224.249149 136.761228 -28.584676 0
219.404526 136.801286 -28.380123 0
214.569554 136.785483 -28.189678 0
209.770828 136.804506 -27.996630 0
204.995475 136.819466 -27.808057 0
200.250329 136.859648 -27.618478 0
195.504875 136.812293 -27.448725 0
190.811382 136.884471 -27.260346 0
186.092478 136.765455 -27.111030 0
181.418977 136.749936 -26.945934 0
176.776571 136.790312 -26.773794 0
172.140203 136.776406 -26.615143 0
167.512695 136.719111 -26.467945 0
162.917747 136.745746 -26.308256 0
158.332944 136.746720 -26.156591 0
153.763099 136.752322 -26.007218 0
149.206008 136.754862 -25.861543 0
144.655378 136.715864 -25.726815 0
140.124595 136.733100 -25.584494 0
135.599717 136.714006 -25.452072 0
131.084166 136.686790 -25.324181 0
126.579986 136.677068 -25.195915 0
122.320273 139.190229 -24.589233 3
117.811268 139.229304 -24.456754 3
113.302814 139.197487 -24.340682 3
108.803376 139.207169 -24.219512 3
104.307438 139.194395 -24.105456 3
99.816362 139.193380 -23.991933 3
95.329315 139.213568 -23.877092 3
90.843674 139.207437 -23.770048 3
86.359429 139.176946 -23.670420 3
81.877023 139.222387 -23.558846 3
77.394133 139.181186 -23.466672 3
72.910702 139.179454 -23.369539 3
68.425316 139.194064 -23.271884 3
63.937075 139.213364 -23.175942 3
59.478003 138.480154 -23.228633 3
55.290216 132.856058 -24.234223 3
50.823363 133.320530 -24.060684 3
49.662819 1.674102 -49.489880 9
46.956173 -2.838412 -50.318400 9
44.048227 -4.823119 -50.656524 9
40.989607 -5.310639 -50.704427 9
37.889042 -5.463524 -50.688771 9
34.782866 -5.611359 -50.673906 9
31.674469 -5.781246 -50.665131 9
28.553445 -5.908628 -50.649804 9
25.430865 -6.068634 -50.642638 9
22.284296 -6.136194 -50.619104 9
19.136419 -6.246847 -50.605779 9
15.981661 -6.369706 -50.596612 9
12.816087 -6.487494 -50.588214 9
9.631613 -6.567526 -50.574158 9
6.429587 -6.623334 -50.557100 9
3.221372 -6.707330 -50.547353 9
0.004061 -6.807271 -50.542520 9
-3.238075 -6.864388 -50.531037 9
-6.499649 -6.905680 -50.518221 9
-9.779278 -6.940221 -50.505867 9
-13.057826 -7.035806 -50.507348 9
-16.353938 -7.127721 -50.509923 9
-19.695532 -7.130739 -50.496796 9
-23.054235 -7.142367 -50.487202 9
-26.432110 -7.158034 -50.480255 9
-29.815033 -7.220025 -50.484314 9
-33.258129 -7.173697 -50.468881 9
-36.685727 -7.234340 -50.476457 9
-40.160326 -7.231821 -50.473487 9
-43.738460 -7.030396 -50.433198 9
-48.612032 -3.710847 -49.779495 9
229.351134 135.714800 -23.493860 0
224.500764 135.838893 -23.284686 0
219.850065 136.527741 -22.968381 0
215.059757 136.704983 -22.755024 0
210.248553 136.731284 -22.574387 0
205.452582 136.723944 -22.403524 0
200.687208 136.740744 -22.231036 0
195.943697 136.754526 -22.062202 0
191.221356 136.766239 -21.896787 0
186.514668 136.756395 -21.738601 0
181.834113 136.773096 -21.578077 0
177.174304 136.799550 -21.418476 0
172.517354 136.754291 -21.275963 0
167.891281 136.775329 -21.123045 0
163.269076 136.731813 -20.985749 0
158.670202 136.729770 -20.842887 0
154.086510 136.732633 -20.701706 0
149.519690 136.758189 -20.558597 0
144.953734 136.705949 -20.433693 0
140.406861 136.701272 -20.301804 0
135.872931 136.713067 -20.169118 0
131.349908 136.735300 -20.036808 0
126.828439 136.689200 -19.920750 0
122.556506 139.197681 -19.290252 3
118.034517 139.237095 -19.161069 3
113.512767 139.201198 -19.049527 3
109.000013 139.204127 -18.932475 3
104.492078 139.205613 -18.818047 3
99.988022 139.202187 -18.706926 3
95.487063 139.190845 -18.599705 3
90.989292 139.198510 -18.490873 3
86.492546 139.174210 -18.390810 3
81.997463 139.209437 -18.280803 3
77.501849 139.214740 -18.179110 3
73.005595 139.202443 -18.083206 3
68.507527 139.209386 -17.985527 3
64.007690 139.193003 -17.894787 3
59.562781 137.844623 -18.080030 3
55.403209 131.560113 -19.283688 3
57.806652 23.147113 -41.527567 9
56.053837 0.916984 -46.046563 9
53.409382 -5.308749 -47.272839 9
50.706091 -9.627819 -48.109013 9
47.914500 -12.307595 -48.609267 9
45.035705 -13.794329 -48.865020 9
42.064572 -14.339997 -48.927809 9
39.037311 -14.434049 -48.898564 9
36.008564 -14.558935 -48.877096 9
32.962530 -14.608729 -48.841437 9
29.916206 -14.705527 -48.816899 9
26.859629 -14.786800 -48.790509 9
23.796170 -14.876835 -48.767307 9
20.717851 -14.936009 -48.739051 9
17.635691 -15.026250 -48.718620 9
14.541503 -15.107607 -48.697704 9
11.431724 -15.168176 -48.673817 9
8.309421 -15.226548 -48.650831 9
5.173968 -15.283093 -48.628823 9
2.025888 -15.342688 -48.608813 9
-1.120554 -15.461320 -48.602499 9
-4.298956 -15.512793 -48.583531 9
-7.502136 -15.532038 -48.559198 9
-10.723889 -15.545816 -48.535091 9
-13.951097 -15.599735 -48.520759 9
-17.186522 -15.683391 -48.514040 9
-20.451354 -15.731727 -48.501326 9
-23.734159 -15.784016 -48.490843 9
-27.041541 -15.823303 -48.479049 9
-30.360344 -15.889357 -48.474285 9
-33.719674 -15.903941 -48.460165 9
-37.088863 -15.953572 -48.454832 9
-40.500099 -15.956038 -48.441063 9
-44.006603 -15.786564 -48.392688 9
-48.181164 -14.091321 -48.025652 9
-56.149476 -3.718895 -45.839132 9
191.413429 135.755220 -16.697818 0
186.707652 135.766833 -16.547003 0
182.126152 136.241615 -16.301197 0
177.552916 136.711293 -16.058505 0
172.896930 136.735524 -15.911741 0
168.251731 136.729222 -15.773675 0
163.626004 136.739438 -15.634347 0
159.018001 136.764349 -15.494093 0
154.417562 136.750421 -15.364216 0
149.829412 136.726507 -15.238590 0
145.259536 136.738161 -15.107504 0
140.704349 136.773234 -14.973483 0
136.151389 136.744207 -14.855133 0
131.602672 136.659530 -14.750673 0
127.076819 136.689695 -14.623685 0
122.797071 139.239474 -13.959559 3
118.256854 139.222041 -13.845944 3
113.722463 139.188655 -13.737657 3
109.196800 139.189627 -13.623884 3
104.675679 139.182610 -13.513676 3
100.158425 139.165840 -13.407396 3
95.646696 139.201462 -13.291641 3
91.135133 139.172557 -13.191566 3
86.626997 139.217919 -13.077234 3
82.118484 139.203190 -12.977608 3
77.610356 139.175693 -12.882473 3
73.101116 139.211975 -12.775244 3
68.590816 139.195191 -12.681188 3
64.078315 139.181641 -12.588107 3
64.948600 14.786444 -39.508710 9
62.374052 1.257419 -42.381984 9
59.602330 -4.963024 -43.671680 9
56.820114 -9.408388 -44.578377 9
54.064291 -13.164402 -45.337624 9
51.316985 -16.263284 -45.956006 9
48.541309 -18.540020 -46.397083 9
45.692701 -19.820247 -46.622270 9
42.782384 -20.442172 -46.704965 9
39.809131 -20.549081 -46.676166 9
36.821751 -20.595544 -46.635164 9
33.833483 -20.683950 -46.604366 9
30.840871 -20.788846 -46.578203 9
27.833606 -20.851040 -46.543684 9
24.824062 -20.948477 -46.517906 9
21.796585 -20.997634 -46.482521 9
18.756303 -21.033957 -46.445300 9
15.715267 -21.118596 -46.419695 9
12.663676 -21.203898 -46.395229 9
9.585297 -21.223173 -46.357197 9
6.504316 -21.286298 -46.329806 9
3.414232 -21.364979 -46.306828 9
0.304501 -21.420169 -46.279645 9
-2.822062 -21.467180 -46.251630 9
-5.952555 -21.554321 -46.233461 9
-9.124552 -21.553279 -46.196768 9
-12.290311 -21.630515 -46.178364 9
-15.474660 -21.702548 -46.159791 9
-18.689937 -21.734702 -46.133366 9
-21.922997 -21.771621 -46.108974 9
-25.176089 -21.808678 -46.085593 9
-28.456982 -21.826632 -46.058958 9
-31.741014 -21.895352 -46.044577 9
-35.048808 -21.959010 -46.030071 9
-38.397998 -21.975670 -46.006126 9
-41.761350 -22.018210 -45.988932 9
-45.339374 -21.608190 -45.872125 9
-49.574663 -19.756352 -45.435559 9
-55.642291 -13.922006 -44.113581 9
-61.909272 -8.014313 -42.775424 9
-65.640697 -7.915744 -42.730909 9
154.584349 135.763941 -10.225069 0
149.989112 135.717990 -10.112291 0
145.477661 136.155522 -9.892659 0
140.987731 136.729711 -9.643657 0
136.423013 136.709758 -9.529473 0
131.872455 136.721474 -9.409670 0
127.590214 139.201003 -8.735191 0
123.030359 139.192309 -8.622285 3
118.483578 139.245999 -8.496724 3
113.934538 139.194379 -8.396354 3
109.394641 139.176877 -8.289671 3
104.859790 139.153111 -8.185776 3
100.332980 139.202989 -8.066527 3
95.805840 139.176772 -7.965849 3
91.283039 139.199845 -7.855277 3
86.760284 139.147240 -7.763188 3
82.239970 139.178690 -7.653238 3
77.719070 139.216732 -7.543008 3
73.198320 139.131554 -7.462096 3
68.674113 139.197444 -7.347920 3
64.150081 139.146083 -7.261702 3
65.809280 -4.173002 -39.957903 9
63.124940 -12.300900 -41.753617 9
60.388379 -17.097636 -42.789873 9
57.388027 -17.022606 -42.711106 9
54.524671 -18.672916 -43.029229 9
51.779026 -21.291805 -43.571335 9
49.015763 -23.284318 -43.971093 9
46.203494 -24.541912 -44.203122 9
43.335899 -25.196351 -44.297339 9
40.401840 -25.303974 -44.266373 9
37.458110 -25.381764 -44.229221 9
34.503424 -25.430899 -44.186129 9
31.544318 -25.500338 -44.148391 9
28.575193 -25.557519 -44.108477 9
25.603531 -25.648500 -44.077039 9
22.618573 -25.715390 -44.040673 9
19.612568 -25.726700 -43.992059 9
16.616547 -25.838297 -43.967329 9
13.592516 -25.869736 -43.924629 9
10.564453 -25.936456 -43.890735 9
7.519612 -25.984562 -43.853129 9
4.471653 -26.072317 -43.825354 9
1.398476 -26.114442 -43.787565 9
-1.686353 -26.167603 -43.752940 9
-4.780109 -26.242443 -43.723963 9
-7.887610 -26.322791 -43.696865 9
-11.043173 -26.299193 -43.646087 9
-14.173815 -26.412851 -43.627936 9
-17.344832 -26.454860 -43.593627 9
-20.539719 -26.482641 -43.556560 9
-23.754131 -26.512039 -43.520434 9
-26.956946 -26.630718 -43.505782 9
-30.224293 -26.629640 -43.463644 9
-33.478861 -26.721728 -43.443903 9
-36.786082 -26.736425 -43.406573 9
-40.105019 -26.782497 -43.377158 9
-43.468449 -26.781475 -43.337235 9
-47.213677 -25.957875 -43.104484 9
-51.753081 -23.448726 -42.475602 9
-56.992967 -19.593444 -41.529812 9
-60.502063 -19.704492 -41.517520 9
-71.597208 -4.038392 -37.788817 8
-75.366335 -4.127635 -37.770586 8
-79.156653 -4.240649 -37.758568 8
-82.992207 -4.331377 -37.741904 8
-86.834222 -4.477109 -37.738834 8
-90.742938 -4.564889 -37.722698 8
-94.668791 -4.690572 -37.716130 8
-98.665532 -4.758989 -37.696644 8
-102.693152 -4.845412 -37.682028 8
110.259658 3.178530 -35.528094 5
106.361653 -4.845110 -37.357264 5
103.155901 -5.899375 -37.533508 5
100.034490 -6.052303 -37.496301 5
96.918579 -6.223377 -37.464081 5
93.806938 -6.438495 -37.443023 5
90.704548 -6.579845 -37.405017 5
87.605619 -6.762901 -37.377591 5
84.510768 -6.990634 -37.361470 5
81.421634 -7.125444 -37.323726 5
78.335337 -7.296222 -37.295171 5
75.251428 -7.431755 -37.258734 5
72.169718 -7.593343 -37.229095 5
69.088166 -7.713134 -37.189953 5
66.007870 -7.858660 -37.157512 5
63.571505 -20.160690 -40.051960 9
60.762954 -22.714750 -40.603431 9
57.893509 -23.787533 -40.799181 9
55.259540 -27.498943 -41.632642 9
52.419419 -28.241990 -41.750965 9
49.838370 -31.414118 -42.457267 9
46.623304 -28.451591 -41.680728 9
43.790026 -29.134505 -41.786211 9
40.889303 -29.258768 -41.756892 9
37.972070 -29.302599 -41.708435 9
35.058270 -29.415925 -41.677182 9
32.126913 -29.460633 -41.629605 9
29.187658 -29.507824 -41.582945 9
26.245874 -29.589529 -41.544990 9
23.282058 -29.602656 -41.490637 9
20.325523 -29.704157 -41.458103 9
17.348137 -29.752877 -41.412989 9
14.478768 -30.332290 -41.497735 9
11.626946 -30.989823 -41.602039 9
8.758006 -31.576617 -41.689528 9
5.877775 -32.126298 -41.768381 9
2.983267 -32.634208 -41.837426 9
0.093042 -33.174186 -41.914732 9
-2.812036 -33.678273 -41.983632 9
-7.140594 -29.434983 -40.887210 9
-8.810725 -34.136160 -41.987331 9
-11.889129 -34.178578 -41.943696 9
-14.991556 -34.202415 -41.895663 9
-18.094130 -34.281413 -41.861376 9
-21.229871 -34.319050 -41.817066 9
-24.372830 -34.392452 -41.781727 9
-27.567697 -34.381510 -41.725718 9
-30.766282 -34.420274 -41.682103 9
-33.979107 -34.480185 -41.643838 9
-37.214657 -34.540827 -41.605877 9
-40.479444 -34.588738 -41.564876 9
-43.773546 -34.626821 -41.521540 9
-47.299778 -34.201598 -41.363400 9
-51.548893 -32.275594 -40.832725 9
-56.763214 -28.448284 -39.829203 9
-62.357966 -24.083617 -38.690765 9
-71.561733 -12.668778 -35.797239 8
-75.272963 -12.758751 -35.763128 8
-78.991977 -12.898650 -35.741506 8
-82.784930 -12.962252 -35.700928 8
-86.599596 -13.053452 -35.667257 8
-90.439111 -13.166989 -35.639186 8
-94.320498 -13.273660 -35.609421 8
-98.251575 -13.362761 -35.575270 8
-102.233043 -13.436611 -35.537294 8
-106.662001 -12.844581 -35.332570 8
116.516987 0.011552 -32.664527 5
113.272064 -0.416642 -32.697014 5
109.147666 -10.140735 -35.045772 5
105.844241 -12.654776 -35.601503 5
102.751463 -13.123447 -35.648188 5
99.695785 -13.233591 -35.605784 5
96.645224 -13.352762 -35.565934 5
93.602297 -13.420205 -35.513425 5
90.559978 -13.570786 -35.481990 5
87.522785 -13.706307 -35.447054 5
84.490632 -13.770961 -35.394590 5
81.460148 -13.869493 -35.350843 5
78.431842 -14.020267 -35.320442 5
75.405164 -14.105873 -35.273866 5
72.379816 -14.221635 -35.235065 5
69.355702 -14.354373 -35.200724 5
66.328937 -14.414819 -35.148323 5
63.821086 -24.320644 -37.581950 9
61.023109 -26.521259 -38.072831 9
58.256533 -28.602156 -38.534481 9
55.546793 -30.919476 -39.056967 9
52.847349 -32.899876 -39.495161 9
50.138483 -34.454127 -39.826198 9
47.407413 -35.586467 -40.050862 9
44.636452 -36.260200 -40.159538 9
41.791564 -36.327198 -40.114250 9
38.937706 -36.373629 -40.063752 9
36.081634 -36.451279 -40.021209 9
33.215559 -36.510085 -39.973868 9
30.337244 -36.543728 -39.920093 9
27.462479 -36.645427 -39.883660 9
24.568702 -36.691128 -39.832896 9
21.672248 -36.772072 -39.791092 9
18.757930 -36.815218 -39.739559 9
15.837418 -36.880300 -39.693567 9
12.901890 -36.929565 -39.643435 9
9.951761 -36.969237 -39.590739 9
6.999121 -37.050093 -39.548504 9
4.031702 -37.123732 -39.504300 9
1.045171 -37.177724 -39.454911 9
-1.962282 -37.210279 -39.399849 9
-4.977456 -37.270093 -39.351641 9
-7.998827 -37.361473 -39.311404 9
-11.052964 -37.400615 -39.257502 9
-14.118295 -37.459841 -39.208581 9
-17.214297 -37.482566 -39.150000 9
-20.290089 -37.618086 -39.120380 9
-23.431819 -37.622244 -39.056505 9
-26.587378 -37.647295 -38.997766 9
-29.754318 -37.699839 -38.945875 9
-32.933487 -37.777476 -38.900212 9
-36.136755 -37.851250 -38.853249 9
-39.373413 -37.901503 -38.799848 9
-42.624876 -37.975018 -38.752167 9
-46.079131 -37.650093 -38.600216 9
-49.982838 -36.420535 -38.211538 9
-54.706322 -33.568885 -37.397979 9
-59.855918 -30.037708 -36.404862 9
-65.566199 -25.608719 -35.174510 9
-72.821269 -18.406833 -33.214862 8
-76.482557 -18.549599 -33.177577 8
-80.205376 -18.638742 -33.125737 8
-83.990725 -18.678372 -33.060359 8
-87.777370 -18.784219 -33.011828 8
-91.600240 -18.892721 -32.963434 8
-95.478724 -18.972685 -32.906934 8
-99.388644 -19.068907 -32.854100 8
-103.351731 -19.146975 -32.795832 8
-108.175550 -17.912972 -32.390040 8
-119.549060 -6.510308 -29.292013 7
-123.773929 -6.668486 -29.249402 7
-128.057417 -6.811795 -29.202099 7
-132.360264 -7.001610 -29.166354 7
-136.730655 -7.168053 -29.123606 7
-141.151512 -7.339320 -29.081303 7
-145.624927 -7.514877 -29.039274 7
148.939201 -1.462900 -29.960671 6
145.603926 -1.686719 -29.948013 6
142.290668 -1.885282 -29.929008 6
138.983904 -2.133365 -29.922990 6
135.708098 -2.297915 -29.895492 6
132.431823 -2.547356 -29.890137 6
129.176419 -2.758202 -29.874907 6
125.939841 -2.931880 -29.850133 6
122.719656 -3.073177 -29.817023 6
119.499031 -3.302052 -29.806769 6
115.521055 -10.117283 -31.512510 5
112.292166 -11.259011 -31.741889 5
108.724500 -16.201345 -32.963565 5
105.539148 -17.935534 -33.349443 5
102.506762 -18.186880 -33.348394 5
99.492677 -18.298753 -33.310889 5
96.487180 -18.358674 -33.259739 5
93.484665 -18.441245 -33.214451 5
90.485454 -18.540826 -33.173547 5
87.491017 -18.600813 -33.122167 5
84.498545 -18.684406 -33.076877 5
81.508425 -18.757460 -33.028702 5
78.519893 -18.855244 -32.986906 5
75.532382 -18.919646 -32.936184 5
72.545464 -18.999790 -32.889453 5
69.558735 -19.085885 -32.844128 5
66.571715 -19.175546 -32.799569 5
64.028753 -27.698804 -34.984060 9
61.242779 -29.689333 -35.443934 9
58.497543 -31.744117 -35.921490 9
55.790137 -33.810292 -36.402756 9
53.105867 -35.730577 -36.846014 9
50.423355 -37.344043 -37.208430 9
47.701145 -38.369329 -37.415022 9
44.945870 -39.008714 -37.519163 9
42.123297 -39.096505 -37.476465 9
39.294589 -39.180384 -37.432441 9
36.450376 -39.203641 -37.371950 9
33.600854 -39.243330 -37.315502 9
30.752098 -39.334777 -37.272531 9
27.885969 -39.373891 -37.215229 9
25.019454 -39.459345 -37.169952 9
22.132457 -39.488816 -37.109308 9
19.239721 -39.541694 -37.054528 9
16.338479 -39.605154 -37.002172 9
13.413469 -39.615705 -36.935178 9
10.491839 -39.692767 -36.885598 9
7.559505 -39.775825 -36.837181 9
4.610263 -39.843381 -36.784124 9
1.639253 -39.882086 -36.722799 9
-1.332154 -39.971376 -36.674606 9
-5.560325 -35.918208 -35.506815 9
-7.324538 -40.133660 -36.572258 9
-10.371930 -40.129932 -36.497293 9
-13.407688 -40.217543 -36.446459 9
-16.479526 -40.251016 -36.380355 9
-19.559927 -40.315096 -36.321926 9
-22.671556 -40.347155 -36.254155 9
-25.805718 -40.375189 -36.184611 9
-28.951080 -40.430798 -36.121875 9
-32.117647 -40.488679 -36.059050 9
-35.288315 -40.592257 -36.007966 9
-38.492695 -40.669834 -35.949053 9
-41.747522 -40.687038 -35.872865 9
-45.060560 -40.633302 -35.776433 9
-48.776862 -39.763787 -35.455545 9
-53.024925 -37.870008 -34.852243 9
-57.957753 -34.714787 -33.900418 9
-63.257553 -31.037075 -32.802046 9
-71.492368 -21.816879 -30.174733 8
-75.160987 -21.890163 -30.101719 8
-78.850494 -21.989342 -30.034793 8
-82.572034 -22.094396 -29.968418 8
-86.351340 -22.161026 -29.890314 8
