ply
format ascii 1.0
element vertex 1359
property float x
property float y
property float z
property int scalar_Label
end_header
-29.772016 -43.294110 -20.058594 9
-32.603517 -43.408857 -19.864327 9
-35.445254 -43.528964 -19.663866 9
-38.295155 -43.663944 -19.462764 9
-41.169211 -43.757691 -19.227560 9
-44.092755 -43.731116 -18.910811 9
-48.152005 -40.038306 -16.392819 9
-50.400661 -42.392853 -17.476857 9
-53.894084 -40.845826 -16.214700 9
-57.468132 -39.226895 -14.894399 9
-61.081771 -37.663270 -13.591981 9
-64.736961 -36.147525 -12.302802 8
-67.839770 -36.257065 -11.982414 8
-70.970177 -36.349165 -11.640043 8
-74.098846 -36.500873 -11.322330 8
-77.272614 -36.595667 -10.958204 8
-80.466925 -36.698441 -10.586904 8
-83.683757 -36.806200 -10.206404 8
-86.939047 -36.885374 -9.795822 8
-90.191061 -37.030554 -9.413176 8
-93.507468 -37.096576 -8.968650 8
-96.834782 -37.201199 -8.534702 8
-100.182089 -37.325559 -8.099517 8
-103.608800 -37.355208 -7.591343 8
-107.092505 -37.341900 -7.041766 8
-111.273746 -36.111502 -5.710867 8
-117.136686 -31.988480 -2.531513 7
-120.739211 -32.096117 -2.000601 7
-124.415237 -32.143308 -1.415393 7
-128.141623 -32.175365 -0.804020 7
-131.946792 -32.149435 -0.138479 7
-135.740705 -32.215475 0.485551 7
-139.679870 -32.126086 1.227743 7
-143.675069 -32.030091 1.993200 7
-147.694419 -31.978041 2.749540 7
149.209814 -28.109022 -6.572742 6
145.868366 -28.083218 -6.863037 6
142.533238 -28.105510 -7.170512 6
139.265268 -28.028502 -7.406129 6
137.039827 -25.372808 -6.074418 6
132.807811 -27.849573 -7.828174 6
129.603656 -27.780607 -8.034803 6
126.417178 -27.720219 -8.235608 6
123.232450 -27.712651 -8.457251 6
120.087034 -27.648976 -8.634506 6
115.809727 -31.137888 -10.926290 5
111.726820 -34.325250 -13.022346 5
108.313815 -35.588983 -13.955818 5
105.195157 -35.993696 -14.365561 5
102.248767 -35.869273 -14.449853 5
99.287780 -35.846753 -14.585185 5
96.344510 -35.810160 -14.702546 5
93.426530 -35.723540 -14.780694 5
90.504974 -35.700889 -14.887435 5
87.604852 -35.635756 -14.959634 5
84.706434 -35.612115 -15.047184 5
81.829404 -35.534632 -15.093642 5
78.950077 -35.516389 -15.166066 5
76.086996 -35.459970 -15.206820 5
73.226863 -35.434115 -15.256646 5
70.374274 -35.411578 -15.299462 5
67.524590 -35.420986 -15.352232 5
64.690873 -35.367376 -15.358871 5
61.733591 -36.370713 -15.981086 9
58.765562 -37.721197 -16.799379 9
55.833387 -39.060758 -17.602342 9
52.916571 -40.606324 -18.518261 9
50.063786 -41.817521 -19.228128 9
47.265956 -42.659473 -19.711458 9
44.508460 -43.168404 -19.989687 9
41.780446 -43.333957 -20.056663 9
39.062445 -43.373922 -20.041012 9
36.346647 -43.415109 -20.017656 9
33.633290 -43.404861 -19.955449 9
30.919720 -43.459543 -19.923203 9
28.206704 -43.470601 -19.856692 9
25.493772 -43.522402 -19.805834 9
22.779616 -43.542779 -19.727879 9
20.063743 -43.559344 -19.639144 9
17.346020 -43.583211 -19.546190 9
14.626683 -43.623758 -19.454563 9
11.905961 -43.684606 -19.366404 9
9.180550 -43.724603 -19.257216 9
6.454383 -43.799390 -19.160060 9
3.723975 -43.870141 -19.051802 9
0.984509 -43.901149 -18.911072 9
-1.765381 -43.896533 -18.740197 9
-4.510339 -43.981510 -18.613936 9
-7.267193 -44.026259 -18.454664 9
-10.028505 -44.089813 -18.297620 9
-12.797955 -44.150421 -18.129709 9
-15.574390 -44.218420 -17.957059 9
-18.357143 -44.299262 -17.782885 9
-21.147432 -44.387944 -17.604115 9
-23.946747 -44.479263 -17.417533 9
-26.761006 -44.549450 -17.208664 9
-29.581268 -44.642070 -17.003743 9
-32.413608 -44.732264 -16.787635 9
-35.261739 -44.808649 -16.553290 9
-38.114034 -44.918445 -16.329318 9
-40.994270 -44.975884 -16.063329 9
-43.936255 -44.874593 -15.689906 9
-46.976039 -44.517222 -15.148596 9
-50.217024 -43.608879 -14.256989 9
-53.719551 -42.028168 -12.937844 9
-57.297762 -40.393171 -11.569560 9
-60.955049 -38.703207 -10.151080 9
-64.620505 -37.161376 -8.807716 8
-67.721564 -37.274584 -8.476731 8
-70.852947 -37.363419 -8.118657 8
-74.011959 -37.439063 -7.740157 8
-77.195209 -37.513124 -7.348218 8
-80.428200 -37.528218 -6.906537 8
-83.638459 -37.656616 -6.523132 8
-86.897306 -37.733261 -6.094033 8
-90.165412 -37.849225 -5.676433 8
-93.488201 -37.908491 -5.209223 8
-96.815810 -38.019356 -4.760876 8
-100.201459 -38.074464 -4.262696 8
-103.686827 -37.999833 -3.666515 8
-107.207353 -37.929195 -3.057327 8
-111.577474 -36.369434 -1.469331 8
-117.550665 -32.083987 1.910578 7
-121.250442 -32.047747 2.559798 7
-124.962743 -32.062749 3.192832 7
-128.786354 -31.963406 3.918388 7
-132.707421 -31.782769 4.716011 7
-136.672253 -31.614361 5.524968 7
-140.639227 -31.524637 6.301543 7
-144.771866 -31.263022 7.212732 7
-148.802397 -31.240735 7.985128 7
149.439534 -28.752540 -2.608082 6
147.340235 -25.851102 -1.124834 6
142.812910 -28.602245 -3.149219 6
139.502184 -28.611721 -3.453870 6
136.237218 -28.570394 -3.714851 6
133.001814 -28.513038 -3.954011 6
129.792050 -28.446135 -4.175579 6
126.539561 -28.555766 -4.494455 6
123.368927 -28.500354 -4.700068 6
120.217776 -28.444937 -4.894460 6
115.802114 -32.335141 -7.499902 5
111.709277 -35.546818 -9.672319 5
108.247830 -36.974127 -10.736617 5
105.923914 -34.655742 -9.497286 5
102.211601 -37.183505 -11.211848 5
99.253662 -37.164613 -11.358508 5
96.324013 -37.090966 -11.461729 5
93.381528 -37.120126 -11.617706 5
90.471127 -37.071574 -11.716465 5
87.566739 -37.047734 -11.820517 5
84.677996 -37.003687 -11.902601 5
81.803411 -36.940159 -11.963255 5
78.926023 -36.940088 -12.052929 5
76.062001 -36.920698 -12.121386 5
73.211109 -36.875710 -12.164893 5
70.362720 -36.863884 -12.219157 5
67.523659 -36.841287 -12.257570 5
64.689186 -36.836046 -12.297231 5
61.783246 -37.466552 -12.712855 9
58.800679 -38.958639 -13.641114 9
55.863638 -40.375962 -14.514760 9
52.964904 -41.763917 -15.361483 9
50.109277 -43.041812 -16.132573 9
47.312278 -43.922405 -16.654172 9
44.561670 -44.383987 -16.913175 9
41.835259 -44.597071 -17.012865 9
39.121675 -44.637472 -16.999135 9
36.411034 -44.651127 -16.960395 9
33.701416 -44.671190 -16.916735 9
30.992324 -44.731476 -16.888669 9
28.283761 -44.722988 -16.810051 9
25.575181 -44.773828 -16.758610 9
22.864816 -44.773620 -16.667304 9
20.151528 -44.750035 -16.552876 9
17.437707 -44.777566 -16.460602 9
14.723750 -44.844875 -16.383607 9
12.006269 -44.894529 -16.286903 9
9.281682 -44.896933 -16.152364 9
6.555319 -44.931997 -16.028665 9
3.826046 -44.984197 -15.906320 9
1.094052 -45.055393 -15.786442 9
-1.644881 -45.111830 -15.648331 9
-4.398732 -45.103086 -15.460963 9
-7.145085 -45.199347 -15.328639 9
-9.905273 -45.248358 -15.157900 9
-12.677684 -45.272408 -14.962276 9
-15.449100 -45.352520 -14.791580 9
-18.232615 -45.414112 -14.599810 9
-21.035903 -45.425612 -14.367291 9
-23.836794 -45.501199 -14.164511 9
-26.657952 -45.533864 -13.925147 9
-29.482323 -45.604444 -13.699202 9
-32.317052 -45.681723 -13.467239 9
-35.161058 -45.771613 -13.232847 9
-38.016867 -45.865768 -12.990723 9
-40.899256 -45.913972 -12.709295 9
-43.808733 -45.922381 -12.392107 9
-46.855018 -45.539956 -11.818048 9
-50.122198 -44.548251 -10.847636 9
-53.640122 -42.925092 -9.464034 9
-57.222851 -41.283231 -8.052164 9
-60.949220 -39.405347 -6.473572 9
-64.600202 -37.916548 -5.124489 8
-67.746928 -37.916586 -4.707895 8
-70.881976 -38.007281 -4.336482 8
-74.091391 -37.969063 -3.869664 8
-77.292995 -38.013612 -3.442658 8
-80.516482 -38.066584 -3.007710 8
-83.750995 -38.154159 -2.581541 8
-87.025443 -38.211911 -2.122292 8
-90.348914 -38.225065 -1.619895 8
-93.698410 -38.247486 -1.108949 8
-97.085307 -38.257634 -0.575096 8
-100.514702 -38.248691 -0.013456 8
-103.979226 -38.238649 0.564576 8
-107.614232 -37.975868 1.325809 8
-116.569710 -28.056911 8.514359 7
-118.409051 -31.397438 6.933884 7
-124.569827 -27.121538 10.447605 7
-126.054208 -31.070313 8.480558 7
-129.989922 -30.837868 9.329063 7
-134.044279 -30.497312 10.270904 7
-138.155334 -30.156960 11.233938 7
-142.300479 -29.854641 12.192945 7
-146.592640 -29.420041 13.264867 7
149.993843 -28.683041 1.853410 6
146.631034 -28.657684 1.527212 6
143.275325 -28.679265 1.184235 6
139.940128 -28.716942 0.844067 6
136.642719 -28.726364 0.534738 6
133.362993 -28.754340 0.226247 6
130.130474 -28.721273 -0.031119 6
126.906423 -28.725429 -0.299885 6
123.703804 -28.731078 -0.557550 6
120.528688 -28.717836 -0.791424 6
115.997732 -32.915711 -3.665733 5
111.764687 -36.541775 -6.161961 5
108.287163 -38.015475 -7.289224 5
105.175411 -38.411058 -7.726902 5
102.197264 -38.420367 -7.911170 5
99.239139 -38.413637 -8.074763 5
96.302497 -38.380202 -8.211149 5
94.081853 -35.488425 -6.550879 5
90.485137 -38.241880 -8.408305 5
87.580330 -38.231436 -8.528254 5
84.695401 -38.182595 -8.614143 5
81.819425 -38.139995 -8.693912 5
78.947995 -38.124484 -8.780606 5
76.090556 -38.084604 -8.842239 5
73.242627 -38.038414 -8.890130 5
70.395866 -38.033809 -8.954118 5
67.558195 -38.021480 -9.003578 5
64.733039 -37.969446 -9.018688 5
61.852103 -38.414569 -9.333030 9
58.877942 -39.828120 -10.239196 9
55.939226 -41.251010 -11.141407 9
53.034191 -42.698461 -12.049302 9
50.173793 -44.035315 -12.879124 9
47.375985 -44.940882 -13.431869 9
44.625477 -45.426181 -13.714447 9
41.901392 -45.630497 -13.813355 9
39.191116 -45.633094 -13.777781 9
36.481460 -45.667956 -13.753076 9
33.774176 -45.651148 -13.687064 9
31.066684 -45.659709 -13.627623 9
28.359277 -45.699405 -13.578347 9
25.651466 -45.716261 -13.505640 9
22.942222 -45.720280 -13.415687 9
20.232155 -45.752468 -13.334014 9
17.520430 -45.789112 -13.245829 9
14.805732 -45.815550 -13.141948 9
12.088213 -45.846633 -13.031598 9
9.366719 -45.873490 -12.909192 9
6.642106 -45.913033 -12.785261 9
3.912267 -45.946649 -12.648108 9
1.174455 -45.957279 -12.486963 9
-1.562048 -46.029272 -12.354686 9
-4.307787 -46.075290 -12.196425 9
-7.055631 -46.153362 -12.048582 9
-9.834032 -46.081850 -11.796647 9
-12.597554 -46.160507 -11.629385 9
-15.374174 -46.210942 -11.434319 9
-18.170480 -46.207124 -11.194796 9
-20.959040 -46.295767 -11.003591 9
-23.764874 -46.349055 -10.779691 9
-26.577316 -46.422294 -10.558063 9
-29.412571 -46.447276 -10.295179 9
-32.258721 -46.481187 -10.027264 9
-35.111307 -46.542626 -9.766112 9
-37.949985 -46.705434 -9.559017 9
-40.828041 -46.771947 -9.279271 9
-43.765712 -46.687491 -8.891163 9
-46.835839 -46.234717 -8.253719 9
-50.084286 -45.313280 -7.300304 9
-53.644422 -43.573417 -5.801983 9
-57.281025 -41.789782 -4.257758 9
-61.038280 -39.845915 -2.591148 9
-64.727521 -38.275212 -1.149004 8
-67.905751 -38.213098 -0.675601 8
-71.070707 -38.249808 -0.253429 8
-74.286665 -38.219547 0.226302 8
-77.501550 -38.255651 0.676256 8
-80.756189 -38.259490 1.161574 8
-84.079888 -38.169824 1.723351 8
-87.408683 -38.137534 2.262026 8
-90.802305 -38.032530 2.864406 8
-94.132774 -38.129256 3.347483 8
-97.602942 -38.003338 3.995407 8
-101.104799 -37.887471 4.653137 8
-104.610589 -37.836609 5.283814 8
-108.455034 -37.221928 6.314209 8
-115.686686 -30.527115 11.506713 8
-119.914030 -29.577169 12.822414 7
-123.867748 -29.219875 13.754752 7
-128.007703 -28.636739 14.863583 7
-132.217559 -28.039084 16.005133 7
-136.551341 -27.343754 17.237898 7
-141.171620 -26.304254 18.735267 7
-145.808144 -25.364009 20.190459 7
150.797653 -28.077122 6.733459 6
147.379556 -28.127386 6.338118 6
143.979465 -28.203984 5.939581 6
140.588382 -28.328545 5.523573 6
137.236988 -28.426334 5.138766 6
133.954917 -28.415863 4.837882 6
130.686306 -28.432555 4.532337 6
127.433654 -28.469698 4.226378 6
124.201842 -28.512915 3.929193 6
120.966063 -28.633167 3.594717 6
116.456395 -32.706074 0.719607 5
111.981564 -37.033817 -2.300704 5
108.446589 -38.669591 -3.567837 5
105.319630 -39.101797 -4.046527 5
102.369919 -38.997959 -4.168808 5
99.411535 -38.975201 -4.332188 5
96.475210 -38.922618 -4.465483 5
93.542117 -38.909372 -4.613171 5
90.615702 -38.923544 -4.767654 5
87.684045 -39.019301 -4.963637 5
84.801337 -38.952024 -5.044732 5
81.923088 -38.911492 -5.132480 5
79.051870 -38.885468 -5.219107 5
76.191548 -38.851480 -5.290330 5
73.328808 -38.883139 -5.393164 5
70.473446 -38.927990 -5.494177 5
67.637424 -38.902923 -5.540466 5
64.805082 -38.901907 -5.591986 5
61.968651 -38.988801 -5.689433 9
58.984638 -40.448963 -6.651159 9
56.034916 -41.941090 -7.623010 9
53.123836 -43.421515 -8.577385 9
50.256708 -44.811310 -9.464243 9
47.458891 -45.695187 -10.019413 9
44.699757 -46.302220 -10.388801 9
41.977897 -46.461379 -10.463530 9
39.266477 -46.486260 -10.443201 9
36.557350 -46.498354 -10.405156 9
33.849499 -46.499618 -10.350631 9
31.141876 -46.517153 -10.296887 9
28.434191 -46.510866 -10.218351 9
25.726476 -46.561696 -10.166635 9
23.016284 -46.535565 -10.056161 9
20.307017 -46.599801 -9.993727 9
17.594659 -46.625662 -9.897098 9
14.877771 -46.619521 -9.770264 9
12.160630 -46.664059 -9.666084 9
9.437209 -46.672947 -9.529256 9
6.710859 -46.700938 -9.394795 9
3.977109 -46.704742 -9.234876 9
1.244838 -46.773517 -9.106710 9
-1.502518 -46.763727 -8.917978 9
-4.250453 -46.804430 -8.751601 9
-7.005464 -46.844620 -8.574706 9
-9.770211 -46.871569 -8.378986 9
-12.545027 -46.889576 -8.167097 9
-15.322156 -46.946426 -7.969881 9
-18.112414 -46.982608 -7.748729 9
-20.908549 -47.040207 -7.530827 9
-23.718500 -47.082047 -7.291927 9
-26.571123 -46.986227 -6.952361 9
-29.413073 -46.999235 -6.672560 9
-32.259193 -47.049492 -6.405914 9
-35.117189 -47.105260 -6.131607 9
-37.998236 -47.127493 -5.823861 9
-40.872220 -47.228691 -5.556457 9
-43.804185 -47.182416 -5.180160 9
-46.874342 -46.747609 -4.534781 9
-50.176522 -45.676632 -3.454285 9
-53.797239 -43.780124 -1.809703 9
-57.484619 -41.880298 -0.144196 9
-61.335137 -39.710134 1.720983 9
-65.072808 -38.049863 3.265625 8
-68.258088 -38.009464 3.742957 8
-71.477552 -37.946016 4.249950 8
-74.723699 -37.882537 4.771469 8
-78.010511 -37.787962 5.328807 8
-81.303657 -37.747165 5.864859 8
-84.644737 -37.664055 6.444990 8
-88.047238 -37.515017 7.085896 8
-91.475781 -37.383342 7.731306 8
-94.959848 -37.208941 8.422737 8
-98.471702 -37.053658 9.118231 8
-102.058585 -36.825663 9.881549 8
-105.629793 -36.706688 10.587514 8
-110.156578 -34.879460 12.501266 8
-118.726074 -25.861901 19.467781 7
-123.049868 -24.889532 20.856035 7
-127.979780 -22.989197 22.922681 7
148.516672 -26.735628 11.812358 6
145.013774 -26.977405 11.280779 6
141.583381 -27.124779 10.827497 6
138.207343 -27.211411 10.429365 6
134.816032 -27.407423 9.972336 6
131.481512 -27.530036 9.578375 6
128.193547 -27.597205 9.235055 6
124.933126 -27.654328 8.911827 6
121.697918 -27.704490 8.606417 6
117.302117 -31.341372 5.938513 5
112.578428 -36.342743 2.387563 5
108.803180 -38.690447 0.610509 5
106.565404 -36.061025 2.132702 5
102.636680 -39.254439 -0.174161 5
99.654288 -39.289258 -0.385667 5
96.697284 -39.287147 -0.561358 5
93.743194 -39.330576 -0.755597 5
90.817948 -39.313590 -0.898880 5
87.894254 -39.344965 -1.062741 5
84.989287 -39.348923 -1.197553 5
82.103172 -39.316893 -1.297838 5
79.234008 -39.248963 -1.363785 5
76.361569 -39.246854 -1.462025 5
73.504250 -39.211118 -1.527561 5
70.645485 -39.235262 -1.621571 5
67.786528 -39.319966 -1.744508 5
64.951911 -39.295067 -1.785318 5
62.120435 -39.296014 -1.832508 9
59.118188 -40.848973 -2.881814 9
56.152525 -42.432767 -3.940509 9
53.238273 -43.889929 -4.906101 9
50.359016 -45.362937 -5.871745 9
47.555235 -46.274117 -6.460842 9
44.790799 -46.911309 -6.861250 9
42.062221 -47.149132 -6.991204 9
39.354020 -47.036538 -6.882561 9
36.641370 -47.052188 -6.847605 9
33.930262 -47.046314 -6.788609 9
31.219186 -47.065573 -6.736027 9
28.508251 -47.086657 -6.674632 9
25.796826 -47.102599 -6.599853 9
23.084254 -47.116437 -6.513650 9
20.369732 -47.124110 -6.413331 9
17.652394 -47.123851 -6.297698 9
14.930541 -47.101397 -6.157344 9
12.208031 -47.129251 -6.039766 9
9.480797 -47.145001 -5.904005 9
6.748775 -47.158553 -5.756497 9
4.015128 -47.206626 -5.621340 9
1.272627 -47.221792 -5.454120 9
-1.470981 -47.278751 -5.303965 9
-4.226398 -47.293938 -5.115712 9
-6.985420 -47.336079 -4.934621 9
-9.748991 -47.397508 -4.755596 9
-12.527699 -47.416113 -4.537421 9
-15.316947 -47.428525 -4.304195 9
-18.121293 -47.415579 -4.043048 9
-20.931199 -47.431297 -3.789765 9
-23.745904 -47.477764 -3.545707 9
-26.583935 -47.471829 -3.255284 9
-29.418807 -47.534779 -2.999376 9
-32.282186 -47.533416 -2.688755 9
-35.164028 -47.517277 -2.356320 9
-38.047348 -47.552999 -2.046724 9
-40.953427 -47.562193 -1.707119 9
-43.924913 -47.406916 -1.243946 9
-47.043922 -46.842657 -0.490584 9
-50.381688 -45.695427 0.673253 9
-54.059468 -43.666578 2.453969 9
-57.885951 -41.406739 4.412275 9
-61.857663 -38.953025 6.524505 9
-65.600149 -37.343029 8.080567 8
-68.842627 -37.208889 8.641784 8
-72.120203 -37.056073 9.231057 8
-75.404275 -36.959158 9.797217 8
-78.776880 -36.719804 10.477791 8
-82.193700 -36.455685 11.192115 8
-85.619745 -36.250180 11.882526 8
-89.130231 -35.936490 12.665743 8
-92.671588 -35.639972 13.454855 8
-96.279532 -35.288014 14.301300 8
-99.949494 -34.896869 15.194405 8
-103.671564 -34.491709 16.117058 8
-107.842435 -33.319545 17.605713 8
150.446399 -23.580397 18.619697 6
146.810610 -24.002996 17.935471 6
143.241187 -24.358751 17.313598 6
139.710770 -24.706276 16.713292 6
136.241156 -24.986294 16.174798 6
132.828043 -25.200726 15.696270 6
129.448989 -25.401315 15.241918 6
126.091664 -25.618556 14.790685 6
122.748613 -25.873113 14.328344 6
118.918732 -27.679268 12.826713 5
113.560364 -34.469613 7.962951 5
109.355095 -38.093400 5.268690 5
106.105665 -38.833025 4.543556 5
103.033446 -39.068532 4.172424 5
100.033734 -39.116420 3.940379 5
97.056030 -39.142269 3.735272 5
94.108487 -39.107353 3.582994 5
91.157634 -39.140496 3.396676 5
88.227189 -39.144159 3.241869 5
85.299857 -39.190759 3.069801 5
82.408857 -39.121146 2.987208 5
79.509961 -39.140942 2.855982 5
76.625428 -39.140412 2.749684 5
73.739903 -39.201822 2.613124 5
70.879247 -39.171555 2.549107 5
68.017295 -39.201344 2.455973 5
65.166177 -39.212534 2.386312 5
62.325168 -39.200924 2.342864 9
59.306216 -40.792348 1.238852 9
56.309066 -42.566723 0.023818 9
53.381099 -44.070884 -0.999619 9
50.487146 -45.617274 -2.040509 9
47.664282 -46.692972 -2.756329 9
44.901700 -47.209514 -3.088100 9
42.165015 -47.481544 -3.246101 9
39.446637 -47.482277 -3.212396 9
36.729928 -47.475598 -3.163328 9
34.013313 -47.507889 -3.129910 9
31.298052 -47.473697 -3.041601 9
28.582028 -47.487086 -2.974687 9
25.865622 -47.511700 -2.904844 9
23.147824 -47.518447 -2.812561 9
20.427141 -47.498774 -2.692052 9
17.706534 -47.542083 -2.603240 9
14.980601 -47.534144 -2.469461 9
12.246505 -47.467021 -2.285249 9
9.515410 -47.507335 -2.162544 9
6.776673 -47.509315 -2.003319 9
4.031939 -47.506632 -1.830133 9
1.286346 -47.550371 -1.677380 9
-1.472976 -47.531361 -1.471330 9
-4.237291 -47.532756 -1.268004 9
-7.012105 -47.517116 -1.042003 9
-9.785900 -47.563975 -0.847126 9
-12.575182 -47.568301 -0.612114 9
-15.372270 -47.583582 -0.373119 9
-18.181867 -47.586980 -0.114502 9
-21.006960 -47.569110 0.170297 9
-23.839419 -47.573997 0.451391 9
-26.687260 -47.566037 0.753214 9
-29.547781 -47.561260 1.064960 9
-32.422872 -47.554509 1.390312 9
-35.309533 -47.560208 1.719507 9
-38.217180 -47.545104 2.075600 9
-41.159325 -47.467104 2.487958 9
-44.130632 -47.354175 2.937668 9
-47.276070 -46.744702 3.745644 9
-50.734448 -45.264959 5.174602 9
-54.594611 -42.745644 7.347279 9
-58.563461 -40.147252 9.597738 9
-62.745463 -37.190171 12.123094 9
-66.548934 -35.512601 13.774422 8
-69.874909 -35.253566 14.447287 8
-73.243076 -34.966863 15.156141 8
-76.683075 -34.584938 15.949360 8
-80.208621 -34.086394 16.843094 8
-83.759655 -33.622913 17.730323 8
-87.401915 -33.046825 18.716845 8
-91.118498 -32.407284 19.768585 8
-94.844400 -31.850120 20.781497 8
-98.816285 -30.883879 22.110373 8
-103.130792 -29.350572 23.873199 8
135.840744 -18.540684 24.996487 6
132.017824 -19.684598 23.854291 6
128.394494 -20.413179 23.019693 6
124.817769 -21.122984 22.214550 6
121.348448 -21.625953 21.569329 6
117.960120 -21.978036 21.044223 6
110.386111 -35.969296 11.071004 5
106.779409 -37.782748 9.575122 5
103.708822 -37.926560 9.250792 5
100.657810 -38.070070 8.939662 5
97.654178 -38.104164 8.716903 5
94.651177 -38.197170 8.466032 5
91.671881 -38.257999 8.249802 5
88.714522 -38.286323 8.068248 5
85.775393 -38.290827 7.915223 5
82.838370 -38.342787 7.741596 5
79.920383 -38.359532 7.604120 5
77.004110 -38.425745 7.444531 5
74.107100 -38.444711 7.329145 5
71.213992 -38.498354 7.201662 5
68.337344 -38.505686 7.117544 5
65.469246 -38.508190 7.048268 5
62.613241 -38.471549 7.017275 9
59.544077 -40.328635 5.701183 9
56.525665 -42.148541 4.422406 9
53.561064 -43.877488 3.217458 9
50.634561 -45.660984 1.986474 9
47.810191 -46.618288 1.331966 9
45.030531 -47.237810 0.919512 9
42.282920 -47.538029 0.736418 9
39.554958 -47.552510 0.759744 9
36.827754 -47.604401 0.768297 9
34.104039 -47.568152 0.848064 9
31.379564 -47.579861 0.905849 9
28.655001 -47.578809 0.983256 9
25.929525 -47.575875 1.072858 9
23.202872 -47.585031 1.165092 9
20.473756 -47.577562 1.279696 9
17.741686 -47.566536 1.407752 9
15.005701 -47.547703 1.552232 9
12.266386 -47.541213 1.699331 9
9.524330 -47.556527 1.842565 9
6.777488 -47.570396 1.997987 9
4.021488 -47.547146 2.190294 9
1.259586 -47.530948 2.389116 9
-1.510583 -47.506116 2.605372 9
-4.288288 -47.484562 2.830919 9
-7.075762 -47.454766 3.073836 9
-9.869707 -47.443032 3.315979 9
-12.673904 -47.427488 3.572618 9
-15.490957 -47.398153 3.850833 9
-18.312757 -47.402636 4.117572 9
-21.150149 -47.385787 4.411395 9
-24.004995 -47.345518 4.733971 9
-26.867249 -47.332383 5.050081 9
-29.745553 -47.309387 5.385764 9
-32.651714 -47.233786 5.771309 9
-35.561273 -47.208289 6.134664 9
-38.489468 -47.173788 6.517570 9
-41.432362 -47.147779 6.907863 9
-44.480568 -46.828306 7.520019 9
-47.707207 -46.016214 8.497326 9
-51.325885 -44.106765 10.273692 9
-55.362568 -41.144236 12.823473 9
-59.699132 -37.583948 15.826584 9
-64.822183 -32.135922 20.213721 8
-68.338475 -31.439361 21.214688 8
-71.925420 -30.667290 22.288916 8
-75.657665 -29.641449 23.566374 8
-85.204052 -14.522835 35.100022 8
-84.064774 -25.729901 27.539414 8
-88.685716 -23.084581 30.068610 8
-61.271943 141.281400 -235.278008 0
-58.676948 140.122745 -235.275012 0
-56.578543 138.769742 -235.021255 0
-54.769106 137.301347 -234.623243 0
-62.379987 146.510005 -234.947158 0
-59.152230 145.575997 -235.277217 0
-57.033053 144.217644 -235.026323 0
-55.071543 142.809913 -234.705999 0
-53.504012 141.242321 -234.178080 0
-52.195428 139.562781 -233.511856 0
-48.552024 138.976882 -234.217986 0
-47.652359 137.128630 -233.341274 0
-70.237856 146.915958 -229.512654 0
-66.612599 146.018550 -230.012084 0
-61.196238 145.898076 -231.557573 0
-54.050226 146.590065 -234.153200 0
-52.518843 145.013369 -233.607892 0
-48.737544 144.431030 -234.385551 0
-47.844787 142.604279 -233.501124 0
-47.081258 140.708520 -232.540504 0
-46.337931 138.790402 -231.566537 0
-45.713401 136.800615 -230.518008 0
-73.468822 146.934521 -225.022443 0
-69.885323 145.956547 -225.496245 0
-64.125058 145.897933 -227.260144 0
-58.209906 146.002700 -229.186409 0
-50.682859 146.892818 -232.137267 0
-47.287855 146.135025 -232.723390 0
-46.491424 144.269479 -231.778596 0
-45.815923 142.337237 -230.759209 0
-45.269968 140.329362 -229.656819 0
-44.726850 138.301531 -228.547547 0
-44.460943 136.117405 -227.256777 0
-73.710813 145.729604 -220.557681 0
-66.951133 145.980260 -222.929054 0
-61.114096 145.979435 -224.839562 0
-55.378795 146.039273 -226.763525 0
-50.093361 146.008972 -228.487000 0
-45.372340 145.824035 -229.929597 0
-44.859270 143.820004 -228.800756 0
-44.394850 141.774667 -227.635446 0
-44.038554 139.657232 -226.394029 0
-43.705125 137.504579 -225.128853 0
-75.058191 146.489483 -216.969712 0
-70.580199 145.792801 -218.022980 0
-64.127077 145.954800 -220.331012 0
-58.363059 145.950764 -222.299680 0
-53.076105 145.848142 -224.045985 0
-47.965931 145.762150 -225.748987 0
-44.105659 145.209355 -226.719483 0
-43.786204 143.096024 -225.446249 0
-43.411782 140.984299 -224.199419 0
-43.078947 138.828779 -222.915866 0
-42.714726 136.663241 -221.643111 0
-73.671358 145.862530 -213.331080 0
-67.531059 145.820482 -215.479399 0
-74.631713 140.527908 -209.380421 0
-55.562619 145.936836 -219.820316 0
-50.432519 145.792629 -221.559512 0
-43.785830 146.407361 -224.355787 0
-43.185489 144.415191 -223.248342 0
-42.812917 142.299651 -221.982950 0
-42.461353 140.150219 -220.693625 0
-42.137376 137.962034 -219.374869 0
-70.888763 145.753586 -210.544660 0
-64.477729 145.846121 -212.976149 0
-58.322506 145.951109 -215.327870 0
-52.938965 145.843477 -217.254815 0
-47.690174 145.774176 -219.163672 0
-42.569619 145.742897 -221.056288 0
-42.210023 143.618704 -219.764568 0
-41.895304 141.449036 -218.431346 0
-41.521615 139.281660 -217.127717 0
-41.129910 137.097582 -215.825662 0
-72.245995 146.499571 -206.793053 0
-67.716102 145.790894 -208.037896 0
-61.372953 145.889555 -210.544181 0
-55.549357 145.889414 -212.788379 0
-50.156522 145.811798 -214.818990 0
-42.808487 146.695393 -218.270501 0
-41.607478 144.939681 -217.540683 0
-41.262332 142.781619 -216.209744 0
-40.890862 140.610533 -214.885866 0
-40.531395 138.407691 -213.541484 0
-40.313636 136.106155 -212.080722 0
-70.828352 145.833298 -203.071349 0
-64.541287 145.827028 -205.572317 0
-58.271113 145.929993 -208.148894 0
-52.664689 145.869998 -210.352118 0
-47.267598 145.822515 -212.485738 0
-41.125998 146.208809 -215.224588 0
-40.672462 144.096441 -213.951694 0
-40.294876 141.925124 -212.612933 0
-39.881132 139.745576 -211.288577 0
-39.548317 137.499792 -209.891502 0
-67.835091 145.763557 -200.399961 0
-58.571820 146.993604 -205.104109 0
-55.264449 145.929536 -205.724040 0
-49.669555 145.895033 -208.025011 0
-44.480701 145.786066 -210.110036 0
-40.015179 145.444794 -211.735855 0
-39.637893 143.271104 -210.377929 0
-39.294469 141.055181 -208.981562 0
-38.908358 138.832565 -207.603659 0
-38.546609 136.569952 -206.193023 0
-69.337589 146.444051 -196.373385 0
-64.528590 145.814866 -197.980742 0
-55.484710 147.009089 -202.717222 0
-52.137522 145.978229 -203.420181 0
-46.835598 145.848744 -205.612571 0
-39.860316 146.569940 -209.136732 0
-39.029188 144.597234 -208.099806 0
-38.671643 142.385286 -206.693486 0
-38.262678 140.170903 -205.312701 0
-37.905105 137.903561 -203.877277 0
-67.933760 145.722070 -192.519553 0
-61.268903 145.847679 -195.568754 0
-52.413164 147.017422 -200.354035 0
-49.235346 145.930559 -200.984160 0
-43.984378 145.807428 -203.239082 0
-38.453506 145.911609 -205.787408 0
-38.051946 143.717127 -204.394383 0
-37.670166 141.486572 -202.971328 0
-37.246130 139.248950 -201.566907 0
-36.869094 136.959436 -200.109083 0
-64.516466 145.780547 -190.131802 0
-55.349915 146.975850 -195.222827 0
-50.686045 146.454943 -196.987468 0
-46.315309 145.888568 -198.588392 0
-41.120790 145.769693 -200.900987 0
-37.429237 145.053911 -202.088197 0
-37.029799 142.828984 -200.658021 0
-36.608424 140.587111 -199.230154 0
-36.232726 138.294051 -197.748469 0
-66.347635 146.322362 -185.655562 0
-61.122422 145.831649 -187.769448 0
-52.249499 146.961434 -192.828172 0
-48.709294 145.981891 -193.786202 0
-43.380254 145.851826 -196.230954 0
-36.967805 146.320709 -199.640189 0
-36.392721 144.173520 -198.331961 0
-35.997439 141.916072 -196.860578 0
-35.579270 139.641020 -195.391400 0
-35.193215 137.320023 -193.877295 0
-64.495814 145.729317 -182.010556 0
-57.713142 145.891467 -185.461172 0
-48.943030 147.034814 -190.632325 0
-45.717796 145.938629 -191.394740 0
-40.463862 145.805896 -193.884032 0
-35.747534 145.525862 -196.001717 0
-35.357386 143.263348 -194.503533 0
-34.935558 140.987133 -193.014670 0
-34.503304 138.686674 -191.516811 0
-34.173613 136.302324 -189.909618 0
-149.581013 -3.547658 -29.773863 7
-146.215175 -6.721192 -29.217046 7
-143.266455 -10.242313 -28.204430 7
-141.133678 -14.480476 -26.266363 7
-138.313621 -18.168937 -25.082996 7
-135.134992 -21.560951 -24.303964 7
-60.906235 145.823794 -179.748210 0
-52.303484 146.792941 -184.850602 0
-47.850876 146.154583 -186.622888 0
-42.730636 145.893052 -189.025525 0
-35.641724 146.634720 -193.196889 0
-34.704486 144.621081 -192.145440 0
-34.293768 142.336694 -190.623751 0
-33.866108 140.030786 -189.098027 0
-33.455670 137.685304 -187.537223 0
-147.854804 4.879100 -29.577646 7
-143.710147 2.370964 -29.912830 7
-139.828258 -0.315135 -29.986368 7
-136.183278 -3.173830 -29.815744 7
-132.826766 -6.264371 -29.330425 7
-129.890411 -9.721422 -28.362543 7
-127.597060 -13.774304 -26.627063 7
-125.251432 -17.828851 -24.925026 7
-120.975114 -20.109915 -25.544041 7
-63.229611 146.157500 -174.624751 0
-57.438250 145.873244 -177.431219 0
-48.598537 147.000177 -182.931004 0
-45.093845 145.978123 -183.975822 0
-39.783193 145.829468 -186.646279 0
-34.093608 145.963742 -189.737420 0
-33.634089 143.699608 -188.235353 0
-33.210234 141.389000 -186.682076 0
-32.795466 139.042779 -185.099985 0
-32.317748 136.697151 -183.554891 0
-147.879147 11.873259 -27.517506 7
-143.301620 9.690216 -28.345910 7
-138.874587 7.442174 -29.050881 7
-134.661411 5.069692 -29.553705 7
-130.624070 2.591547 -29.888876 7
-126.810343 -0.043685 -29.992134 7
-123.205415 -2.837624 -29.870264 7
-119.914356 -5.898460 -29.385746 7
-114.993232 -7.465195 -30.903290 8
-106.151827 -5.266710 -37.354388 8
-102.751265 -8.052921 -37.151471 8
-99.905210 -11.382707 -36.249518 8
-97.413229 -15.096006 -34.876507 8
-95.615617 -19.578025 -32.561731 8
-97.221468 -27.788864 -25.636281 8
-60.756008 145.770700 -171.372463 0
-53.993640 145.917086 -175.135127 0
-46.026538 146.725743 -180.072287 0
-42.048423 145.926713 -181.594870 0
-36.754245 145.803263 -184.362087 0
-33.017360 145.046978 -185.793833 0
-32.545313 142.756611 -184.260017 0
-32.123589 140.411104 -182.658873 0
-31.661731 138.053985 -181.073502 0
-149.046213 18.002526 -24.225322 7
-144.165926 16.003504 -25.390914 7
-139.362925 14.010858 -26.524387 7
-134.727843 11.950405 -27.518885 7
-130.277970 9.799177 -28.347233 7
-125.999888 7.557613 -29.017126 7
-121.901692 5.208634 -29.511013 7
-117.942313 2.776599 -29.870177 7
-109.211290 4.624454 -36.139031 8
-104.291884 3.244589 -37.841844 8
-100.672316 0.726946 -37.962988 8
-97.161846 -1.876343 -37.963751 8
-93.859048 -4.671101 -37.708998 8
-90.739530 -7.649232 -37.218514 8
-87.856449 -10.881663 -36.409014 8
-85.338667 -14.526965 -35.088704 8
-83.333030 -18.779309 -33.028943 8
-83.711686 -25.794472 -27.554613 8
-61.773217 146.646083 -167.182234 0
-57.096486 145.864343 -169.156095 0
-48.058771 147.029327 -175.113261 0
-44.681004 145.903680 -176.095836 0
-38.997361 145.878672 -179.242580 0
-32.524632 146.341913 -183.220511 0
-31.876124 144.131493 -181.826801 0
-31.447297 141.786803 -180.206544 0
-31.001620 139.418324 -178.579564 0
-30.533696 137.028383 -176.950772 0
-149.861210 24.394588 -21.336387 7
-144.458034 22.728939 -23.096712 7
-139.220214 21.026889 -24.740031 7
-135.948943 17.917455 -24.176529 7
-131.172483 15.980592 -25.385251 7
-126.494497 14.029833 -26.532182 7
-122.006044 11.985691 -27.503693 7
-117.324923 10.158570 -28.758260 8
-108.871000 11.654022 -34.744503 8
-103.892133 10.308481 -36.551639 8
-99.920152 8.130817 -37.144314 8
-96.102224 5.847106 -37.571626 8
-92.421819 3.462298 -37.846833 8
-88.848567 0.996070 -38.002507 8
-85.428282 -1.606295 -37.970159 8
-82.164089 -4.360632 -37.735800 8
-79.070402 -7.295895 -37.268871 8
-76.170397 -10.453088 -36.524532 8
-73.574056 -13.974479 -35.330135 8
-71.449138 -18.083605 -33.417372 8
-71.200230 -24.493689 -28.660875 8
-54.770183 -17.989374 -43.187282 9
-49.550503 -18.095258 -46.150549 9
-46.256503 -20.610919 -46.158004 9
-43.874477 -24.366721 -44.692703 9
-42.517839 -29.627831 -41.486551 9
-60.046839 145.928489 -163.171126 0
-53.568749 145.909487 -166.866603 0
-44.782954 147.028152 -172.809421 0
-41.304766 145.967109 -173.946033 0
-35.967038 145.822326 -176.893337 0
-31.221358 145.505005 -179.363656 0
-30.796674 143.155342 -177.712926 0
-30.342872 140.787688 -176.066831 0
-29.878198 138.392524 -174.407249 0
-147.868797 27.267150 -17.291011 7
-142.106864 25.837352 -19.505595 7
-136.656519 24.279359 -21.441433 7
-131.431462 22.641912 -23.187376 7
-126.379143 20.954016 -24.796965 7
-123.268199 17.803575 -24.118951 7
-118.550217 15.959069 -25.417967 7
-110.200314 17.220011 -31.301349 8
-104.387381 16.531951 -34.163739 8
-100.171721 14.556175 -35.077695 8
-96.081184 12.516988 -35.872398 8
-92.130693 10.392403 -36.521705 8
-88.253523 8.236549 -37.107419 8
-84.520688 5.974711 -37.528934 8
-80.915812 3.612466 -37.800250 8
-77.383019 1.197443 -37.991706 8
-74.025619 -1.386317 -37.951292 8
-70.764618 -4.067970 -37.781242 8
-67.688917 -6.956584 -37.343501 8
-60.400859 -5.000756 -43.197580 9
-55.034789 -5.067160 -46.333848 9
-49.996155 -5.392317 -49.077349 9
-46.109661 -7.035451 -50.110468 9
-42.907127 -9.510277 -50.091352 9
-40.124300 -12.540365 -49.393057 9
-37.444788 -15.743844 -48.501966 9
-35.001431 -19.321654 -47.182302 9
-32.846620 -23.381571 -45.318937 9
-31.288740 -28.422050 -42.339707 9
-56.754764 145.838859 -160.554583 0
-47.512506 147.043504 -167.000681 0
-43.036847 146.353896 -169.076455 0
-38.191385 145.916353 -171.580015 0
-31.093005 146.636437 -176.367913 0
-30.104068 144.550456 -175.242507 0
-29.620511 142.195047 -173.599242 0
-29.178554 139.785657 -171.889203 0
-28.713114 137.353630 -170.176635 0
-146.500105 29.712712 -12.515795 7
-140.434911 28.463683 -15.126473 7
-134.670395 27.108094 -17.475003 7
-129.173176 25.655704 -19.589134 7
-123.845889 24.167470 -21.576323 7
-118.780566 22.562519 -23.316018 7
-111.827009 22.568816 -27.492057 8
-105.750736 22.011386 -30.690635 8
-101.157262 20.318025 -32.086809 8
-96.822030 18.465163 -33.202875 8
-92.602064 16.565027 -34.215102 8
-88.512442 14.596483 -35.097366 8
-84.545158 12.558478 -35.853602 8
-80.660577 10.481262 -36.531967 8
-76.900328 8.317173 -37.069051 8
-73.240479 6.081337 -37.491417 8
-69.672564 3.774617 -37.804851 8
-63.971905 3.813949 -41.291428 9
-58.631031 3.600114 -44.360785 9
-53.312077 3.494632 -47.506830 9
-48.587467 2.823583 -49.843378 9
-44.779090 1.142150 -50.819510 9
-41.506596 -1.163973 -50.974398 9
-38.408283 -3.685344 -50.854857 9
-35.371054 -6.292193 -50.633269 9
-32.464984 -9.088251 -50.184256 9
-29.644389 -12.026838 -49.572905 9
-26.984301 -15.229115 -48.656967 9
-24.483767 -18.717293 -47.419404 9
-22.231876 -22.652957 -45.677275 9
-20.448734 -27.422560 -42.988711 9
-58.324215 146.485627 -155.621603 0
-53.108344 145.900342 -158.300238 0
-45.824093 146.318141 -163.076151 0
-40.738510 145.908186 -165.825843 0
-35.079691 145.866937 -169.233728 0
-29.442867 145.936525 -172.722425 0
-28.982868 143.566163 -171.027688 0
-28.480144 141.184189 -169.351014 0
-28.005748 138.753832 -167.618537 0
-27.646370 136.225294 -165.736019 0
-146.153602 31.469436 -6.498179 7
-139.462065 30.604807 -9.888022 7
-133.230829 29.544486 -12.837130 7
-127.406284 28.304165 -15.391244 7
-121.824331 26.987173 -17.736247 7
-116.498676 25.570311 -19.844514 7
-112.153798 23.455803 -20.778238 8
-103.099217 25.293344 -27.865222 8
-98.400487 23.691826 -29.444708 8
-93.831478 22.049985 -30.914047 8
-89.491253 20.271394 -32.132901 8
-85.282728 18.430548 -33.222281 8
-81.167091 16.555709 -34.229298 8
-77.200466 14.586179 -35.069469 8
-73.297935 12.596195 -35.856104 8
-69.521863 10.517138 -36.494387 8
-65.821967 8.392214 -37.050798 8
-58.213192 10.549643 -43.535585 9
-52.892827 10.417332 -46.731711 9
-48.186059 9.716926 -49.085469 9
-44.297766 8.152361 -50.227755 9
-40.886996 6.059893 -50.644983 9
-37.606282 3.825828 -50.868486 9
-34.403970 1.502603 -50.973182 9
-31.256579 -0.887948 -50.991497 9
-28.193525 -3.393076 -50.866598 9
-25.186517 -5.984392 -50.639266 9
-22.253571 -8.696514 -50.270088 9
-19.461224 -11.639986 -49.627564 9
-16.755479 -14.753681 -48.795212 9
-14.195387 -18.146590 -47.647513 9
-11.862611 -21.977402 -46.004431 9
-9.904007 -26.533167 -43.540847 9
-56.626316 145.709972 -151.387616 0
-49.479782 145.961603 -156.069941 0
-41.159547 146.892675 -162.064757 0
-37.291204 145.977762 -163.709097 0
-32.008674 145.800722 -166.865760 0
-28.261057 144.985578 -168.521887 0
-27.800148 142.579863 -166.773297 0
-27.302019 140.158503 -165.036142 0
-26.839446 137.682789 -163.232075 0
-147.555231 32.062463 1.704802 7
-139.574886 32.002800 -3.269605 7
-132.648258 31.374815 -7.104798 7
-126.268977 30.493128 -10.384273 7
-120.346903 29.396275 -13.197145 7
-112.200245 30.149008 -18.969178 8
-105.468854 29.984157 -23.080110 8
-100.593614 28.450589 -24.872894 8
-95.898929 26.844163 -26.492839 8
-91.344515 25.189341 -27.985864 8
-86.819795 23.576833 -29.497865 8
-82.366110 21.968258 -30.970494 8
-78.137137 20.214808 -32.181848 8
-74.062714 18.368768 -33.220084 8
-70.044451 16.517324 -34.220452 8
-66.148489 14.589100 -35.081310 8
-59.334136 15.784411 -40.406338 9
-53.287550 16.363905 -44.731686 9
-48.380884 15.850936 -47.422881 9
-44.386752 14.405840 -48.758218 9
-40.833270 12.500695 -49.431622 9
-37.417910 10.460094 -49.906286 9
-34.051263 8.381813 -50.320638 9
-30.773770 6.208683 -50.601265 9
-27.546805 3.981712 -50.806946 9
-24.369452 1.695808 -50.934021 9
-21.241652 -0.655650 -50.977016 9
-18.190956 -3.119697 -50.879203 9
-15.184356 -5.658612 -50.693057 9
-12.285595 -8.378057 -50.289970 9
-9.449217 -11.223732 -49.744181 9
-6.725233 -14.289618 -48.945596 9
-4.139764 -17.640964 -47.823312 9
-1.704143 -21.324944 -46.330929 9
0.386076 -25.724503 -44.025157 9
-52.612924 145.891254 -149.409115 0
-43.626642 147.004077 -156.151306 0
-39.991926 145.912047 -157.548352 0
-34.185157 145.895357 -161.271973 0
-27.743778 146.312786 -165.779450 0
-27.101419 143.991935 -164.193576 0
-26.614716 141.561535 -162.414051 0
-26.119532 139.099734 -160.613945 0
-25.613158 136.606889 -158.795332 0
-150.658222 25.838726 17.061320 7
-133.589660 32.138406 0.624062 7
-126.231347 31.888517 -3.921172 7
-119.592243 31.268734 -7.685969 7
-109.407210 33.541671 -16.225116 8
-103.542574 32.679929 -19.284892 8
-98.412168 31.339249 -21.460907 8
-93.575578 29.843374 -23.315459 8
-88.834727 28.345593 -25.108003 8
-84.315383 26.729183 -26.657153 8
-79.882699 25.103201 -28.143561 8
-75.514318 23.483933 -29.595620 8
-71.168636 21.908428 -31.071958 8
-67.061042 20.162266 -32.249571 8
-61.850276 19.600456 -35.156518 9
-55.236649 20.636328 -40.340264 9
-49.126691 21.336232 -44.911451 9
-44.903227 20.122071 -46.624605 9
-41.206220 18.379383 -47.546068 9
-37.675300 16.483492 -48.230346 9
-34.194224 14.559489 -48.859730 9
-30.779732 12.581778 -49.401496 9
-27.418041 10.561212 -49.873863 9
-24.109456 8.491600 -50.271353 9
-20.859267 6.359476 -50.579047 9
-17.660511 4.167235 -50.803526 9
-14.503932 1.921196 -50.956207 9
-11.414296 -0.421985 -50.984043 9
-8.377668 -2.851267 -50.905534 9
-5.397096 -5.380741 -50.706713 9
-2.480463 -8.033840 -50.362514 9
0.356379 -10.850077 -49.828996 9
3.110694 -13.850778 -49.086264 9
5.724962 -17.158209 -47.992811 9
8.221074 -20.762519 -46.571376 9
10.444515 -24.991237 -44.442602 9
-54.806732 146.271932 -143.546062 0
-48.943025 145.937535 -147.132510 0
-42.609532 145.935791 -151.322366 0
-36.652136 145.900920 -155.234892 0
-30.972042 145.865982 -158.964427 0
-26.384265 145.420318 -161.611310 0
-25.910095 142.980788 -159.787296 0
-25.402761 140.522085 -157.969050 0
-24.886986 138.030919 -156.128562 0
-128.402804 31.701634 5.523713 7
-120.193813 32.142210 -0.310988 7
-107.907364 35.933633 -11.781211 8
-101.976357 35.093335 -14.986606 8
-96.689482 33.854374 -17.417067 8
-91.662953 32.497194 -19.572378 8
-86.747740 31.134541 -21.649954 8
-82.040056 29.675609 -23.506580 8
-77.456777 28.183092 -25.252196 8
-73.050897 26.599961 -26.801793 8
-68.762671 24.971867 -28.234908 8
-63.679296 24.196890 -30.941914 9
-57.959287 24.183019 -34.737083 9
-50.382884 26.271449 -41.601326 9
-45.834626 25.359519 -43.835624 9
-41.946564 23.807791 -45.073716 9
-38.289658 22.046721 -45.976383 9
-34.710898 20.235030 -46.783813 9
-31.160804 18.425645 -47.575067 9
-27.702444 16.537636 -48.237626 9
-24.288395 14.622553 -48.847983 9
-20.932171 12.657903 -49.377540 9
-17.605011 10.676339 -49.873901 9
-14.350839 8.612644 -50.250997 9
-11.115094 6.536397 -50.605782 9
-7.964247 4.345442 -50.805009 9
-4.856111 2.092316 -50.922545 9
-1.770723 -0.198587 -50.992944 9
1.255974 -2.591181 -50.936613 9
4.217297 -5.107954 -50.729536 9
7.137516 -7.719751 -50.413292 9
9.988217 -10.488349 -49.915187 9
12.761592 -13.445020 -49.202831 9
15.425602 -16.671718 -48.183579 9
17.970412 -20.216760 -46.808887 9
20.293786 -24.326357 -44.796427 9
22.214559 -29.451654 -41.633012 9
-52.347721 145.771624 -139.882794 0
-45.186597 146.030117 -144.986018 0
-39.213034 145.913749 -148.946942 0
-33.171046 145.961508 -153.101067 0
-26.155524 146.619097 -158.461910 0
-25.173553 144.423686 -157.172011 0
-24.659352 141.965746 -155.329809 0
-24.156520 139.464673 -153.441607 0
-23.635988 136.934277 -151.539510 0
-107.423919 37.556150 -5.912355 8
-101.168621 36.916473 -9.603723 8
-95.438392 35.992337 -12.684328 8
-90.037958 34.914036 -15.403261 8
-84.975221 33.654791 -17.731278 8
-80.117325 32.310163 -19.844009 8
-75.385643 30.938854 -21.847307 8
-70.819835 29.496639 -23.674751 8
-66.333012 28.056237 -25.450312 8
-60.398689 28.123232 -29.555083 9
-54.415884 28.400962 -33.880863 9
-48.925292 28.333976 -37.564502 9
-43.046381 28.833486 -42.017540 9
-39.281167 27.166304 -43.100869 9
-35.551077 25.507480 -44.167998 9
-31.924269 23.774697 -45.099174 9
-28.356314 22.012317 -45.964177 9
-24.822435 20.245964 -46.802710 9
-21.363177 18.420681 -47.538206 9
-17.956636 16.557656 -48.204458 9
-14.596778 14.659385 -48.807801 9
-11.263158 12.749210 -49.382957 9
-8.006292 10.750686 -49.827432 9
-4.770610 8.736621 -50.243928 9
-1.586635 6.656609 -50.566766 9
1.532966 4.482338 -50.762113 9
4.636043 2.281743 -50.923067 9
7.707612 0.025328 -51.013161 9
10.702612 -2.373073 -50.924982 9
13.661448 -4.855770 -50.737437 9
16.585322 -7.430226 -50.444707 9
19.437467 -10.178521 -49.948685 9
22.245238 -13.064838 -49.299911 9
24.962046 -16.202022 -48.366206 9
27.547027 -19.706819 -47.015839 9
29.996885 -23.628262 -45.202957 9
32.080658 -28.554041 -42.247162 9
-53.296018 146.697082 -135.094019 0
-45.840550 147.009694 -140.592835 0
-41.855797 145.942577 -142.411489 0
-35.539274 146.025629 -146.904846 0
-29.813000 145.971537 -150.860666 0
-24.477474 145.854238 -154.485612 0
-23.945204 143.402069 -152.631414 0
-23.419894 140.909496 -150.735453 0
-22.877425 138.387663 -148.824711 0
-109.797589 37.027295 4.022212 8
-101.195613 38.101498 -2.964330 8
-97.861730 35.182007 -2.639706 8
-89.086980 36.778048 -10.220588 8
-83.634394 35.810836 -13.150117 8
-80.658990 32.783343 -12.475824 8
-73.590712 33.446003 -18.015068 8
-68.868182 32.133017 -20.119261 8
-63.763195 31.272928 -22.902044 9
-57.326101 31.836881 -27.909724 9
-51.229198 32.248081 -32.540616 9
-46.126686 31.800765 -35.696083 9
-41.932615 30.502920 -37.443403 9
-37.323447 29.738400 -39.965298 9
-32.974561 28.780785 -42.129541 9
-29.288828 27.134498 -43.204115 9
-25.691325 25.428452 -44.162434 9
-22.118253 23.733897 -45.113846 9
-18.597224 22.013754 -46.005352 9
-15.156371 20.225784 -46.778890 9
-11.745340 18.429907 -47.524120 9
-8.392758 16.582741 -48.181594 9
-5.070314 14.718277 -48.801995 9
-1.796749 12.804633 -49.343240 9
1.446128 10.863127 -49.837417 9
4.629134 8.842447 -50.217472 9
7.779115 6.777191 -50.533620 9
10.895443 4.660106 -50.778820 9
13.967240 2.465112 -50.921745 9
17.005146 0.202068 -50.978789 9
20.012100 -2.131972 -50.949318 9
22.977814 -4.565958 -50.799802 9
25.885386 -7.146165 -50.476329 9
28.759982 -9.836805 -50.029018 9
31.575078 -12.708965 -49.374657 9
34.332983 -15.778896 -48.500053 9
36.980917 -19.194649 -47.233618 9
39.510811 -23.017814 -45.513638 9
41.765041 -27.701188 -42.817973 9
-51.213705 146.010157 -130.868039 0
-44.658682 145.956138 -135.530799 0
-38.248302 145.984899 -140.165338 0
-32.028232 146.071680 -144.716010 0
-26.849024 145.795739 -148.182819 0
-23.200327 144.862359 -149.941567 0
-22.674088 142.367300 -148.012584 0
-22.165921 139.823643 -146.025037 0
-21.610687 137.264904 -144.056695 0
-103.598479 37.464474 7.219735 8
-95.571580 38.189319 0.796417 8
-88.850654 38.065757 -3.903139 8
-82.902803 37.458302 -7.598906 8
-77.411147 36.591571 -10.726307 8
-72.180694 35.610438 -13.559460 8
-67.166008 34.540316 -16.154513 8
-61.115320 34.561273 -20.503129 9
-54.483662 35.318182 -25.949948 9
-48.463022 35.663133 -30.576027 9
-43.745935 34.828256 -33.172703 9
-39.645516 33.436144 -34.809676 9
-35.724487 31.914516 -36.197078 9
-31.791483 30.465701 -37.659766 9
-27.304393 29.728829 -40.179323 9
-23.152360 28.690808 -42.178565 9
-19.558018 27.041518 -43.210091 9
-16.001193 25.388199 -44.210147 9
-12.482250 23.727230 -45.175115 9
-9.048649 21.990354 -46.007623 9
-5.655936 20.230377 -46.788533 9
-2.288523 18.465333 -47.545758 9
1.020710 16.643021 -48.207263 9
4.294617 14.790970 -48.814974 9
7.497793 12.847355 -49.286094 9
10.714336 10.940183 -49.799754 9
13.878890 8.959402 -50.206902 9
17.003018 6.915961 -50.525970 9
20.098211 4.822595 -50.777002 9
23.148467 2.641948 -50.913804 9
26.176979 0.408659 -50.985149 9
29.177162 -1.897893 -50.967136 9
32.143266 -4.299426 -50.835423 9
35.064339 -6.832115 -50.548496 9
37.939048 -9.515437 -50.087239 9
40.782338 -12.332729 -49.477796 9
43.533975 -15.450218 -48.522356 9
46.070141 -19.225996 -46.799011 9
48.281611 -24.039993 -43.875821 9
-47.914360 145.832438 -127.954456 0
-41.186091 145.898217 -132.986539 0
-34.902702 145.914248 -137.642078 0
-29.013392 145.887390 -141.965131 0
-22.610152 146.254135 -147.036893 0
-21.931051 143.832226 -145.257393 0
-21.396762 141.299316 -143.265407 0
-20.843627 138.736107 -141.257677 0
-20.486311 136.019904 -138.960221 0
-90.402364 37.908926 5.237334 8
-83.231707 38.225417 -0.327218 8
-77.003298 37.922733 -4.611563 8
-71.312784 37.296655 -8.192869 8
-66.033150 36.426844 -11.239909 8
-58.882678 37.451844 -17.454232 9
-51.869925 38.570954 -23.655190 9
-46.204768 38.562040 -27.796497 9
-41.748934 37.455602 -30.008461 9
-37.591631 36.118819 -31.781471 9
-33.539170 34.739517 -33.435730 9
-29.584245 33.318066 -34.976964 9
-25.778153 31.786669 -36.303249 9
-21.935165 30.355801 -37.750475 9
-17.510401 29.710062 -40.367831 9
-13.538474 28.591155 -42.202784 9
-9.995540 26.980733 -43.255310 9
-6.502947 25.345504 -44.245924 9
-3.050832 23.694212 -45.190156 9
0.328072 21.974929 -46.014711 9
3.678026 20.244964 -46.806438 9
6.990074 18.486917 -47.542246 9
10.266997 16.700072 -48.223489 9
13.485371 14.840300 -48.791066 9
16.675420 12.949816 -49.307213 9
19.838127 11.025127 -49.769319 9
22.975779 9.064863 -50.177743 9
26.072944 7.033832 -50.487703 9
29.158653 4.979914 -50.765962 9
32.191689 2.814212 -50.897772 9
35.209093 0.601302 -50.971631 9
38.199662 -1.690564 -50.949105 9
41.174333 -4.046938 -50.851906 9
44.063714 -6.643488 -50.461996 9
46.788898 -9.708980 -49.503725 9
49.324496 -13.371011 -47.836787 9
51.607529 -17.880376 -45.175959 9
52.085744 -27.776882 -36.060715 9
-49.343522 146.555679 -122.309751 0
