ply
format ascii 1.0
element vertex 1401
property float x
property float y
property float z
property int scalar_Label
end_header
-7.971665 -33.585126 35.524705 9
-10.893277 -33.338681 35.730516 9
-13.820382 -33.144905 35.921043 9
-16.742992 -33.033334 36.086045 9
-19.749232 -32.717670 36.324625 9
-22.776155 -32.414195 36.562117 9
-25.816760 -32.144802 36.790960 9
-28.885593 -31.866740 37.026036 9
-31.988529 -31.566773 37.272037 9
-35.126329 -31.247138 37.528286 9
-38.219975 -31.118393 37.721281 9
-41.297269 -31.095455 37.880560 9
-54.276173 -6.736278 46.578287 9
-48.836885 -27.906122 39.313357 9
217.106170 136.501992 94.283920 0
212.232220 136.487591 94.256978 0
207.414201 136.547310 94.259613 0
202.581158 136.472587 94.219878 0
197.795952 136.454663 94.203669 0
193.028152 136.402398 94.179531 0
188.320087 136.462003 94.197827 0
183.641464 136.541889 94.226957 0
178.980499 136.604564 94.253968 0
174.323470 136.598605 94.261108 0
169.695391 136.620793 94.281712 0
165.087880 136.643772 94.306330 0
160.383224 136.149316 94.156229 0
54.449387 -22.937914 40.363968 9
51.765655 -25.121591 39.674748 9
49.163171 -28.061467 38.722587 9
46.582732 -30.442313 37.966599 9
43.904387 -30.850035 37.901997 9
41.202849 -30.925310 37.955974 9
38.489426 -30.905242 38.045744 9
35.770313 -30.883424 38.138585 9
33.043528 -30.847597 38.238827 9
30.311180 -30.822680 38.337751 9
27.567648 -30.768301 38.449577 9
24.821063 -30.750939 38.550951 9
22.067236 -30.739689 38.652758 9
19.302647 -30.715504 38.761746 9
16.528882 -30.692969 38.872807 9
13.736593 -30.624676 39.002743 9
10.936474 -30.575341 39.128727 9
8.124369 -30.524907 39.257883 9
5.309317 -30.517823 39.374474 9
2.471766 -30.465126 39.510104 9
-0.380627 -30.407560 39.650375 9
-3.243020 -30.367683 39.787298 9
-6.135188 -30.269920 39.947863 9
-9.020326 -30.259208 40.080413 9
-11.937756 -30.188624 40.237440 9
-14.871367 -30.122127 40.396167 9
-17.811873 -30.092088 40.545026 9
-20.784286 -30.017660 40.713069 9
-23.767325 -29.970771 40.874538 9
-26.777973 -29.900634 41.047754 9
-29.798034 -29.863808 41.212399 9
-32.863215 -29.760284 41.404646 9
-36.086254 -29.295323 41.731438 9
-39.350177 -28.808700 42.070228 9
-42.686343 -28.225373 42.448419 9
-47.727580 -23.543185 44.323397 9
217.583630 136.171181 99.846081 0
212.799780 136.455297 99.907594 0
207.959280 136.496475 99.886813 0
203.422148 137.384948 100.173784 0
198.345580 136.519671 99.837926 0
193.579845 136.529873 99.819818 0
188.844028 136.552884 99.810790 0
184.141031 136.604572 99.816477 0
179.454581 136.631976 99.817904 0
174.800714 136.698307 99.837639 0
169.911292 135.729213 99.491520 0
48.997009 -24.319407 43.423005 9
46.427799 -27.628079 42.304645 9
43.773719 -28.879209 41.932706 9
41.038051 -28.882511 42.015351 9
38.270561 -28.592385 42.207289 9
35.497715 -28.358256 42.381867 9
32.703666 -28.030202 42.593592 9
29.901524 -27.742162 42.793834 9
27.069817 -27.329157 43.042713 9
24.226437 -26.945927 43.283959 9
21.357242 -26.499090 43.551686 9
18.469690 -26.049486 43.823771 9
15.570137 -25.637312 44.085556 9
12.614801 -25.024745 44.424194 9
9.623180 -24.346284 44.790654 9
6.612553 -23.698568 45.149586 9
3.529103 -22.833646 45.592207 9
0.344086 -21.659438 46.152798 9
-2.981285 -20.058771 46.875089 9
213.397430 136.495973 105.631559 0
208.522742 136.486820 105.574823 0
203.728964 136.633131 105.581045 0
198.896647 136.574818 105.516610 0
194.115559 136.589608 105.484471 0
189.377682 136.662288 105.478924 0
184.643632 136.663451 105.451957 0
179.747024 135.972418 105.173577 0
209.015431 136.253201 111.225384 0
204.235297 136.484062 111.248645 0
199.461704 136.659435 111.256437 0
194.417702 135.866294 110.898264 0
-146.551004 11.189506 -27.836808 7
-141.721979 9.675991 -28.375864 7
-137.033247 8.107151 -28.866004 7
-132.534620 6.435268 -29.270017 7
-128.164105 4.704530 -29.626174 7
-124.009600 2.832401 -29.869941 7
-116.644598 3.858508 -32.421476 8
-106.843041 7.256611 -36.810610 8
-102.303727 6.028951 -37.517930 8
-98.429245 4.232355 -37.780495 8
-94.779652 2.254197 -37.907599 8
-91.204808 0.229611 -38.006133 8
-87.888848 -2.030890 -37.933610 8
-84.753424 -4.462771 -37.743062 8
-81.969294 -7.256610 -37.295586 8
-79.636192 -10.542370 -36.501557 8
-78.233341 -14.874331 -34.962673 8
-79.362185 -22.102745 -31.349097 8
-53.673689 -4.686067 -47.185324 9
-46.866052 -2.427236 -50.347068 9
-43.355246 -3.967249 -50.789648 9
-40.602137 -6.412495 -50.603647 9
-38.186090 -9.290864 -50.132323 9
-36.046504 -12.552444 -49.417317 9
-34.407375 -16.517303 -48.246011 9
-34.155599 -22.425338 -45.788355 9
-147.415839 17.175794 -24.578160 7
-142.177471 15.939332 -25.390613 7
-137.056868 14.681673 -26.175458 7
-132.139256 13.328784 -26.871259 7
-127.349924 11.934019 -27.525470 7
-122.721286 10.464416 -28.112177 7
-113.078927 13.408225 -32.335818 8
-105.875852 14.428404 -34.922754 8
-101.369587 13.163713 -35.620179 8
-97.160009 11.684198 -36.140499 8
-93.088970 10.123238 -36.594904 8
-89.095887 8.532003 -37.025932 8
-85.256129 6.832595 -37.373385 8
-81.514539 5.071751 -37.676113 8
-77.940137 3.173260 -37.876721 8
-74.538071 1.121547 -37.966153 8
-71.255215 -1.037658 -37.982292 8
-63.431861 1.766720 -41.753098 9
-54.515442 6.010278 -46.551579 9
-47.984852 7.824062 -49.480536 9
-43.895371 6.981428 -50.417291 9
-40.597413 5.262722 -50.710185 9
-37.464092 3.368442 -50.882638 9
-34.445201 1.348156 -50.973567 9
-31.533515 -0.798165 -50.985323 9
-28.756281 -3.114723 -50.888952 9
-26.108953 -5.607355 -50.683398 9
-23.659206 -8.379339 -50.299818 9
-21.470444 -11.536789 -49.669654 9
-19.709940 -15.340855 -48.620340 9
-18.822379 -20.474426 -46.698122 9
-145.281404 20.170737 -20.653122 7
-139.966170 18.978443 -21.553867 7
-134.001176 18.379352 -22.963410 7
-128.313330 17.654337 -24.243127 7
-123.303915 16.458362 -25.099001 7
-118.474565 15.180329 -25.875090 8
-106.675185 19.998893 -31.816772 8
-101.752134 19.062922 -32.822551 8
-97.251045 17.820885 -33.562318 8
-92.921632 16.481048 -34.215445 8
-88.688350 15.105812 -34.835705 8
-84.527135 13.713760 -35.439452 8
-80.523872 12.217471 -35.956946 8
-76.592255 10.694629 -36.452902 8
-72.777480 9.095444 -36.888727 8
-69.098835 7.393106 -37.245186 8
-59.922760 11.581614 -42.206823 9
-52.294187 14.368868 -46.012098 9
-46.788600 15.017625 -48.122184 9
-42.792571 14.080620 -48.999379 9
-39.377019 12.528969 -49.407974 9
-35.989172 10.975410 -49.819226 9
-32.743571 9.279861 -50.129219 9
-29.538106 7.557885 -50.426078 9
-26.410606 5.758779 -50.673400 9
-23.380214 3.851622 -50.850323 9
-20.439896 1.837494 -50.959740 9
-17.607366 -0.315510 -50.980908 9
-14.885602 -2.621579 -50.906344 9
-12.279146 -5.098055 -50.726635 9
-9.849051 -7.844908 -50.375075 9
-7.632359 -10.935461 -49.805604 9
-5.780848 -14.622103 -48.850816 9
-4.667943 -19.521582 -47.100728 9
-142.545966 23.614909 -17.175686 7
-137.049456 22.557078 -18.246574 7
-131.608520 21.537804 -19.336141 7
-126.346724 20.456063 -20.353933 7
-121.264378 19.304130 -21.295479 7
-107.444620 25.598207 -28.779015 8
-102.189315 24.900405 -30.037175 8
-97.399604 23.879117 -30.999059 8
-93.835527 21.827341 -31.066219 8
-89.351622 20.645563 -31.878179 8
-84.955210 19.443681 -32.665944 8
-80.721525 18.145886 -33.367145 8
-76.550364 16.841563 -34.058485 8
-72.488525 15.481330 -34.700013 8
-68.528366 14.067216 -35.295026 8
-62.656376 14.689888 -37.535948 9
-52.154690 20.367759 -43.803553 9
-46.653170 20.962537 -45.933632 9
-42.606193 20.069911 -46.864503 9
-39.013028 18.723786 -47.434808 9
-35.516075 17.306508 -47.950451 9
-32.067342 15.868524 -48.451969 9
-28.693661 14.374474 -48.913080 9
-25.376926 12.841514 -49.348137 9
-22.134429 11.243816 -49.738751 9
-18.965044 9.577172 -50.083253 9
-15.851913 7.857939 -50.395245 9
-12.824541 6.041632 -50.643309 9
-9.886829 4.115210 -50.819926 9
-7.028113 2.085239 -50.931995 9
-4.256956 -0.068577 -50.967009 9
-1.566717 -2.345723 -50.927671 9
0.998789 -4.821506 -50.763271 9
3.377892 -7.605566 -50.400820 9
5.587235 -10.693655 -49.848636 9
7.478007 -14.348262 -48.931674 9
8.700508 -19.189410 -47.237149 9
-148.091596 26.135516 -10.720657 7
-140.616517 26.438688 -13.168698 7
-134.753278 25.643956 -14.543471 7
-129.125865 24.758584 -15.811160 7
-123.700006 23.800264 -16.991498 7
-118.453401 22.778854 -18.096352 7
-105.031875 28.704983 -25.473263 8
-100.017111 27.793569 -26.590655 8
-95.092485 26.881191 -27.692223 8
-90.238352 25.982186 -28.791469 8
-85.527397 25.027851 -29.828845 8
-80.874288 24.091301 -30.869714 8
-77.470452 22.034112 -30.936499 8
-73.175156 20.867557 -31.767433 8
-69.010953 19.629820 -32.531359 8
-64.936951 18.355484 -33.259333 8
-57.126234 21.014972 -37.249376 9
-47.350818 25.980383 -43.079624 9
-43.061968 25.316706 -44.225068 9
-39.322902 24.115906 -44.925307 9
-35.662080 22.873936 -45.589967 9
-32.092224 21.571469 -46.204902 9
-28.563258 20.261870 -46.813847 9
-25.129614 18.877207 -47.364106 9
-21.737347 17.477405 -47.904039 9
-18.413939 16.025211 -48.405568 9
-15.148483 14.529658 -48.876911 9
-11.953539 12.969819 -49.303322 9
-8.810317 11.365310 -49.701033 9
-5.716016 9.715669 -50.070792 9
-2.697011 7.979369 -50.382972 9
0.229260 6.124099 -50.615693 9
3.100017 4.195500 -50.804521 9
5.903861 2.170288 -50.934171 9
8.639338 0.038555 -50.999458 9
11.258151 -2.284531 -50.942226 9
13.760999 -4.812232 -50.756641 9
16.127669 -7.593431 -50.412266 9
18.325126 -10.703197 -49.861602 9
20.185909 -14.458036 -48.893016 9
21.450795 -19.369617 -47.169068 9
-145.964576 29.128198 -6.805001 7
-139.534016 28.621713 -8.561253 7
-133.437294 27.970968 -10.146198 7
-127.547480 27.261250 -11.646754 7
-121.937521 26.425868 -13.002636 7
-110.116585 30.765689 -19.195099 8
-103.431705 31.123951 -21.574316 8
-98.250285 30.334107 -22.855764 8
-93.138073 29.568370 -24.140388 8
-88.173960 28.754491 -25.363131 8
-83.367849 27.876935 -26.512126 8
-78.651736 26.991645 -27.639522 8
-74.047867 26.073914 -28.724512 8
-69.580021 25.095568 -29.743969 8
-65.121472 24.175627 -30.803174 8
-58.510971 25.507301 -33.786642 9
-51.302078 27.624774 -37.396337 9
-44.226400 29.799171 -41.000588 9
-40.156261 28.919862 -41.993469 9
-36.384136 27.773686 -42.756227 9
-32.665441 26.617050 -43.506219 9
-29.016524 25.428368 -44.226493 9
-25.463001 24.173312 -44.890344 9
-21.963841 22.895087 -45.534244 9
-18.503281 21.609818 -46.171896 9
-15.098160 20.294082 -46.785314 9
-11.768762 18.917984 -47.352037 9
-8.485128 17.515324 -47.899846 9
-5.264323 16.059746 -48.409268 9
-2.121520 14.525201 -48.861718 9
1.009110 12.997786 -49.324236 9
4.067759 11.390304 -49.731416 9
7.039084 9.673158 -50.062954 9
9.970292 7.908862 -50.367335 9
12.836969 6.055166 -50.614671 9
15.659396 4.136833 -50.824808 9
18.386043 2.064489 -50.934655 9
21.074197 -0.078571 -51.006729 9
23.637140 -2.446286 -50.933260 9
26.097004 -5.017378 -50.733330 9
28.441923 -7.828938 -50.384753 9
30.590410 -11.049565 -49.775173 9
32.443418 -14.898054 -48.761623 9
33.640807 -20.121395 -46.846683 9
-146.738345 29.996076 -0.769220 7
-139.733601 29.850212 -2.984050 7
-133.033157 29.602747 -5.055664 7
-126.766903 29.140080 -6.877058 7
-120.747920 28.591782 -8.582102 7
-108.489168 33.232485 -15.264903 8
-105.015545 30.890044 -15.149876 8
-96.840880 32.567442 -18.848188 8
-91.684433 31.815814 -20.202415 8
-86.553125 31.127760 -21.595255 8
-81.665000 30.305989 -22.844242 8
-76.801598 29.540908 -24.127647 8
-72.048105 28.752270 -25.372316 8
-67.437652 27.903226 -26.546614 8
-61.195952 28.743248 -29.209514 9
-53.969832 30.726133 -32.840745 9
-47.628550 31.989413 -35.786778 9
-43.015497 31.587891 -37.246075 9
-38.752656 30.894228 -38.436825 9
-34.390753 30.381855 -39.769633 9
-30.094302 29.874513 -41.092289 9
-26.264226 28.907210 -42.015838 9
-22.630245 27.765035 -42.787493 9
-19.077454 26.572576 -43.514042 9
-15.571844 25.366431 -44.226865 9
-12.131575 24.120939 -44.905880 9
-8.738525 22.854994 -45.567465 9
-5.393507 21.564409 -46.209077 9
-2.132867 20.196770 -46.790182 9
1.110837 18.838243 -47.380127 9
4.274843 17.399278 -47.909515 9
7.403343 15.936638 -48.423936 9
10.480866 14.424357 -48.904308 9
13.509254 12.860337 -49.350269 9
16.487937 11.238692 -49.758644 9
19.398172 9.524207 -50.104533 9
22.257812 7.738019 -50.405514 9
25.049610 5.844977 -50.637377 9
27.824769 3.923784 -50.859463 9
30.514986 1.851581 -50.983960 9
33.093332 -0.432518 -50.970271 9
35.635304 -2.806153 -50.909042 9
38.075167 -5.401413 -50.709198 9
40.372358 -8.315267 -50.307220 9
42.492318 -11.642701 -49.643173 9
44.171990 -15.957776 -48.331060 9
44.862548 -22.500887 -45.545406 9
-141.802271 29.705360 4.078628 7
-134.259499 30.005751 1.333132 7
-127.202231 30.080821 -1.131304 7
-120.713265 29.843500 -3.236234 7
-107.855479 34.891705 -10.544227 8
-101.653012 34.778117 -12.645335 8
-96.106071 34.229058 -14.285671 8
-90.610245 33.734127 -15.950627 8
-85.371616 33.110499 -17.465362 8
-80.222228 32.497574 -18.966428 8
-75.365395 31.704397 -20.275537 8
-70.415321 31.079984 -21.722756 8
-65.776661 30.241436 -22.952071 8
-57.202230 33.364078 -27.782040 9
-50.043276 35.308222 -31.466190 9
-44.840535 35.429305 -33.456646 9
-40.626899 34.618915 -34.590803 9
-36.688706 33.580078 -35.510984 9
-32.798579 32.545399 -36.426365 9
-29.017911 31.443689 -37.275774 9
-24.872498 30.814487 -38.524636 9
-20.676558 30.317512 -39.873322 9
-16.530734 29.837838 -41.222567 9
-12.908604 28.790301 -42.082862 9
-9.405941 27.642663 -42.855120 9
-5.973311 26.449753 -43.587032 9
-2.599614 25.221220 -44.287841 9
0.733709 23.977867 -44.975514 9
4.041251 22.737121 -45.664717 9
7.248582 21.392240 -46.270849 9
10.421361 20.029239 -46.864202 9
13.579625 18.675037 -47.466521 9
16.649486 17.216610 -47.990272 9
19.687190 15.732390 -48.498124 9
22.679451 14.197985 -48.972250 9
25.611885 12.584885 -49.392315 9
28.519022 10.943788 -49.798099 9
31.363800 9.207812 -50.140618 9
34.168072 7.407074 -50.444090 9
36.912744 5.501062 -50.680298 9
39.621493 3.524505 -50.876567 9
42.253853 1.393947 -50.974347 9
44.704288 -1.110142 -50.820027 9
46.865048 -4.235425 -50.245329 9
48.720961 -8.065096 -49.203123 9
50.239392 -12.727473 -47.616735 9
51.139635 -18.905793 -45.029752 9
-139.098357 27.705416 10.676484 7
-130.024236 29.195503 6.595000 7
-122.339629 29.796055 3.508951 7
-108.163951 35.796992 -5.020508 8
-101.472828 36.026103 -7.562334 8
-95.669111 35.644514 -9.446969 8
-90.054410 35.207899 -11.243753 8
-84.614041 34.721088 -12.960415 8
-79.379140 34.148450 -14.565064 8
-74.148423 33.665669 -16.230421 8
-69.194112 33.018590 -17.712838 8
-61.624512 34.976842 -21.635733 9
-53.998164 37.192967 -25.734480 9
-47.330217 38.655504 -29.065647 9
-42.518482 38.382662 -30.746738 9
-38.457359 37.414736 -31.770492 9
-34.453863 36.446802 -32.782855 9
-30.527939 35.454424 -33.762622 9
-26.669501 34.444853 -34.717460 9
-22.888188 33.403473 -35.635528 9
-19.155419 32.359467 -36.543612 9
-15.492281 31.285075 -37.418318 9
-11.465356 30.709825 -38.715008 9
-7.443630 30.201364 -40.055555 9
-3.445353 29.738181 -41.420990 9
-0.004246 28.616520 -42.222737 9
3.360865 27.437053 -42.973225 9
6.695538 26.256807 -43.720960 9
9.973394 25.036638 -44.434469 9
13.215062 23.801847 -45.135406 9
16.381169 22.491256 -45.775433 9
19.512251 21.159353 -46.399718 9
22.603539 19.795622 -47.000738 9
25.636817 18.367123 -47.553719 9
28.652345 16.933488 -48.106419 9
31.608019 15.422295 -48.603613 9
34.530466 13.872122 -49.076454 9
37.418420 12.276484 -49.521054 9
40.231565 10.557515 -49.880230 9
43.021527 8.800383 -50.219779 9
45.588755 6.619463 -50.256751 9
47.933419 3.979417 -49.973445 9
50.051978 0.834461 -49.345352 9
51.927502 -2.893111 -48.326054 9
53.581744 -7.206194 -46.924137 9
54.961101 -12.272321 -45.031957 9
55.766120 -18.833639 -42.143771 9
-129.780088 25.210132 15.191753 7
-111.120447 34.590469 2.793043 8
-102.161182 36.570876 -1.693127 8
-95.943271 36.470527 -3.957483 8
-90.039051 36.224103 -6.031378 8
-84.386242 35.871355 -7.960835 8
-78.756199 35.605707 -9.943376 8
-76.076908 32.740702 -9.323991 8
-68.345687 34.608539 -13.352051 8
-59.099450 38.134098 -18.917333 9
-51.058953 40.751674 -23.512760 9
-45.163476 41.447302 -26.199763 9
-40.642664 40.873228 -27.645737 9
-36.447416 40.039335 -28.828620 9
-32.453571 39.058042 -29.860014 9
-28.441089 38.158179 -30.954470 9
-24.524923 37.213732 -31.996014 9
-20.693625 36.232264 -32.993240 9
-16.886868 35.279722 -34.006648 9
-13.209730 34.229414 -34.923888 9
-9.568803 33.187178 -35.840815 9
-5.978213 32.133658 -36.740936 9
-2.409410 31.102759 -37.654315 9
1.529796 30.611599 -39.023616 9
5.417766 30.126997 -40.384945 9
9.119523 29.460021 -41.579809 9
12.461050 28.348274 -42.393845 9
15.721075 27.161456 -43.142848 9
18.948013 25.964225 -43.881838 9
22.111897 24.708464 -44.572294 9
25.267259 23.473290 -45.279581 9
28.356082 22.165809 -45.929367 9
31.407038 20.825995 -46.555147 9
34.403288 19.421522 -47.132486 9
37.378729 18.004489 -47.703576 9
40.311778 16.534292 -48.237580 9
43.181219 14.966751 -48.701970 9
45.864691 13.064002 -48.918200 9
48.339845 10.754533 -48.839106 9
50.593878 7.978540 -48.427982 9
52.695270 4.835374 -47.767384 9
54.644223 1.294278 -46.841701 9
56.480073 -2.594224 -45.695180 9
58.170486 -6.931229 -44.261262 9
59.600579 -12.017144 -42.333149 9
57.266212 -26.139630 -34.043333 9
-103.885903 36.285958 5.158985 8
-97.104363 36.568671 2.380014 8
-90.854939 36.540508 -0.021052 8
-84.741388 36.520803 -2.385777 8
-78.870339 36.409592 -4.613462 8
-73.325846 36.118689 -6.619174 8
-67.997391 35.734454 -8.496421 8
-57.013328 40.864777 -15.826489 9
-48.848114 43.588790 -20.653177 9
-43.404935 43.826332 -22.967952 9
-39.080515 43.040182 -24.255078 9
-34.822398 42.257862 -25.527751 9
-30.695543 41.407090 -26.718131 9
-26.570768 40.621879 -27.954947 9
-22.627952 39.702311 -29.050902 9
-18.726424 38.797734 -30.148173 9
-14.894415 37.873544 -31.215401 9
-11.107961 36.954702 -32.276410 9
-7.432436 35.958779 -33.257548 9
-3.764267 35.008380 -34.270627 9
-0.233103 33.937419 -35.168315 9
3.328815 32.956449 -36.138514 9
6.739193 31.823545 -36.969484 9
10.313825 30.962719 -38.030408 9
14.095352 30.452468 -39.382724 9
17.865268 29.998976 -40.770477 9
21.316934 29.147302 -41.811162 9
24.544141 28.008103 -42.606025 9
27.715069 26.820667 -43.359092 9
30.852667 25.616399 -44.097462 9
33.943189 24.369724 -44.801112 9
36.989992 23.081384 -45.471873 9
39.996005 21.751618 -46.111126 9
42.953095 20.361157 -46.704801 9
45.765036 18.727848 -47.111649 9
48.313703 16.608737 -47.147989 9
50.713275 14.182700 -46.961513 9
52.919837 11.336329 -46.471757 9
55.057935 8.287599 -45.852139 9
57.146207 5.058403 -45.123061 9
59.155152 1.569669 -44.229121 9
61.040579 -2.299413 -43.086062 9
62.068717 -8.264290 -40.445232 9
62.370620 -16.208296 -36.430573 9
61.339661 -27.793237 -29.882827 9
-99.769262 35.436482 10.174119 8
-92.639985 36.049482 6.963756 8
-85.971928 36.421479 4.071509 8
-79.797837 36.500185 1.542341 8
-73.796355 36.552333 -0.912208 8
-68.099000 36.448236 -3.161276 8
-55.266765 43.267762 -12.431640 9
-47.338860 45.736792 -17.135162 9
-42.119923 45.730788 -19.277581 9
-37.759048 44.960575 -20.626923 9
-33.325615 44.341397 -22.104526 9
-29.134526 43.543983 -23.386861 9
-24.963929 42.795472 -24.698680 9
-20.929615 41.966767 -25.916240 9
-16.897988 41.202488 -27.179394 9
-13.030006 40.315686 -28.311890 9
-9.243331 39.393831 -29.398929 9
-5.451964 38.537655 -30.534917 9
-1.774447 37.600263 -31.584745 9
1.876501 36.685865 -32.645380 9
5.389507 35.646833 -33.584417 9
8.895235 34.648474 -34.552422 9
12.346332 33.626107 -35.491959 9
15.725463 32.551263 -36.379229 9
19.078321 31.484464 -37.268366 9
22.621504 30.747348 -38.435932 9
26.303173 30.283757 -39.827233 9
29.964606 29.863486 -41.242445 9
33.140458 28.738921 -42.055493 9
36.287699 27.606462 -42.859947 9
39.362798 26.390032 -43.593780 9
42.412947 25.163260 -44.319193 9
45.317848 23.708936 -44.861106 9
47.995750 21.856933 -45.088171 9
50.499148 19.671938 -45.060254 9
52.813421 17.096829 -44.739316 9
55.090905 14.401480 -44.344250 9
57.297141 11.504884 -43.814780 9
59.468656 8.466596 -43.200709 9
61.613072 5.290911 -42.508132 9
63.669256 1.829027 -41.627400 9
62.162219 -9.964037 -34.541528 9
66.149697 -9.313211 -36.829917 5
68.083732 -13.553070 -35.498460 5
-96.788322 33.581214 16.281467 8
-88.856698 34.908111 12.200890 8
-81.603228 35.829252 8.637802 8
-75.122963 36.222272 5.706768 8
-68.877067 36.544106 2.906186 8
-54.547970 44.691992 -8.026041 9
-46.299126 47.427718 -13.146137 9
-41.159794 47.312713 -15.248049 9
-36.607791 46.708206 -16.816841 9
-32.130681 46.109943 -18.366891 9
-27.824296 45.412721 -19.794264 9
-23.513750 44.797282 -21.281307 9
-19.381782 44.062029 -22.629483 9
-15.356041 43.278135 -23.912006 9
-11.393214 42.490002 -25.173712 9
-7.542917 41.635052 -26.355959 9
-3.688939 40.848554 -27.588888 9
0.054605 39.989347 -28.739505 9
3.709979 39.078247 -29.829650 9
5.458668 35.708263 -28.650576 9
10.889421 37.255217 -31.977265 9
14.355960 36.258840 -32.959797 9
17.795062 35.274908 -33.945792 9
21.191614 34.280249 -34.914954 9
24.512520 33.222540 -35.822078 9
27.806876 32.170092 -36.728625 9
31.032313 31.054814 -37.576143 9
34.638463 30.594640 -38.981141 9
38.183393 30.108401 -40.351385 9
41.611701 29.497315 -41.604897 9
44.613169 28.207674 -42.283046 9
47.416518 26.591416 -42.691976 9
50.005519 24.590082 -42.791051 9
52.382029 22.173759 -42.564341 9
54.789801 19.780929 -42.374079 9
57.090638 17.136743 -42.000275 9
59.416857 14.491687 -41.646625 9
61.405613 11.075776 -40.708486 9
63.146671 7.015554 -39.300019 9
64.925944 2.896937 -37.886388 5
67.594165 0.693145 -37.978842 5
70.206157 -1.677381 -37.960040 5
72.720395 -4.334239 -37.743436 5
75.117953 -7.354679 -37.277114 5
77.312800 -11.003177 -36.372640 5
78.996735 -16.187849 -34.376451 5
-101.624738 24.894450 30.035624 8
-86.535419 32.419249 18.925812 8
-78.134184 34.388350 14.113914 8
-71.063214 35.351769 10.485117 8
-54.421331 45.560080 -2.984376 9
-45.749851 48.645605 -8.632300 9
-40.555118 48.544660 -10.824209 9
-35.779473 48.129360 -12.650237 9
-31.183928 47.621659 -14.350161 9
-26.749838 47.031081 -15.937723 9
-22.340220 46.497533 -17.558059 9
-18.146224 45.808400 -18.997562 9
-14.031911 45.104562 -20.401549 9
-9.904694 44.490302 -21.873979 9
-6.000441 43.686436 -23.141213 9
-2.092698 42.954202 -24.461542 9
1.697468 42.143901 -25.690611 9
5.431597 41.326365 -26.898423 9
9.085992 40.467214 -28.053584 9
12.717098 39.637219 -29.223773 9
16.212257 38.679910 -30.264473 9
19.718970 37.792996 -31.360372 9
23.174895 36.888749 -32.430781 9
26.502146 35.847111 -33.368769 9
29.853787 34.890039 -34.375932 9
33.110293 33.834012 -35.288688 9
36.351628 32.798325 -36.214286 9
39.526028 31.696813 -37.077937 9
42.867496 30.920837 -38.218331 9
46.166476 30.128499 -39.336975 9
48.659035 27.942535 -39.270069 9
51.325361 26.055710 -39.467691 9
53.687133 23.583812 -39.188639 9
56.090075 21.151642 -38.960489 9
58.482452 18.658470 -38.700208 9
60.776438 15.916747 -38.257303 9
63.094162 13.164624 -37.828262 9
65.063964 9.583768 -36.761989 5
67.915440 7.886104 -37.215595 5
70.689490 6.007485 -37.535808 5
73.426179 4.026006 -37.787093 5
76.122384 1.922761 -37.957185 5
78.746311 -0.397394 -37.976168 5
81.330093 -2.871790 -37.895860 5
83.798254 -5.725664 -37.550681 5
86.155656 -8.986412 -36.927790 5
88.225057 -13.225046 -35.614708 5
-86.368950 22.081827 31.661545 8
-57.282319 43.615543 5.220206 9
-45.855079 49.236491 -3.386589 9
-40.221324 49.513597 -6.070274 9
-35.328912 49.171228 -8.043863 9
-30.586569 48.773503 -9.924309 9
-25.943545 48.366378 -11.762822 9
-21.448251 47.892689 -13.501799 9
-17.086350 47.359902 -15.152147 9
-12.865402 46.751587 -16.700064 9
-8.674910 46.188089 -18.270014 9
-4.672543 45.480699 -19.673474 9
-0.664264 44.853765 -21.137208 9
3.198780 44.120329 -22.476794 9
6.996644 43.372678 -23.785553 9
10.725191 42.601556 -25.055772 9
14.327070 41.724902 -26.210627 9
18.012554 41.023966 -27.519214 9
21.455153 40.045108 -28.553112 9
24.957583 39.206232 -29.707680 9
28.352825 38.265906 -30.758054 9
31.735283 37.358918 -31.830161 9
35.044134 36.389799 -32.837516 9
38.317327 35.412857 -33.830775 9
41.539167 34.399277 -34.785059 9
44.603614 33.162846 -35.537889 9
47.498278 31.661383 -36.058074 9
50.200836 29.830711 -36.296562 9
52.696541 27.614175 -36.212535 9
55.168576 25.327370 -36.082957 9
57.617119 22.964102 -35.904307 9
60.097840 20.629866 -35.766472 9
61.215696 15.420384 -33.264957 9
64.726330 15.136025 -34.862455 5
67.645334 13.631939 -35.455005 5
70.535644 12.075150 -36.010007 5
73.391406 10.445381 -36.512633 5
76.210653 8.729324 -36.954115 5
79.006223 6.949363 -37.354069 5
81.739219 4.996561 -37.629166 5
84.456461 2.977804 -37.865669 5
87.131854 0.812322 -38.003257 5
89.731048 -1.616209 -37.956749 5
92.273984 -4.278291 -37.753701 5
94.719341 -7.330158 -37.282299 5
96.993160 -11.058099 -36.338574 5
98.873465 -16.293768 -34.326151 5
-46.513937 49.303889 2.529208 9
-40.472234 49.912360 -0.623519 9
-35.320378 49.772121 -2.898194 9
-30.232796 49.677834 -5.180956 9
-25.450101 49.373241 -7.197475 9
-20.801076 49.024581 -9.132295 9
-16.342563 48.561415 -10.914176 9
-11.891020 48.180739 -12.752936 9
-7.617305 47.685559 -14.444265 9
-3.569649 47.006111 -15.921450 9
0.570637 46.516129 -17.568988 9
4.457148 45.791436 -18.957334 9
8.307224 45.091159 -20.351353 9
12.178890 44.490964 -21.825703 9
15.910029 43.776136 -23.169181 9
19.523634 42.966934 -24.405253 9
23.085261 42.146780 -25.617034 9
26.606698 41.329552 -26.818683 9
30.090046 40.516185 -28.011681 9
33.518008 39.677938 -29.169801 9
36.855789 38.755431 -30.239442 9
40.160561 37.832337 -31.299875 9
43.393321 36.841381 -32.290622 9
46.398813 35.508711 -32.967539 9
49.202255 33.848069 -33.351470 9
51.809126 31.839958 -33.433254 9
54.364879 29.724395 -33.431482 9
56.880916 27.513181 -33.359066 9
59.384902 25.251916 -33.257600 9
61.892442 22.967399 -33.151225 9
63.366152 18.483504 -31.199797 9
67.040439 18.582424 -33.139214 5
70.015673 17.238767 -33.860317 5
72.956131 15.837829 -34.536520 5
75.860418 14.369068 -35.160758 5
78.739395 12.850808 -35.749616 5
81.582532 11.249809 -36.277734 5
84.397258 9.575533 -36.754643 5
87.183697 7.819178 -37.175166 5
89.931912 5.942524 -37.511334 5
92.653353 3.964421 -37.780435 5
95.334858 1.832228 -37.944260 5
97.982853 -0.452887 -38.006979 5
100.563254 -3.022176 -37.872658 5
103.077680 -5.906259 -37.524139 5
105.408439 -9.566078 -36.625582 5
107.163586 -15.566382 -34.040945 5
-51.345640 45.376062 13.128105 9
-20.749905 69.978757 -17.316715 1
-18.751973 67.076415 -16.364452 1
-30.589895 49.854148 0.434674 9
-25.492712 49.817895 -1.957287 9
-20.569372 49.709912 -4.228021 9
-15.860133 49.475651 -6.322815 9
-5.945267 55.269815 -14.804642 4
-2.247053 54.214462 -15.901092 4
0.680203 52.294428 -16.078216 4
3.823885 50.652174 -16.545302 4
5.591683 47.307241 -15.263533 9
9.605033 46.793260 -16.888570 9
13.460566 46.153131 -18.363546 9
17.198202 45.428087 -19.734076 9
20.964911 44.812903 -21.195842 9
24.620827 44.113986 -22.557134 9
28.182861 43.346650 -23.835867 9
30.029053 40.066136 -22.683989 9
35.123844 41.725720 -26.269210 9
38.549060 40.935649 -27.486668 9
41.882120 40.056554 -28.609017 9
45.055141 38.965124 -29.524729 9
48.055294 37.619242 -30.200898 9
50.746381 35.754596 -30.403373 9
53.363655 33.752785 -30.489710 9
55.946988 31.675570 -30.518714 9
58.522451 29.565795 -30.530390 9
61.089932 27.419698 -30.522377 9
63.648555 25.231599 -30.490736 9
66.083505 22.755110 -30.223632 5
69.197673 21.707652 -31.199253 5
72.212949 20.480849 -32.019651 5
75.190934 19.197822 -32.792868 5
78.128129 17.842811 -33.507341 5
81.059129 16.492362 -34.228310 5
83.946222 15.048788 -34.875866 5
86.813439 13.564246 -35.494718 5
89.643455 11.985167 -36.042843 5
92.448394 10.334056 -36.540485 5
95.235906 8.623919 -36.999703 5
97.986276 6.785957 -37.367932 5
100.712485 4.844979 -37.667338 5
103.416598 2.793965 -37.894809 5
105.994448 0.256357 -37.764725 5
108.290279 -3.397425 -36.809660 5
110.203526 -8.701347 -34.650647 5
109.845485 -23.381875 -25.564180 5
-19.690383 76.430184 -16.865030 1
-17.726280 73.553091 -15.890762 1
-15.775380 70.632769 -14.888201 1
-15.002835 66.466020 -12.493339 4
-8.900394 67.831299 -16.363828 1
-4.730882 67.285339 -18.034444 1
-4.088803 62.910919 -15.459198 4
-0.856288 61.370573 -16.028772 4
2.524008 60.034610 -16.812332 4
4.845888 57.476147 -16.278064 4
6.973552 54.658549 -15.484724 4
8.923316 51.582376 -14.440815 4
10.609748 48.117980 -13.019242 9
14.512536 47.511753 -14.573696 9
18.392841 46.952998 -16.154679 9
22.241771 46.430043 -17.750009 9
25.897264 45.711343 -19.127788 9
29.547439 45.053913 -20.549294 9
33.163240 44.416247 -21.972863 9
36.668191 43.679004 -23.282507 9
40.113334 42.912309 -24.549312 9
43.443185 42.020623 -25.683359 9
46.576867 40.855322 -26.547626 9
49.497023 39.360956 -27.097565 9
52.204459 37.508782 -27.315159 9
54.796215 35.443358 -27.343074 9
57.440361 33.460763 -27.457649 9
60.066450 31.431425 -27.539591 9
62.666789 29.334991 -27.571947 9
64.042642 24.700735 -25.355432 9
67.977565 25.309655 -27.820722 5
71.042756 24.166067 -28.722339 5
74.160660 23.178125 -29.756992 5
77.240355 22.147224 -30.750721 5
80.261170 21.017022 -31.656881 5
83.214110 19.752725 -32.448677 5
86.153176 18.477659 -33.232771 5
89.037765 17.080247 -33.917064 5
91.924118 15.701169 -34.620364 5
94.767884 14.213197 -35.238734 5
97.586144 12.653054 -35.804505 5
100.396052 11.063898 -36.354087 5
103.170946 9.354375 -36.815717 5
105.855345 7.320577 -37.031438 5
108.332719 4.508431 -36.653429 5
110.539622 0.578263 -35.434765 5
112.445392 -4.744418 -33.187549 5
112.751760 -16.903032 -25.797907 5
-18.533004 82.877095 -16.574966 1
-16.214963 80.397180 -16.024234 1
-16.161314 75.691498 -12.844590 1
-19.742370 67.219620 -5.309712 1
-11.038841 71.061317 -12.240346 1
-6.296769 71.038836 -14.587108 1
-1.644598 71.030416 -16.904967 1
2.386403 70.444682 -18.528583 1
4.731273 68.025106 -18.076603 1
5.785332 64.088921 -15.961241 4
7.801833 61.208466 -15.046727 4
9.680036 58.119911 -13.929130 4
11.404625 54.788353 -12.577402 4
12.399156 50.453334 -10.190379 4
15.453861 48.724001 -10.598623 9
19.397755 48.220252 -12.284269 9
23.275471 47.708231 -13.936916 9
27.110169 47.217164 -15.587742 9
30.813056 46.615311 -17.103509 9
34.494845 46.057389 -18.643740 9
37.997866 45.299968 -19.965694 9
41.536776 44.665119 -21.393415 9
44.859620 43.748388 -22.528914 9
47.957767 42.508583 -23.340501 9
50.799877 40.861400 -23.756304 9
53.473983 38.926278 -23.900987 9
56.141934 36.973196 -24.036844 9
58.822489 35.035092 -24.195366 9
61.498574 33.079299 -24.346158 9
63.093873 28.946186 -22.506974 9
66.888960 29.211165 -24.715083 5
69.976811 28.096433 -25.652474 5
73.018307 26.919082 -26.530421 5
76.056889 25.769680 -27.431107 5
79.071756 24.600234 -28.312123 5
82.148898 23.615716 -29.352836 5
85.191037 22.588879 -30.353246 5
88.192856 21.499106 -31.297087 5
91.143025 20.306723 -32.152513 5
94.044265 19.005717 -32.917123 5
96.929414 17.677153 -33.661221 5
99.779575 16.258771 -34.334284 5
102.615305 14.802529 -34.981120 5
105.408406 13.209480 -35.522488 5
107.990262 10.883284 -35.481614 5
110.352893 7.695821 -34.771993 5
112.496619 3.528624 -33.318090 5
114.551619 -1.247982 -31.430561 5
115.361252 -11.479335 -25.356831 5
119.004697 -10.364366 -28.148757 6
-24.789328 77.762431 -4.593893 1
-11.515514 85.515836 -16.707405 1
-9.014056 83.273175 -16.415337 1
-6.264821 81.277115 -16.426258 1
-5.841943 76.907404 -13.613380 1
-2.309663 75.694914 -14.577949 1
0.573047 73.832642 -14.767312 1
3.088451 71.580461 -14.505355 1
6.674275 70.536248 -15.631258 1
8.639804 67.665442 -14.672554 1
10.404502 64.516407 -13.425071 4
12.029868 61.143176 -11.957754 4
12.958762 56.830082 -9.491858 4
14.197654 52.800318 -7.386872 4
16.044119 49.472101 -6.083474 9
20.178574 49.182855 -8.052631 9
24.206136 48.841838 -9.936592 9
28.084371 48.380536 -11.666381 9
31.899508 47.912334 -13.364202 9
35.625580 47.394211 -14.987078 9
39.276003 46.839640 -16.551111 9
42.825104 46.201543 -18.010762 9
46.119928 45.219002 -19.108504 9
49.144739 43.833053 -19.796150 9
51.975059 42.137412 -20.177141 9
54.679112 40.225009 -20.350525 9
57.405242 38.348224 -20.565502 9
60.162045 36.525661 -20.839184 9
62.847528 34.562060 -20.985677 9
64.084503 29.668555 -18.393119 9
68.683491 31.564660 -22.170075 5
71.836624 30.594719 -23.251990 5
74.947775 29.581094 -24.287584 5
78.022454 28.529766 -25.283816 5
81.017267 27.331918 -26.144421 5
84.052731 26.265412 -27.120421 5
87.018148 25.061425 -27.972159 5
90.001353 23.933794 -28.890092 5
93.035608 22.979831 -29.957137 5
96.025645 21.947561 -30.953379 5
98.953094 20.771354 -31.825134 5
101.833098 19.477917 -32.598523 5
104.694599 18.142873 -33.339732 5
107.388387 16.262872 -33.632697 5
109.873318 13.621073 -33.311364 5
112.145566 10.098262 -32.295236 5
114.286275 5.878109 -30.751528 5
115.398083 -2.718794 -25.749928 5
119.436551 0.217970 -30.005625 6
122.132123 -2.307185 -29.910977 6
124.773088 -5.212066 -29.541878 6
127.315777 -8.778544 -28.688493 6
129.527797 -14.343144 -26.340908 6
-17.099200 94.700315 -15.134730 3
-12.141827 94.673329 -17.675461 3
-9.085547 93.002441 -18.066818 3
-6.925595 90.509832 -17.414378 3
-3.967884 88.777805 -17.721958 3
-2.295747 85.787665 -16.473578 1
0.386726 83.788495 -16.459271 1
2.864721 81.583505 -16.197991 1
2.463124 76.279586 -12.246233 1
5.828657 74.967309 -13.090947 1
8.044214 72.397651 -12.451234 1
11.288228 70.998966 -13.182149 1
15.626948 70.941525 -15.438151 1
17.076556 67.460538 -13.770606 1
14.611389 58.995362 -6.543163 4
15.465153 54.463668 -3.835500 4
16.522006 50.071296 -1.339067 9
20.677610 49.762075 -3.349660 9
24.799257 49.503612 -5.383038 9
28.877274 49.282496 -7.424548 9
32.799681 48.933335 -9.298997 9
36.608714 48.505608 -11.063342 9
40.357796 48.072284 -12.796868 9
43.973756 47.512623 -14.376325 9
47.229806 46.439595 -15.411122 9
50.228254 44.978629 -16.043446 9
53.049378 43.233151 -16.388357 9
55.815662 41.395824 -16.645470 9
58.591361 39.575861 -16.925108 9
61.303858 37.635503 -17.092749 9
62.973951 33.639771 -15.281457 9
67.152049 34.584405 -18.246611 5
70.388821 33.736390 -19.468605 5
73.584607 32.858565 -20.652804 5
76.738360 31.943120 -21.793239 5
79.838922 30.958034 -22.861781 5
82.894542 29.913367 -23.869867 5
85.955902 28.925723 -24.925312 5
88.944638 27.798459 -25.850193 5
91.894703 26.603908 -26.712811 5
94.879406 25.534307 -27.685168 5
97.808438 24.343689 -28.549112 5
100.788341 23.332490 -29.568902 5
103.759841 22.337045 -30.599832 5
106.584918 20.911103 -31.260905 5
109.182123 18.721256 -31.279958 5
111.342360 14.925610 -29.967914 5
113.474181 10.805471 -28.425863 5
115.299500 5.240501 -25.737178 5
119.047179 7.066095 -29.152788 6
121.849248 5.191925 -29.530469 6
124.635630 3.194757 -29.821646 6
127.395636 1.001123 -29.970670 6
130.136034 -1.391453 -29.979913 6
132.827615 -4.178479 -29.700834 6
135.464500 -7.473250 -29.053955 6
137.938602 -12.046208 -27.458066 6
-23.164986 94.712644 -6.665436 3
-17.966368 94.712930 -9.415006 3
-10.083187 97.243757 -15.434562 3
-6.059258 96.468345 -17.007128 3
-3.998781 93.912438 -16.248046 3
-0.712483 92.525233 -16.994162 3
1.202634 89.816026 -16.056425 3
2.873131 86.828829 -14.791882 1
6.024568 85.346963 -15.412345 1
7.913647 82.544955 -14.408530 1
7.205258 76.848270 -9.928916 1
10.072756 75.003594 -10.150543 1
11.830533 71.888025 -8.865614 1
15.524261 71.023047 -10.246830 1
18.889166 69.822692 -11.214679 1
20.467393 66.429780 -9.649005 1
15.720099 54.823872 1.220786 4
16.197864 49.609903 4.675474 9
20.821002 49.857062 1.968063 9
25.181685 49.869344 -0.433723 9
29.350763 49.724129 -2.623618 9
31.306659 46.425711 -1.362802 9
37.452807 49.403238 -6.867303 9
41.285091 49.061046 -8.747271 9
44.887226 48.443535 -10.310088 9
48.157157 47.354980 -11.360721 9
51.120478 45.794303 -11.912591 9
53.990246 44.089482 -12.315704 9
56.783470 42.256568 -12.590860 9
59.607068 40.480895 -12.928335 9
62.436124 38.719001 -13.283592 9
64.051559 34.565250 -11.281586 9
68.695729 36.428632 -15.213632 5
71.991014 35.693581 -16.567123 5
75.214147 34.868901 -17.821937 5
78.407672 34.038335 -19.060764 5
81.567070 33.188182 -20.271402 5
84.684648 32.295290 -21.433245 5
87.737984 31.296628 -22.489449 5
90.761694 30.267463 -23.512296 5
93.771776 29.244891 -24.536785 5
96.764533 28.217078 -25.552519 5
99.686007 27.024876 -26.417625 5
102.635436 25.944803 -27.381705 5
105.443103 24.456150 -27.984633 5
108.036597 22.266543 -27.981403 5
110.408803 19.256165 -27.284839 5
112.744363 15.971495 -26.381744 5
115.202217 12.969791 -25.751350 5
118.331834 12.456325 -27.243031 6
121.203711 10.970627 -27.915268 6
124.054512 9.384036 -28.510289 6
126.874726 7.633625 -28.979000 6
129.692599 5.826187 -29.411955 6
132.495363 3.883217 -29.747393 6
135.276127 1.738386 -29.935485 6
138.041499 -0.612817 -29.977128 6
140.785741 -3.253519 -29.811650 6
143.489197 -6.387102 -29.287179 6
146.124538 -10.341124 -28.161743 6
-15.712645 97.464095 -7.297665 3
-10.631810 97.478953 -10.070632 3
-5.641564 97.530489 -12.826160 3
-1.826770 96.595132 -14.214132 3
1.410853 95.168377 -14.927797 3
3.919351 93.058107 -14.741962 3
5.873526 90.386410 -13.842486 3
6.990638 86.813497 -11.823703 1
10.379648 85.597086 -12.793669 1
11.956055 82.437244 -11.340662 1
11.950955 77.438343 -7.668865 1
13.473418 74.054228 -6.030636 1
15.464887 71.160130 -5.015816 1
19.781063 71.060990 -7.340775 1
22.754570 69.387703 -7.773434 1
9.741496 47.162487 15.696677 9
15.240767 48.310936 11.787494 9
20.384282 49.162184 8.288708 9
25.121384 49.614340 5.303037 9
29.561703 49.785401 2.683377 9
33.869061 49.888169 0.183267 9
38.035687 49.900428 -2.176663 9
41.993237 49.703288 -4.271559 9
45.619096 49.077348 -5.873155 9
48.924853 48.000156 -6.971693 9
51.901636 46.413236 -7.519840 9
54.779591 44.671812 -7.904885 9
57.645478 42.916986 -8.278023 9
60.499380 41.146356 -8.637566 9
63.385385 39.441884 -9.067735 9
66.711775 38.618516 -10.388740 5
70.095991 37.977270 -11.878427 5
73.462196 37.373059 -13.388890 5
76.747377 36.668858 -14.785408 5
80.018118 36.001980 -16.204850 5
82.187190 32.828079 -15.194879 5
86.331740 34.337160 -18.688049 5
89.434066 33.458529 -19.871627 5
92.505370 32.554729 -21.023594 5
95.540927 31.607494 -22.128108 5
98.546598 30.625621 -23.194847 5
101.504975 29.551445 -24.172445 5
104.440855 28.446590 -25.119381 5
107.166846 26.708924 -25.496337 5
109.649399 24.140948 -25.142963 5
111.993065 20.990698 -24.297693 5
114.417954 17.975864 -23.601481 5
117.418983 17.004383 -24.704378 6
120.332299 15.728660 -25.543448 6
123.225068 14.380804 -26.323571 6
126.100299 12.959773 -27.045813 6
128.959734 11.458643 -27.706319 6
131.812596 9.906513 -28.331273 6
134.643213 8.207980 -28.843659 6
137.470193 6.436586 -29.306828 6
140.281865 4.503522 -29.650878 6
143.088408 2.436178 -29.901417 6
145.880790 0.135604 -29.983008 6
148.666692 -2.402625 -29.897276 6
149.773080 -19.387592 -18.577415 6
-12.228993 101.276959 -6.707082 2
-6.923900 101.519780 -9.849270 2
-1.050800 102.413811 -13.805751 2
0.882884 99.777639 -12.894394 2
2.843266 97.142734 -12.003010 3
6.540375 96.198486 -13.365030 3
8.428413 93.484091 -12.381253 3
10.486502 90.915597 -11.607002 3
11.126727 86.808785 -8.881523 1
13.839085 84.868076 -8.956044 1
15.254217 81.476409 -7.213123 1
14.351778 75.336517 -2.103128 1
14.683177 70.443870 1.369497 1
19.707436 71.123379 -1.993763 1
23.690803 70.652887 -3.910150 1
24.444923 66.116331 -0.956676 1
12.108676 44.135061 22.467791 9
18.674370 46.734384 16.776023 9
24.135294 48.062166 12.658382 9
29.171415 48.978367 9.085872 9
33.813718 49.486781 6.038063 9
38.154341 49.686247 3.388756 9
42.359069 49.803898 0.874140 9
44.175448 46.200897 2.490208 9
49.438222 48.215508 -2.048866 9
52.444264 46.615419 -2.611690 9
55.410109 44.963896 -3.117413 9
58.337495 43.257706 -3.564645 9
61.245729 41.526321 -3.986361 9
62.772699 37.135029 -1.645814 9
67.830277 39.618407 -6.436610 5
71.361554 39.242813 -8.233621 5
74.779530 38.720656 -9.860509 5
78.137004 38.149690 -11.420081 5
81.456949 37.573936 -12.958133 5
84.705385 36.909570 -14.393046 5
87.905343 36.200128 -15.770312 5
91.042932 35.402368 -17.049966 5
94.154365 34.598620 -18.313754 5
97.215707 33.719930 -19.496941 5
100.251084 32.823132 -20.655434 5
103.287566 31.983482 -21.860373 5
105.402379 28.356438 -20.481701 5
108.725680 28.438220 -22.539399 5
111.142946 25.611214 -21.934320 5
113.550636 22.623818 -21.210606 5
115.387797 17.380523 -18.502517 5
119.178463 19.336533 -22.224581 6
122.120812 18.184299 -23.173358 6
125.122598 17.315818 -24.368837 6
128.044838 16.144389 -25.299591 6
130.926397 14.799763 -26.083672 6
133.805666 13.443094 -26.861686 6
136.660040 11.945799 -27.526360 6
139.506897 10.377045 -28.138614 6
142.346272 8.718387 -28.685089 6
145.181945 6.971281 -29.169195 6
148.006478 5.055511 -29.528148 6
147.236359 -25.919172 -6.583870 6
-10.116934 103.890318 -4.508564 2
-5.132456 103.845311 -7.324458 2
0.155478 104.194777 -10.622533 2
3.560745 102.922360 -11.593452 2
5.504403 100.296358 -10.685581 2
7.416017 97.613649 -9.719241 2
10.599762 96.188299 -10.455958 3
12.246648 93.205900 -9.113973 3
15.055947 91.415857 -9.361876 3
17.006365 88.703104 -8.409349 3
17.172686 83.951650 -4.865828 1
13.728849 74.888086 4.067197 1
15.058027 71.105272 6.187723 1
16.879225 67.833063 7.628300 1
23.958125 71.081499 1.027086 1
24.465050 66.174471 4.472925 1
20.685259 43.058973 24.277312 9
27.542888 46.383771 17.727494 9
32.967301 47.907308 13.383255 9
37.889418 48.879360 9.748950 9
42.379004 49.353438 6.743089 9
46.360939 49.157680 4.540347 9
49.739189 48.066618 3.368278 9
52.805055 46.493447 2.741969 9
53.920664 41.497149 5.855547 9
58.735710 43.048656 1.822699 9
61.754705 41.444461 1.236196 9
63.242714 36.886135 3.786190 9
68.732122 40.172207 -1.968226 5
72.400582 40.029508 -4.055247 5
75.942275 39.727963 -5.950545 5
79.408097 39.359910 -7.754031 5
82.781938 38.877639 -9.420093 5
86.096171 38.342194 -11.014014 5
89.355412 37.755698 -12.540118 5
92.533060 37.040994 -13.924383 5
95.716064 36.411141 -15.379170 5
98.824441 35.652155 -16.695554 5
101.898445 34.860875 -17.970485 5
104.896080 33.904368 -19.078840 5
107.624057 32.153738 -19.432095 5
110.133203 29.666077 -19.103976 5
111.817974 24.268577 -16.099415 5
115.128740 24.318640 -18.166446 5
117.991658 22.836677 -18.817637 6
120.952230 21.736840 -19.817910 6
123.941922 20.793142 -20.956338 6
126.891135 19.722957 -21.979038 6
129.793199 18.469740 -22.839689 6
132.767124 17.584379 -24.022822 6
135.691079 16.494760 -25.026305 6
138.572356 15.196057 -25.851064 6
141.439967 13.813990 -26.608833 6
144.302271 12.380204 -27.328405 6
147.155945 10.855146 -27.978256 6
150.002305 9.220924 -28.545897 6
148.779410 -26.769963 -0.989762 6
-1.410922 107.872673 -7.285690 2
-7.994366 97.498994 4.755716 3
4.051917 104.024068 -7.463301 2
8.055984 103.337953 -9.279918 2
10.072575 100.781119 -8.458411 2
11.371869 97.478605 -6.631393 3
13.203485 94.663627 -5.504420 3
16.498401 93.367288 -6.436301 3
19.626896 91.934060 -7.165647 3
21.598567 89.239079 -6.225115 3
20.424703 82.883962 -0.559153 1
20.929652 78.281163 2.737077 1
22.992424 75.436048 3.731140 1
25.058388 72.553968 4.748838 1
25.458528 67.485332 8.461038 1
29.068719 41.793517 26.279728 9
36.323881 46.077081 18.594431 9
41.711513 47.811275 14.006681 9
46.024600 48.036830 11.232264 9
49.583561 47.142456 9.776917 9
52.763559 45.664434 8.998925 9
55.764843 43.900010 8.547222 9
58.843852 42.289107 7.926340 9
61.897535 40.650433 7.338891 9
63.192804 35.598473 10.452181 9
69.359618 40.155563 3.182149 5
73.181352 40.261981 0.770521 5
76.866604 40.206926 -1.436672 5
80.479124 40.111157 -3.571350 5
83.960615 39.831249 -5.487318 5
87.370153 39.484426 -7.310939 5
90.678647 38.986959 -8.959887 5
93.952886 38.490314 -10.591629 5
97.160923 37.905344 -12.117938 5
100.305461 37.225405 -13.535329 5
103.445411 36.606771 -15.000139 5
106.340445 35.324666 -15.807406 5
109.012004 33.355834 -15.952540 5
111.466012 30.623791 -15.380556 5
113.942915 27.853892 -14.796951 5
115.356616 21.088089 -10.492693 5
119.667751 24.864323 -16.073481 6
122.686739 23.992741 -17.291544 6
125.681063 23.077105 -18.463659 6
128.640497 22.060427 -19.539789 6
131.601711 21.095609 -20.659904 6
134.527526 20.000816 -21.661551 6
137.434892 18.837909 -22.602688 6
140.368828 17.849488 -23.697145 6
143.294812 16.856674 -24.786405 6
146.172867 15.585126 -25.635546 6
149.038647 14.218472 -26.407431 6
147.032044 -26.212457 5.747087 6
-0.753084 109.191535 -3.346911 2
3.467876 108.577075 -5.393753 2
5.672461 106.180679 -4.796324 2
7.974307 103.865300 -4.325342 2
11.590890 102.828254 -5.676565 2
11.762426 98.390385 -2.221851 2
13.313960 95.251090 -0.645048 3
17.060738 94.385907 -2.220950 3
21.137749 93.950956 -4.343987 3
24.178651 92.448144 -4.987384 3
26.142709 89.737632 -4.014599 3
24.123164 82.277228 3.169714 1
25.649153 78.826122 4.994600 1
22.956875 70.022897 13.654108 1
30.742407 30.030451 40.683102 9
44.557569 45.063422 20.261186 9
48.682886 44.952794 17.807608 9
52.093084 43.729287 16.673636 9
55.175032 41.971047 16.162732 9
58.283586 40.275903 15.582490 9
61.392856 38.599277 14.984198 9
62.737072 33.478612 18.199299 9
69.265862 38.651912 10.061130 5
73.534458 39.573881 6.681514 5
77.509714 40.053240 3.830830 5
81.314078 40.311739 1.257956 5
84.907713 40.227046 -0.915700 5
88.452622 40.147527 -3.065839 5
91.880327 39.897600 -5.011233 5
95.225068 39.542277 -6.824465 5
98.486623 39.064257 -8.491721 5
101.725818 38.616394 -10.171436 5
104.847595 37.918907 -11.583708 5
107.668142 36.370257 -12.139711 5
110.230481 33.990216 -11.882057 5
112.705750 31.236214 -11.278250 5
115.322605 28.859768 -11.063271 5
118.191289 27.325891 -11.672179 6
121.286338 26.666481 -13.113936 6
124.339629 25.921014 -14.464405 6
127.357477 25.098368 -15.734537 6
130.361466 24.280137 -17.002063 6
133.323501 23.326249 -18.139187 6
136.268344 22.334821 -19.238634 6
139.212560 21.386366 -20.374106 6
142.118739 20.263071 -21.350903 6
145.026217 19.172852 -22.357179 6
147.922561 18.033216 -23.320303 6
145.431791 -24.187218 11.363961 6
148.861856 -24.910852 9.726429 6
-1.633200 109.173237 2.695310 2
3.376132 109.196915 -0.415700 2
5.707305 106.873085 0.050583 2
6.770200 103.339469 2.290195 2
11.603863 103.408314 -0.756182 2
12.329482 99.486521 2.005493 2
12.374030 94.765584 5.840744 3
16.596079 94.323193 3.584674 3
20.872638 94.036692 1.165047 3
25.029715 93.720244 -1.158216 3
28.718806 92.966184 -2.835625 3
30.681623 90.246014 -1.837244 3
49.181312 37.883716 29.146317 9
52.560365 36.389972 28.228191 9
55.381802 33.903380 28.463373 9
58.516599 31.983711 28.039196 9
61.569366 29.908316 27.790344 9
63.799530 26.149425 29.421231 9
72.753125 36.455023 15.418640 5
77.435472 38.299545 10.960461 5
81.668019 39.393523 7.391720 5
85.602281 40.001412 4.402680 5
89.290255 40.188083 1.907989 5
92.877584 40.267745 -0.438620 5
96.339401 40.157165 -2.554075 5
