ply
format ascii 1.0
element vertex 1359
property float x
property float y
property float z
property int scalar_Label
end_header
-16.356392 46.219903 12.650465 9
-11.968069 46.887309 11.388564 9
-11.800919 51.792262 12.901215 4
-10.781778 55.778774 13.825404 4
-9.631507 59.583121 14.640274 4
-14.403308 68.819258 19.187522 1
-13.267965 72.425080 19.931362 1
-12.120969 75.976412 20.647513 1
-10.549289 79.117008 21.082336 1
-20.165424 91.755030 28.336477 3
-22.864345 98.207771 31.267108 3
-25.162957 104.166594 33.899968 3
-27.353405 109.890544 36.417028 3
-29.528658 115.462282 38.876470 3
-31.565295 120.792375 41.207983 3
-33.607860 125.999841 43.498907 3
-51.120290 142.413264 54.637462 3
-49.043249 144.179833 54.423183 3
-44.444134 144.194987 52.782805 3
-39.626458 144.154504 51.042501 3
-115.301911 -13.857258 27.389757 8
-115.756657 -4.779337 30.652946 8
-114.191549 -0.263345 31.771847 8
-112.737477 4.324400 32.940583 8
-111.102191 8.404433 33.877744 8
-109.168611 11.789818 34.486187 8
-106.838510 14.347941 34.692654 8
-104.056790 16.038658 34.467719 8
-100.923141 17.101949 33.921840 8
-97.759408 18.141732 33.353364 8
-94.612685 19.241195 32.804148 8
-91.364023 20.201261 32.172052 8
-88.113710 21.195388 31.545000 8
-84.765718 22.071523 30.843424 8
-81.296975 22.803936 30.051780 8
-77.854683 23.626484 29.292139 8
-74.358829 24.417302 28.499790 8
-70.837456 25.221124 27.697981 8
-68.776877 28.138035 28.033110 9
-66.072039 30.124987 27.858739 9
-63.304673 32.028565 27.631713 9
-60.592117 34.010460 27.441185 9
-57.869409 35.982797 27.238325 9
-55.004410 37.779888 26.928072 9
-52.002870 39.421128 26.518497 9
-48.626346 40.628120 25.844693 9
-44.855428 41.406591 24.902323 9
-40.844171 41.964785 23.806950 9
-36.748589 42.496924 22.670214 9
-32.642672 43.090168 21.543402 9
-28.404665 43.610619 20.344808 9
-24.102018 44.138059 19.121260 9
-19.651129 44.587579 17.818816 9
-15.214646 45.134362 16.545135 9
-10.628628 45.610945 15.194253 9
-6.060600 46.190201 13.874679 9
-6.967823 52.136165 16.012095 4
-5.393493 55.599934 16.557857 4
-3.733666 58.949680 17.033783 4
-9.696813 69.180478 22.143960 1
-8.544406 72.780086 22.852568 1
-1.025433 70.802614 19.730581 1
4.364519 70.827736 17.922697 1
-16.406261 92.767773 31.521574 3
-18.895955 98.984515 34.221367 3
-21.298927 104.975612 36.818769 3
-23.563246 110.709558 39.287067 3
-25.817449 116.296058 41.702884 3
-53.422621 140.734519 58.344034 3
-53.681873 144.184303 59.438490 3
-49.234245 144.201021 57.905481 3
-44.619103 144.191053 56.301975 3
-39.889825 144.197373 54.658673 3
-34.683286 143.980153 52.780214 3
-112.205310 -11.399076 31.793858 8
-111.731665 -4.490133 33.965646 8
-110.571424 0.769722 35.394526 8
-108.904278 4.853680 36.287458 8
-106.803682 7.987857 36.739905 8
-104.116171 9.955877 36.637658 8
-101.136110 11.376849 36.267450 8
-98.069286 12.655689 35.820482 8
-94.974080 13.904984 35.350216 8
-91.824922 15.085224 34.836411 8
-88.663851 16.272263 34.315831 8
-85.469696 17.433225 33.771645 8
-82.200892 18.506106 33.171665 8
-78.921668 19.597617 32.569061 8
-75.574085 20.621099 31.918887 8
-72.188075 21.627068 31.246135 8
-68.579408 22.353116 30.412196 8
-67.100047 26.135999 31.181652 9
-64.446547 28.222518 31.054722 9
-61.791678 30.304523 30.920277 9
-59.157651 32.412692 30.794717 9
-56.409991 34.372500 30.582310 9
-53.543703 36.188054 30.282832 9
-48.261997 35.023039 28.306527 9
-46.938177 38.799617 29.080917 9
-40.678131 36.645675 26.484435 9
-39.100790 40.121705 27.075706 9
-35.103866 40.791386 26.042924 9
-30.991123 41.399016 24.949161 9
-26.755620 41.943716 23.791862 9
-22.529221 42.573542 22.657584 9
-18.153136 43.119948 21.444799 9
-13.736042 43.702834 20.224154 9
-9.155721 44.200385 18.919866 9
-4.471454 44.679667 17.570890 9
0.011488 45.439996 16.364537 9
0.996765 49.583193 17.285900 4
4.478516 51.355443 16.691044 4
15.368461 46.449358 11.715197 9
24.071381 43.800164 8.108892 9
3.938374 66.450854 21.320423 4
7.618574 68.006889 20.572971 1
37.756623 47.552444 4.734271 9
-12.351433 93.572890 34.561074 3
-14.909207 99.789405 37.199576 3
-17.426839 105.819304 39.765688 3
-19.800858 111.589936 42.204578 3
-56.473210 142.925076 63.341331 3
-53.831590 144.190138 62.817130 3
-49.410991 144.213283 61.342219 3
-44.812861 144.201702 59.793531 3
-40.068785 144.183899 58.189487 3
-35.240139 144.206316 56.563543 3
-29.230081 143.551106 54.345259 3
-108.325098 -10.643373 35.374206 8
-107.441200 -4.701212 37.043142 8
-105.642770 -0.759378 37.818841 8
-103.141759 1.731661 37.934721 8
-100.380050 3.697732 37.806765 8
-97.521553 5.474324 37.586720 8
-94.602770 7.140597 37.309793 8
-91.622673 8.703808 36.977998 8
-88.607273 10.216354 36.615123 8
-85.513978 11.612991 36.188683 8
-82.368634 12.944742 35.721961 8
-79.184141 14.237903 35.226818 8
-75.944982 15.472856 34.692689 8
-72.661775 16.671174 34.129291 8
-69.353447 17.864920 33.551973 8
-67.852257 21.693504 34.306067 9
-65.308112 23.974191 34.274965 9
-62.695068 26.148396 34.185754 9
-60.150419 28.408937 34.137726 9
-57.437769 30.439285 33.964701 9
-54.753700 32.508882 33.806786 9
-51.814173 34.257156 33.470324 9
-48.535274 35.601482 32.905352 9
-42.478391 33.611969 30.499470 9
-41.089428 37.338282 31.207097 9
-37.175365 38.068004 30.250952 9
-33.179907 38.768647 29.256197 9
-29.120071 39.463729 28.234901 9
-24.940400 40.095858 27.153049 9
-20.730867 40.768094 26.068504 9
-16.431865 41.418582 24.944646 9
-12.009843 42.017331 23.762231 9
-7.537122 42.643468 22.566622 9
-2.919927 43.206335 21.302209 9
1.787601 43.765510 20.002998 9
6.624594 44.287883 18.647063 9
11.595492 44.775376 17.233425 9
16.553403 45.367250 15.848044 9
21.781404 45.809817 14.329029 9
27.134242 46.242746 12.761916 9
32.699284 46.596701 11.099163 9
38.422607 46.926214 9.373148 9
44.253662 47.279025 7.613234 9
-8.264148 94.395494 37.618351 3
-10.933107 100.645513 40.219016 3
-58.620303 141.232146 66.841644 3
-58.303459 144.204219 67.561601 3
-53.967987 144.187300 66.153751 3
-49.536049 144.189664 64.715900 3
-44.992435 144.203749 63.240867 3
-40.283335 144.196341 61.701896 3
-35.463130 144.210125 60.128146 3
-30.457461 144.199788 58.482840 3
-96.034961 -11.036626 36.357240 8
-94.653304 -6.221986 37.469266 8
-92.484510 -2.977238 37.883510 8
-89.954013 -0.441325 37.978329 8
-87.271051 1.796182 37.935778 8
-84.495131 3.856844 37.809114 8
-81.575123 5.669655 37.562813 8
-78.586222 7.373406 37.259599 8
-75.511757 8.950539 36.889565 8
-72.418543 10.513537 36.505130 8
-69.235337 11.957826 36.055005 8
-68.180068 16.551428 37.139102 9
-65.788553 19.111522 37.234975 9
-63.309146 21.524043 37.257132 9
-60.810703 23.893845 37.256275 9
-58.218434 26.123678 37.182333 9
-53.577007 25.645554 35.718034 9
-52.908513 30.403099 36.930665 9
-49.842379 32.021809 36.526074 9
-46.393180 33.188777 35.873600 9
-42.641611 34.031520 35.033864 9
-38.851553 34.885328 34.181239 9
-34.903534 35.613213 33.240986 9
-30.963574 36.414418 32.319346 9
-26.942954 37.188296 31.361097 9
-22.843100 37.940825 30.368291 9
-18.666335 38.678638 29.343423 9
-14.398809 39.391074 28.279232 9
-10.048758 40.091178 27.181783 9
-5.589885 40.756429 26.036712 9
-1.094996 41.463920 24.887558 9
3.607311 42.049134 23.636228 9
8.298837 42.729203 22.409487 9
13.189073 43.308131 21.088880 9
18.136621 43.924050 19.755764 9
23.350300 44.393228 18.295294 9
28.572640 44.952727 16.851667 9
33.944109 45.481723 15.348326 9
39.485895 45.968879 13.775481 9
45.230419 46.394969 12.117698 9
52.358066 45.824581 9.754667 9
-60.733537 139.550942 70.282897 3
-61.507093 143.361917 71.552188 3
-58.413508 144.195091 70.809566 3
-54.127978 144.202841 69.469079 3
-49.703337 144.197531 68.077760 3
-45.161381 144.199623 66.647748 3
-40.485925 144.202002 65.171897 3
-35.639473 144.184109 63.632767 3
-30.675000 144.187048 62.057759 3
-25.543739 144.183226 60.423992 3
-79.225799 -11.438669 36.227562 8
-78.154060 -6.226102 37.475143 8
-76.015793 -2.915350 37.876593 8
-73.503374 -0.268169 37.979281 8
-70.801729 2.050116 37.930560 8
-67.972126 4.155985 37.780880 8
-67.825726 10.280583 39.519518 9
-65.423371 12.915716 39.629930 9
-63.149648 15.708147 39.816301 9
-60.843448 18.422036 39.966587 9
-58.507702 21.066863 40.084353 9
-56.114685 23.610219 40.152693 9
-53.591190 25.962676 40.125793 9
-50.737673 27.879662 39.878473 9
-47.745570 29.630946 39.540854 9
-43.824878 30.251746 38.618169 9
-40.073463 31.142604 37.814864 9
-36.339788 32.109866 37.033533 9
-32.484693 32.989722 36.188682 9
-28.489305 33.768536 35.271058 9
-24.549237 34.672999 34.399657 9
-20.420788 35.432281 33.429286 9
-16.292534 36.259533 32.473139 9
-12.091337 37.076966 31.488545 9
-7.766147 37.835758 30.447202 9
-3.391728 38.617662 29.393153 9
1.084863 39.372347 28.297115 9
5.677313 40.091543 27.152734 9
10.361386 40.803717 25.974737 9
15.142508 41.507835 24.761135 9
20.075046 42.158774 23.483615 9
25.057868 42.853430 22.197995 9
30.314457 43.398716 20.786176 9
35.650046 43.973887 19.353769 9
41.071261 44.576019 17.897874 9
46.755995 45.062641 16.327422 9
54.338366 44.138081 13.810463 9
-63.545755 141.680985 74.887376 3
-62.680006 144.180244 75.280846 3
-58.543541 144.201860 74.036422 3
-54.268392 144.205030 72.741893 3
-49.843515 144.187042 71.393069 3
-45.315258 144.186133 70.013779 3
-40.662410 144.191070 68.594519 3
-35.872168 144.197497 67.130109 3
-30.888788 144.173444 65.595163 3
-25.811562 144.189963 64.038050 3
-69.299674 -13.367625 37.586522 9
-69.209625 -6.622679 39.463787 9
-65.895786 -5.137278 39.015349 9
-65.164543 0.324709 40.355678 9
-63.854966 4.769852 41.254805 9
-62.292867 8.739930 41.950274 9
-59.989538 11.564244 42.125709 9
-57.947169 14.721499 42.458948 9
-55.756137 17.628562 42.678921 9
-53.523476 20.445233 42.858565 9
-51.221545 23.141184 42.982114 9
-48.650649 25.467230 42.927118 9
-45.735881 27.352552 42.653870 9
-42.404954 28.736195 42.126040 9
-38.729343 29.737032 41.395549 9
-34.193917 29.770459 40.162237 9
-29.702033 29.946381 38.975364 9
-25.786112 30.864560 38.143841 9
-21.835822 31.803507 37.304162 9
-17.797920 32.706529 36.426237 9
-13.655355 33.560282 35.501670 9
-9.506496 34.473527 34.586922 9
-5.197066 35.287370 33.596359 9
-0.872632 36.157042 32.612030 9
3.554966 36.995522 31.585960 9
8.112435 37.782122 30.505050 9
12.694252 38.623002 29.427045 9
17.440083 39.389063 28.278288 9
22.320060 40.115471 27.076383 9
27.278260 40.858057 25.851750 9
32.382489 41.560749 24.570279 9
37.629614 42.232696 23.235121 9
42.868822 43.005901 21.923646 9
48.717298 43.374001 20.327290 9
-65.566228 140.020290 78.177237 3
-66.297702 143.766495 79.344616 3
-62.816970 144.205201 78.441884 3
-58.633967 144.179750 77.213652 3
-54.399705 144.201505 75.979323 3
-50.000434 144.189672 74.685104 3
-45.479595 144.181188 73.352889 3
-40.883617 144.212258 72.005259 3
-36.085520 144.199312 70.583810 3
-31.156806 144.197141 69.123127 3
-26.081975 144.200091 67.617074 3
-63.626533 -15.019719 40.224728 9
-62.875959 -9.355929 41.566651 9
-61.661358 -4.561008 42.551499 9
-60.424887 0.081188 43.485657 9
-58.860194 4.131232 44.172332 9
-57.101121 7.817781 44.707492 9
-55.201338 11.238666 45.131290 9
-53.172158 14.425971 45.455296 9
-51.029148 17.415256 45.693092 9
-48.590793 19.980574 45.737223 9
-45.826530 22.109409 45.576388 9
-42.616115 23.678149 45.146276 9
-39.061975 24.849012 44.516710 9
-35.466518 26.013685 43.870796 9
-31.762155 27.094711 43.170207 9
-28.030629 28.194192 42.463400 9
-24.265503 29.306037 41.747012 9
-19.897940 29.798992 40.704172 9
-14.984845 29.775202 39.376639 9
-10.777637 30.605674 38.456708 9
-6.605252 31.540275 37.569142 9
-2.352496 32.457574 36.651365 9
1.993891 33.348239 35.697303 9
6.356560 34.293041 34.748644 9
10.852975 35.178602 33.744254 9
15.435078 36.057106 32.710504 9
20.055123 36.976536 31.672605 9
24.921511 37.748917 30.525486 9
29.770118 38.621378 29.404347 9
34.812157 39.407864 28.203810 9
39.945712 40.204372 26.976129 9
45.257032 40.942385 25.680070 9
51.510959 41.004327 23.948310 9
-68.253807 142.110691 82.540408 3
-66.942651 144.202302 82.688817 3
-62.926175 144.209607 81.560402 3
-58.792070 144.209324 80.394303 3
-54.542641 144.207466 79.192536 3
-50.176410 144.207076 77.955314 3
-45.655708 144.185690 76.666379 3
-41.033669 144.185672 75.350976 3
-36.285873 144.193748 73.998822 3
-31.392062 144.200774 72.601810 3
-26.325331 144.194417 71.149155 3
-55.961246 -19.641837 41.669611 9
-56.941420 -11.291477 44.081325 9
-56.427621 -5.443168 45.468964 9
-55.325281 -0.616469 46.441817 9
-53.871720 3.591399 47.163441 9
-52.173612 7.367897 47.709027 9
-50.231387 10.740212 48.085742 9
-47.936267 13.587615 48.235176 9
-45.287150 15.941531 48.165132 9
-42.178938 17.698125 47.822384 9
-38.749873 19.069393 47.296211 9
-35.232967 20.367901 46.725659 9
-31.717479 21.707838 46.162555 9
-28.078523 22.941027 45.537239 9
-24.390942 24.162763 44.893036 9
-20.661547 25.383694 44.234347 9
-16.837728 26.547653 43.533371 9
-12.968295 27.713612 42.817531 9
-8.994213 28.820893 42.056214 9
-4.804672 29.759680 41.193014 9
0.380752 29.743060 39.827587 9
5.107272 30.292529 38.719580 9
9.455660 31.298558 37.820519 9
13.972085 32.210601 36.850231 9
18.420170 33.260758 35.928340 9
23.129886 34.138622 34.891016 9
27.869896 35.067697 33.854425 9
32.695161 35.999652 32.792029 9
37.611875 36.932586 31.701624 9
42.749088 37.760197 30.522749 9
48.084301 38.511648 29.268404 9
-70.148115 140.436563 85.675243 3
-70.807297 144.095891 86.730974 3
-67.019638 144.193526 85.728163 3
-63.006754 144.192733 84.638421 3
-58.884557 144.190381 83.516212 3
-54.669389 144.202415 82.369676 3
-50.318582 144.201143 81.180522 3
-45.822452 144.184700 79.945562 3
-41.212262 144.179963 78.679569 3
-36.500701 144.199284 77.388812 3
-31.602145 144.189237 76.037155 3
148.930637 30.779225 -0.101852 6
-50.273547 -20.972127 44.575289 9
-51.549621 -12.266853 47.050933 9
-51.152463 -6.283898 48.441002 9
-50.029688 -1.500680 49.353852 9
-48.376541 2.429694 49.923102 9
-46.300122 5.706403 50.224241 9
-43.719530 8.261724 50.220776 9
-40.694313 10.218923 49.957720 9
-37.458230 11.916090 49.575757 9
-34.145058 13.538887 49.153460 9
-30.760387 15.100419 48.695400 9
-27.306520 16.608966 48.204148 9
-23.793616 18.081614 47.686371 9
-20.173718 19.466961 47.117569 9
-16.500554 20.833264 46.527716 9
-12.767279 22.176224 45.914019 9
-8.952800 23.476506 45.266462 9
-5.061543 24.743711 44.588436 9
-1.085286 25.973650 43.876811 9
2.964009 27.183333 43.138649 9
7.105717 28.357153 42.365246 9
11.319697 29.519805 41.567569 9
16.542896 29.771687 40.292332 9
21.895174 30.002013 38.975698 9
26.452553 31.071391 38.058253 9
31.220722 32.021448 37.055150 9
35.972543 33.064603 36.074847 9
40.918788 34.015388 35.019301 9
45.895424 35.022966 33.965811 9
52.071897 35.110850 32.382999 9
-72.665227 142.445102 89.792225 3
-70.982510 144.177070 89.755263 3
-67.116019 144.200556 88.750806 3
-63.117276 144.199537 87.704051 3
-58.996168 144.186579 86.620402 3
-54.775494 144.183012 85.510659 3
-50.464338 144.198751 84.379394 3
-45.998477 144.191327 83.199905 3
-41.411326 144.189562 81.987480 3
-36.723833 144.211727 80.751709 3
-31.858894 144.209940 79.461238 3
149.575378 30.079661 5.576647 6
-42.669740 -11.596386 49.647367 9
-41.587436 -6.673197 50.560510 9
-39.507493 -3.226131 50.884166 9
-37.049215 -0.335702 50.983360 9
-34.332249 2.189498 50.931876 9
-31.432484 4.469984 50.776290 9
-28.432642 6.625660 50.564651 9
-25.273880 8.592927 50.267886 9
-21.988660 10.423721 49.905980 9
-18.637462 12.199270 49.512523 9
-15.189403 13.888862 49.072857 9
-11.631447 15.484682 48.581982 9
-7.985895 17.019050 48.052810 9
-4.302360 18.551694 47.511258 9
-0.478853 19.976089 46.907736 9
3.392832 21.396878 46.288845 9
7.373989 22.753882 45.625651 9
11.417526 24.100641 44.942001 9
15.565481 25.399014 44.218752 9
19.822554 26.650056 43.454943 9
24.105762 27.937797 42.690241 9
28.596096 29.095488 41.841756 9
33.722660 29.744862 40.716914 9
39.659945 29.764891 39.244808 9
44.525603 30.836528 38.274832 9
50.040333 31.433289 37.032672 9
-74.540633 140.838016 92.833407 3
-74.862187 144.193336 93.667708 3
-71.082098 144.198164 92.719693 3
-67.209328 144.205747 91.747250 3
-63.224041 144.204110 90.742648 3
-59.105403 144.181724 89.697996 3
-54.937922 144.205946 88.649532 3
-50.616515 144.201917 87.554008 3
-46.151154 144.182492 86.416716 3
-41.599801 144.192981 85.262279 3
-36.897266 144.191798 84.064895 3
144.031370 27.614193 12.427415 6
-22.810459 -12.575022 49.407814 9
-22.145568 -7.141601 50.482771 9
-20.218086 -3.416589 50.876768 9
-17.756889 -0.401085 50.984435 9
-15.002765 2.238031 50.936839 9
-12.039914 4.623523 50.781219 9
-8.920052 6.831469 50.546730 9
-5.615915 8.842909 50.222738 9
-2.198932 10.750386 49.846681 9
1.346546 12.544782 49.412831 9
4.972954 14.285391 48.945578 9
8.708954 15.947468 48.432638 9
12.552810 17.539575 47.876297 9
16.511590 19.061039 47.274704 9
20.542668 20.560372 46.648666 9
24.643660 22.043717 46.000073 9
28.874825 23.457745 45.302799 9
33.250204 24.796346 44.552114 9
37.693371 26.136253 43.783068 9
42.240941 27.447930 42.980388 9
48.185418 27.610869 41.589402 9
-76.393814 139.241503 95.838173 3
-76.958171 142.817689 96.750929 3
-74.943934 144.211133 96.567188 3
-71.160199 144.202503 95.651299 3
-67.276676 144.191088 94.709211 3
-63.323643 144.203800 93.754002 3
-59.260691 144.212275 92.769712 3
-55.078623 144.213676 91.753440 3
-50.729779 144.177866 90.687080 3
-46.325921 144.190248 89.616037 3
-41.759910 144.177855 88.498557 3
-37.090766 144.186607 87.358754 3
147.725121 24.904134 16.838319 6
-1.860699 -13.344359 49.217385 9
-1.618800 -7.450671 50.432083 9
0.180118 -3.488116 50.877911 9
2.662174 -0.353266 50.989514 9
5.497505 2.369278 50.930709 9
8.557291 4.844866 50.766133 9
11.835774 7.095432 50.501783 9
15.273303 9.198033 50.167678 9
18.862590 11.170560 49.769279 9
22.621849 13.004312 49.300565 9
26.493202 14.766474 48.789021 9
30.435870 16.502832 48.253674 9
34.537119 18.134893 47.657868 9
38.765845 19.700156 47.016648 9
43.097242 21.227801 46.341846 9
49.219806 21.222383 44.929503 9
-81.341570 140.368458 100.098183 0
-81.830497 143.848724 100.941062 0
-81.527787 146.597970 101.446495 0
-74.978558 144.190716 99.425370 3
-71.196598 144.173828 98.543971 3
-67.377533 144.203276 97.662410 3
-63.425268 144.205648 96.743024 3
-59.333629 144.181453 95.784435 3
-55.193413 144.203051 94.822760 3
-50.884881 144.184877 93.812298 3
-46.495014 144.194944 92.787368 3
-41.973803 144.200999 91.729569 3
146.351150 19.691607 21.996189 6
20.471669 -14.073162 49.013174 9
20.122253 -7.580015 50.421531 9
21.871739 -3.468597 50.880635 9
24.405678 -0.227649 50.988014 9
27.337358 2.590012 50.919978 9
30.546774 5.130561 50.732748 9
33.989624 7.455176 50.448541 9
37.659845 9.584044 50.072798 9
41.472184 11.611113 49.643414 9
46.050903 12.966873 48.906868 9
92.077462 -23.200057 31.395606 5
-83.113931 138.812670 102.982656 0
-83.592230 142.306335 103.794693 0
-84.084197 145.741499 104.597056 0
-80.475474 145.679099 103.782456 0
-76.871962 145.693651 102.983614 0
-71.288563 144.190161 101.437920 3
-67.451071 144.194491 100.583077 3
-63.524572 144.206284 99.708934 3
-59.465173 144.195461 98.799632 3
-55.329211 144.208665 97.877052 3
-51.027804 144.183907 96.908895 3
-46.649099 144.189923 95.928560 3
-42.155506 144.202861 94.922835 3
43.591528 -7.872309 50.317174 9
47.042197 -5.313335 50.086928 9
-84.832284 137.233987 105.824750 0
-85.346272 140.783445 106.623702 0
-85.788703 144.197727 107.380553 0
-85.198451 146.662579 107.732826 0
-80.499590 145.660436 106.537522 0
-76.927396 145.691452 105.781749 0
-73.243995 145.703346 104.997910 0
-67.517755 144.180783 103.480860 3
-63.621729 144.205816 102.652826 3
-59.593185 144.207442 101.791267 3
-55.448155 144.202530 100.902836 3
-51.215993 144.216486 99.998679 3
-46.809425 144.190185 99.048704 3
-87.047391 139.238487 109.412580 0
-87.499420 142.684253 110.146633 0
-87.858556 145.979499 110.833357 0
-84.088440 145.685117 110.010044 0
-80.478033 145.603805 109.258555 0
-76.954587 145.666417 108.551180 0
-73.267500 145.666077 107.798327 0
-69.527567 145.696880 107.040075 0
-63.729596 144.214130 105.580168 3
-59.663371 144.176362 104.741720 3
-55.572123 144.200776 103.909265 3
-51.341086 144.204153 103.043899 3
-46.989475 144.205269 102.153012 3
-88.762460 137.730313 112.188441 0
-89.172143 141.161180 112.880325 0
-89.592765 144.532306 113.563559 0
-88.702257 146.693519 113.775467 0
-84.043736 145.617208 112.675808 0
-80.560777 145.634686 112.000103 0
-76.941827 145.608905 111.290055 0
-73.285126 145.624422 110.579879 0
-69.570308 145.665862 109.862861 0
-65.753548 145.701063 109.124721 0
-59.775447 144.177473 107.687328 3
-55.720056 144.217400 106.903212 3
-51.487725 144.208140 106.075682 3
-47.165731 144.218478 105.234002 3
-90.820422 139.638846 115.588747 0
-91.238899 143.031406 116.244774 0
-91.456266 146.176403 116.821316 0
-87.532215 145.652956 116.002338 0
-84.021639 145.568763 115.335270 0
-80.539870 145.579046 114.689796 0
-77.004089 145.613199 114.038479 0
-73.384605 145.648892 113.371996 0
-69.630975 145.649348 112.674702 0
-65.774850 145.644302 111.957557 0
-61.913577 145.711035 111.251845 0
-55.781892 144.170893 109.850152 3
-51.609860 144.195041 109.079730 3
-92.489465 138.158434 118.288792 0
-92.860482 141.530684 118.902170 0
-93.225212 144.828800 119.502753 0
-92.051950 146.693570 119.598006 0
-87.544580 145.642794 118.628539 0
-84.139053 145.639659 118.025112 0
-80.573569 145.569327 117.382794 0
-77.022200 145.581541 116.756804 0
-73.404006 145.609312 116.121915 0
-69.708995 145.646889 115.475438 0
-65.886170 145.657448 114.802362 0
-61.985997 145.684067 114.118655 0
-55.971383 144.219518 112.818343 3
-51.716366 144.171235 112.060605 3
-94.123818 136.667612 120.963005 0
-94.477091 140.047136 121.543828 0
-94.842632 143.368815 122.118400 0
-94.844247 146.293177 122.570738 0
-90.894634 145.652074 121.805742 0
-87.493635 145.577555 121.221525 0
-85.334144 146.631626 121.021885 0
-80.603396 145.556574 120.059932 0
-77.078000 145.581066 119.472009 0
-73.458974 145.598636 118.867925 0
-69.741228 145.608700 118.246757 0
-65.942302 145.628400 117.614142 0
-62.051464 145.652297 116.967458 0
-58.094962 145.702982 116.314653 0
-96.109793 138.600640 124.177241 0
-96.427494 141.900333 124.710610 0
-96.739214 145.127656 125.233254 0
-95.260959 146.667060 125.222357 0
-90.857979 145.607074 124.362434 0
-87.582158 145.634001 123.843385 0
-84.082510 145.532989 123.270604 0
-80.642976 145.552186 122.726005 0
-77.128407 145.576414 122.171076 0
-73.543199 145.611802 121.607454 0
-69.828368 145.614143 121.019248 0
-65.998655 145.599904 120.411276 0
-62.163930 145.656554 119.813990 0
-58.181733 145.677476 119.188997 0
-54.974820 146.339010 118.783102 0
-97.686505 137.121268 126.781932 0
-97.991054 140.432268 127.284806 0
-98.300674 143.680298 127.780816 0
-98.155473 146.442012 128.141382 0
-94.178788 145.681343 127.432723 0
-90.761524 145.508942 126.891667 0
-87.631081 145.656036 126.439577 0
-84.177289 145.585036 125.909299 0
-81.983697 146.638354 125.727380 0
-77.189430 145.580717 124.859258 0
-73.565615 145.575497 124.315987 0
-69.881514 145.593101 123.768050 0
-66.111720 145.615627 123.209158 0
-62.252367 145.643049 122.638774 0
-58.315512 145.687341 122.060440 0
-55.519647 146.637195 121.781942 0
-99.568347 138.997684 129.852278 0
-99.864846 142.256109 130.318094 0
-100.123171 145.412094 130.766351 0
-98.256672 146.539690 130.645793 0
-94.132113 145.634917 129.936787 0
-90.808455 145.538387 129.449687 0
-87.639308 145.642683 129.012368 0
-84.309140 145.668937 128.543144 0
-80.876353 145.673236 128.057780 0
-77.246567 145.582055 127.533189 0
-73.658883 145.596505 127.029996 0
-69.950154 145.584591 126.507616 0
-66.192937 145.607092 125.984449 0
-62.427833 145.695934 125.470535 0
-58.986886 146.097074 125.045569 0
-101.145216 137.583105 132.409705 0
-101.391949 140.816124 132.835688 0
-101.636455 143.981062 133.254576 0
-101.299521 146.534003 133.521212 0
-97.295928 145.654951 132.872123 0
-94.003984 145.514614 132.411470 0
-90.964157 145.664645 132.022110 0
-87.647847 145.629690 131.574260 0
-84.289851 145.623750 131.125996 0
-80.911313 145.665544 130.682526 0
-77.379580 145.645973 130.212596 0
-74.964513 146.594640 130.014085 0
-70.079024 145.623945 129.248387 0
-66.282679 145.605496 128.748574 0
-62.521684 145.687362 128.267865 0
-59.907760 146.693219 128.057125 0
-102.937399 139.413560 135.349394 0
-103.194308 142.612917 135.744908 0
-103.429943 145.726503 136.129638 0
-100.413197 145.709999 135.743557 0
-97.278270 145.642663 135.338310 0
-94.035680 145.539312 134.916991 0
-90.947190 145.637368 134.540159 0
-87.689487 145.645655 134.133381 0
-84.353682 145.649764 133.718118 0
-80.913050 145.630145 133.288803 0
-77.402900 145.619940 132.853794 0
-73.815441 145.615156 132.411717 0
-70.144351 145.613409 131.961577 0
-66.447414 145.662305 131.516231 0
-62.768910 145.795568 131.085222 0
-104.465875 138.013387 137.851261 0
-104.700273 141.213676 138.214571 0
-104.919111 144.332868 138.569390 0
-104.332299 146.614392 138.740881 0
-100.362254 145.674020 138.167774 0
-97.146388 145.524697 137.770757 0
-94.153872 145.642494 137.430802 0
-90.944939 145.623226 137.052507 0
-87.681672 145.618557 136.671411 0
-84.445115 145.699516 136.304798 0
-80.996639 145.663542 135.902761 0
-77.472962 145.632521 135.494646 0
-73.956628 145.675563 135.097704 0
-70.165598 145.568288 134.654625 0
-66.557442 145.677090 134.258846 0
-63.956552 146.618417 134.073682 0
-105.990393 136.628070 140.345630 0
-106.190904 139.817549 140.674309 0
-106.381760 142.931439 140.996730 0
-106.570726 145.980318 141.314724 0
-103.344530 145.684487 140.925703 0
-100.239256 145.570048 140.570079 0
-97.155841 145.537461 140.227104 0
-94.166947 145.650333 139.911182 0
-90.972862 145.635973 139.562216 0
-88.758036 146.537546 139.414546 0
-85.569723 146.633457 139.081807 0
-82.176866 146.617241 138.717828 0
-77.571113 145.668395 138.130213 0
-73.930950 145.601627 137.739252 0
-70.340191 145.644642 137.367360 0
-66.680186 145.702036 136.992095 0
-107.705660 138.464548 143.133388 0
-107.881444 141.585357 143.426026 0
-108.052825 144.637833 143.714471 0
-107.251751 146.675710 143.813128 0
-103.282811 145.645111 143.309509 0
-100.193792 145.539172 142.982665 0
-97.142617 145.529235 142.670796 0
-94.157253 145.637528 142.378866 0
-90.969487 145.620913 142.057291 0
-88.903987 146.644897 141.948081 0
-85.559785 146.596867 141.612767 0
-81.082244 145.662334 141.083465 0
-77.517375 145.579455 140.728064 0
-73.944635 145.559599 140.380546 0
-70.479779 145.693601 140.061077 0
-67.767917 146.475685 139.880435 0
-109.218486 137.128471 145.586817 0
-109.374810 140.251705 145.848649 0
-109.519437 143.298473 146.105769 0
-109.571585 146.191139 146.343991 0
-106.192361 145.665180 145.975941 0
-103.177267 145.563558 145.680018 0
-100.212054 145.568359 145.400152 0
-97.264425 145.645898 145.130565 0
-94.138989 145.616959 144.837953 0
-92.027659 146.550554 144.723944 0
-88.959719 146.673598 144.454874 0
-85.599363 146.602741 144.144950 0
-81.110526 145.649726 143.658282 0
-77.526812 145.542618 143.330499 0
-74.176307 145.693686 143.049344 0
-70.537910 145.678350 142.730574 0
-110.861923 138.930144 148.265670 0
-110.983229 141.974445 148.492156 0
-111.133842 144.986444 148.721676 0
-110.024040 146.678601 148.745610 0
-106.133392 145.635172 148.325552 0
-103.137434 145.545135 148.057301 0
-100.199215 145.568183 147.805264 0
-97.246190 145.633012 147.557874 0
-94.115551 145.591706 147.289992 0
-91.095676 145.709209 147.046604 0
-88.887634 146.590790 146.933902 0
-84.541937 145.669480 146.503962 0
-80.992775 145.514602 146.203827 0
-77.635138 145.587331 145.940712 0
-74.221060 145.677102 145.677473 0
-71.422930 146.318001 145.512126 0
-112.334094 137.610914 150.676834 0
-112.442631 140.663889 150.874297 0
-112.588583 143.692681 151.076273 0
-112.397131 146.315944 151.227539 0
-108.997325 145.688749 150.910665 0
-106.035355 145.566839 150.664950 0
-103.144187 145.571441 150.436149 0
-100.163348 145.546267 150.201207 0
-97.252561 145.642875 149.982979 0
-95.139926 146.517170 149.882925 0
-92.124303 146.612777 149.662604 0
-88.929712 146.607682 149.424718 0
-84.445020 145.558455 149.018824 0
-81.100522 145.568908 148.777241 0
-77.668251 145.570246 148.531805 0
-74.285571 145.676622 148.301045 0
-71.984615 146.702252 148.220160 0
-113.926953 139.398102 153.257091 0
-114.031212 142.404437 153.426012 0
-114.125069 145.338188 153.593262 0
-112.724857 146.692626 153.564360 0
-108.867717 145.594876 153.219020 0
-106.022786 145.582183 153.012625 0
-103.115477 145.563620 152.804505 0
-100.237738 145.628272 152.606550 0
-97.208960 145.606509 152.395998 0
-95.176468 146.546382 152.316304 0
-91.043777 145.639140 151.981880 0
-87.772641 145.577575 151.762132 0
-84.498578 145.576339 151.549417 0
-81.176040 145.596259 151.338309 0
-77.847258 145.673479 151.134040 0
-74.883520 146.107343 150.980481 0
-115.360219 138.095190 155.631098 0
-115.441841 141.099568 155.769841 0
-115.527256 144.045702 155.909476 0
-115.173026 146.475980 155.998508 0
-111.673150 145.665836 155.726493 0
-108.815683 145.578407 155.535032 0
-105.995454 145.583014 155.353797 0
-103.090057 145.558924 155.168973 0
-100.245996 145.647901 154.997167 0
-98.224571 146.549766 154.922340 0
-95.254401 146.613161 154.748211 0
-92.151122 146.612977 154.566079 0
-87.775322 145.560022 154.253815 0
-84.539447 145.583422 154.072341 0
-81.208365 145.587410 153.887932 0
-77.899904 145.672731 153.713254 0
-75.667401 146.688803 153.657479 0
-116.836986 136.857779 158.009203 0
-116.892895 139.855601 158.117401 0
-116.964498 142.807750 158.228405 0
-117.030757 145.693438 158.340036 0
-115.204032 146.558951 158.263439 0
-111.541710 145.575417 158.008679 0
-108.793205 145.591382 157.850879 0
-105.961359 145.577179 157.690529 0
-103.121408 145.608735 157.535175 0
-100.180265 145.597764 157.375950 0
-97.254653 145.656669 157.224279 0
-95.254367 146.609204 157.166115 0
-90.997398 145.574065 156.901314 0
-87.766956 145.532855 156.740215 0
-84.598583 145.606216 156.591635 0
-81.306204 145.633698 156.438538 0
-78.218315 145.891190 156.310947 0
-118.356218 138.643545 160.465076 0
-118.363542 141.546112 160.542842 0
-118.425013 144.447434 160.627185 0
-117.820817 146.586515 160.657060 0
-114.269098 145.641066 160.441937 0
-111.504511 145.580803 160.298676 0
-108.748517 145.582149 160.161460 0
-105.953427 145.596919 160.026426 0
-103.093640 145.601719 159.891634 0
-101.179861 146.551704 159.838944 0
-97.532535 145.917598 159.651823 0
-95.225657 146.579232 159.578057 0
-90.975334 145.542552 159.356399 0
-87.861097 145.595255 159.231300 0
-84.618461 145.595424 159.102679 0
-81.404386 145.680363 158.982917 0
-79.138073 146.605797 158.941707 0
-119.756626 137.378616 162.807700 0
-119.783875 140.324938 162.859469 0
-119.836396 143.237257 162.915668 0
-119.811527 146.005977 162.969120 0
-116.917751 145.691903 162.828810 0
-114.185734 145.605711 162.704548 0
-111.481034 145.600088 162.587124 0
-108.720882 145.589890 162.471029 0
-105.915272 145.587042 162.357093 0
-103.105668 145.632902 162.248205 0
-101.253240 146.632574 162.207434 0
-98.189647 146.529216 162.092403 0
-94.100175 145.553999 161.917118 0
-91.017833 145.568537 161.813238 0
-87.906697 145.615295 161.713594 0
-84.686948 145.626336 161.613328 0
-81.480413 145.708477 161.520293 0
-121.225879 139.146008 165.177971 0
-121.240752 142.037012 165.204066 0
-121.247526 144.859019 165.233082 0
-120.375532 146.678835 165.219173 0
-116.795125 145.621313 165.067263 0
-114.154148 145.623951 164.969331 0
-111.428424 145.589730 164.871724 0
-108.693930 145.598280 164.778517 0
-105.932596 145.631433 164.688892 0
-104.078395 146.586593 164.650283 0
-101.221345 146.614213 164.565717 0
-98.221398 146.562485 164.479338 0
-94.128448 145.575716 164.344462 0
-91.038018 145.574671 164.265304 0
-87.894779 145.585108 164.189426 0
-84.773049 145.672395 164.120581 0
-82.507132 146.536302 164.098505 0
-122.631373 137.943330 167.495822 0
-122.623539 140.829790 167.492872 0
-122.649187 143.693087 167.495256 0
-122.434064 146.233190 167.492879 0
-119.391898 145.688043 167.391894 0
-116.739339 145.621241 167.309352 0
-114.082864 145.601068 167.231066 0
-111.403366 145.607340 167.156458 0
-108.637969 145.577729 167.083400 0
-99.318361 139.187943 166.782405 0
-103.885911 146.421243 166.979130 0
-100.088186 145.558140 166.884311 0
-97.173038 145.596926 166.825786 0
-94.150048 145.591383 166.768820 0
-91.099993 145.618032 166.716384 0
-87.987423 145.646304 166.667427 0
-84.829919 145.693436 166.622720 0
-124.061458 136.786775 169.816727 0
-124.030048 139.666751 169.784730 0
-124.022832 142.513352 169.758104 0
-123.995515 145.278038 169.735829 0
-122.801401 146.709431 169.694940 0
-119.289769 145.644931 169.611965 0
-116.690643 145.628632 169.551199 0
-114.053182 145.621231 169.493843 0
-111.349292 145.595466 169.439446 0
-108.647675 145.622620 169.389508 0
-106.831426 146.565415 169.361801 0
-104.034926 146.583775 169.319076 0
-101.205551 146.622700 169.280460 0
-97.144173 145.574161 169.222522 0
-94.156655 145.593446 169.190928 0
-91.096946 145.603498 169.163162 0
-88.022023 145.656802 169.140485 0
-85.725541 146.433846 169.137984 0
-125.446487 138.533215 172.079056 0
-125.396445 141.350535 172.023772 0
-125.394776 144.163802 171.974131 0
-124.972201 146.449251 171.928522 0
-121.797069 145.684813 171.878318 0
-119.245860 145.664371 171.833823 0
-116.652276 145.646906 171.793026 0
-114.011488 145.628958 171.756007 0
-111.285012 145.573236 171.722706 0
-108.668671 145.678737 171.694085 0
-106.796244 146.558218 171.673151 0
-102.980869 145.591444 171.647936 0
-100.131346 145.622330 171.631640 0
-97.129715 145.564717 171.619369 0
-94.172428 145.603829 171.612164 0
-91.126133 145.617676 171.609567 0
-88.085852 145.692860 171.612154 0
-85.936106 146.586912 171.623809 0
-126.854013 137.407310 174.376258 0
-126.786977 140.224696 174.292661 0
-126.746457 143.013165 174.214972 0
-126.710742 145.748732 174.143331 0
-125.042078 146.609095 174.099524 0
-121.705316 145.658975 174.081526 0
-119.155286 145.633742 174.056489 0
-116.570153 145.619095 174.035540 0
-113.944042 145.610070 174.018849 0
-111.275775 145.606888 174.006531 0
-109.512000 146.553983 173.988056 0
-106.847674 146.635715 173.984051 0
-104.074480 146.660628 173.985477 0
-100.070734 145.576986 174.004373 0
-97.170742 145.606579 174.015832 0
-94.186051 145.612262 174.032830 0
-91.147636 145.625015 174.055179 0
-88.849520 146.340749 174.074798 0
-128.195520 139.138344 176.564470 0
-128.115203 141.899369 176.459390 0
-128.072065 144.645438 176.360004 0
-127.395949 146.616346 176.286728 0
-124.123956 145.668906 176.296927 0
-121.618506 145.638613 176.286810 0
-119.124037 145.666814 176.279733 0
-116.506907 145.611215 176.279636 0
-113.893807 145.609009 176.282966 0
-111.477649 145.854719 176.284617 0
-109.113435 146.192033 176.288881 0
-106.835945 146.651449 176.295014 0
-102.989960 145.639325 176.346544 0
-100.096289 145.612821 176.376950 0
-97.156229 145.597084 176.412831 0
-94.206187 145.626606 176.453396 0
-91.249394 145.703848 176.498722 0
-89.269466 146.688282 176.524293 0
-129.593136 138.057446 178.840306 0
-129.495400 140.816892 178.707376 0
-129.420195 143.544386 178.580988 0
-129.249788 146.104834 178.466639 0
-126.504776 145.696091 178.481412 0
-124.036949 145.654588 178.485671 0
-121.549546 145.637835 178.493875 0
-119.039504 145.642785 178.506278 0
-116.447276 145.607194 178.525630 0
-113.866720 145.631902 178.547829 0
-111.996226 146.423643 178.542977 0
-109.505571 146.617543 178.568974 0
-106.699531 146.545324 178.612127 0
-102.957057 145.627337 178.697931 0
-100.075321 145.604835 178.751474 0
-97.157617 145.602295 178.810562 0
-94.217740 145.633159 178.874774 0
-91.904320 146.275507 178.918265 0
-130.973291 136.973331 181.121821 0
-130.901632 139.784431 180.957893 0
-130.806636 142.506577 180.804116 0
-130.703692 145.161878 180.659083 0
-129.658413 146.674781 180.583464 0
-126.409854 145.679108 180.654846 0
-123.956197 145.647340 180.677052 0
-121.488590 145.645880 180.702997 0
-118.989238 145.655573 180.733904 0
-116.415734 145.632789 180.772421 0
-113.783869 145.597239 180.817595 0
-111.257342 145.717298 180.859831 0
-109.500514 146.647509 180.860884 0
-105.685434 145.581560 180.985071 0
-102.962484 145.652142 181.049408 0
-100.090451 145.630858 181.126000 0
-97.161425 145.609745 181.209646 0
-94.291682 145.696336 181.294016 0
-92.418045 146.721445 181.327897 0
-132.260605 138.712802 183.216477 0
-132.157301 141.444293 183.034229 0
-132.042345 144.103392 182.862017 0
-131.637281 146.366059 182.722733 0
-128.689621 145.655509 182.800038 0
-126.295202 145.639942 182.833591 0
-123.879828 145.645089 182.871445 0
-121.435617 145.662730 182.914326 0
-118.907982 145.635246 182.966547 0
-116.328464 145.599836 183.025617 0
-113.726969 145.589456 183.089312 0
-111.084115 145.584786 183.159207 0
-109.400861 146.583362 183.161482 0
-105.635168 145.559899 183.320786 0
-102.932896 145.643373 183.405090 0
-100.106271 145.657538 183.501995 0
-97.209847 145.658447 183.607571 0
-94.808792 146.161763 183.682114 0
-133.649597 137.696828 185.478117 0
-133.513862 140.407126 185.269520 0
-133.410944 143.099134 185.067334 0
-133.291318 145.713781 184.876441 0
-131.821386 146.688711 184.830607 0
-128.620951 145.675212 184.961110 0
-126.260294 145.691207 185.009458 0
-123.838338 145.681723 185.066237 0
-121.343882 145.637417 185.132455 0
-118.833255 145.622033 185.202750 0
-116.287736 145.615925 185.278994 0
-113.709423 145.622371 185.361074 0
-111.083073 145.626897 185.450459 0
-108.368452 145.591262 185.550802 0
-105.631110 145.583424 185.656245 0
-102.883192 145.615338 185.765869 0
-100.079965 145.644559 185.883736 0
-97.231557 145.682456 186.009046 0
-95.390505 146.685850 186.052026 0
-135.018692 136.674479 187.747952 0
-134.879841 139.400125 187.509767 0
-134.744273 142.070359 187.281890 0
-134.593517 144.664921 187.066200 0
-133.923675 146.584917 186.922463 0
-130.866024 145.674243 187.067603 0
-128.555823 145.699168 187.125541 0
-126.133682 145.638895 187.198595 0
-123.747704 145.663920 187.269719 0
-121.273852 145.635926 187.353103 0
-118.748253 145.597961 187.444596 0
-116.199102 145.581768 187.541131 0
-113.659695 145.622151 187.639248 0
-111.003117 145.589113 187.752681 0
-108.328703 145.587093 187.870781 0
-105.626123 145.606074 187.994781 0
-102.890206 145.641732 188.125337 0
-100.081155 145.657489 188.266630 0
-97.745142 146.161216 188.363360 0
-136.025082 138.128031 189.788430 0
-135.931471 140.874971 189.524169 0
-135.804052 143.519443 189.276129 0
-135.620861 146.039518 189.046729 0
-133.094464 145.709494 189.148177 0
-130.774323 145.674044 189.222654 0
-128.452023 145.678806 189.299299 0
-126.051464 145.637018 189.388298 0
-123.640271 145.627678 189.480696 0
-121.237137 145.670892 189.574264 0
-118.693955 145.606893 189.687965 0
-116.233004 145.676464 189.793618 0
-113.607009 145.618981 189.922333 0
-110.962914 145.591695 190.055695 0
-108.318230 145.612107 190.191745 0
-105.643677 145.650779 190.334208 0
-102.890688 145.661892 190.488956 0
-100.059031 145.648488 190.655978 0
-98.307588 146.685128 190.700293 0
-136.664245 136.202144 192.167176 0
-136.722257 139.181608 191.844605 0
-136.653239 141.931245 191.555762 0
-136.540639 144.566067 191.285980 0
-135.956426 146.571232 191.101434 0
-132.999406 145.711812 191.291626 0
-130.652145 145.638417 191.387821 0
-128.337139 145.645971 191.480755 0
-126.004085 145.674711 191.578289 0
-123.570861 145.633842 191.692542 0
-121.170858 145.673810 191.803924 0
-117.706738 144.618508 192.069431 0
-116.080826 145.575851 192.074618 0
-113.543503 145.604772 192.212137 0
-110.955117 145.627180 192.359200 0
-108.281836 145.611414 192.520434 0
-105.605345 145.640962 192.684667 0
-102.888631 145.679651 192.857083 0
-100.593750 146.163754 192.976390 0
84.787573 -3.643497 -37.818412 5
81.275309 -8.283824 -37.076045 5
78.378920 -9.912987 -36.673398 5
75.588731 -11.127111 -36.326683 5
72.868653 -12.081305 -36.018343 5
69.289435 -19.132203 -35.080754 9
66.307895 -22.788188 -34.515547 9
63.466615 -25.915439 -34.018472 9
60.771763 -28.331322 -33.606937 9
58.134963 -30.666609 -33.214765 9
55.546325 -32.993510 -32.834192 9
53.602201 -28.659861 -33.138619 9
50.670912 -35.633623 -32.307127 9
48.678331 -31.303763 -32.623991 9
46.010936 -36.573033 -31.986118 9
43.713886 -36.738286 -31.868048 9
41.425927 -36.812965 -31.766728 9
39.142232 -36.853588 -31.676443 9
36.860027 -36.916908 -31.591545 9
34.579811 -36.988052 -31.513489 9
32.301929 -37.003252 -31.448502 9
30.024662 -37.100721 -31.383027 9
27.748611 -37.157405 -31.329095 9
25.472543 -37.185899 -31.285445 9
23.195330 -37.186440 -31.252034 9
20.917262 -37.196841 -31.225178 9
18.640063 -37.256108 -31.201098 9
16.358133 -37.246625 -31.191210 9
14.072869 -37.224546 -31.190070 9
11.786591 -37.230905 -31.193712 9
9.494964 -37.208713 -31.207678 9
7.206153 -37.258963 -31.222186 9
4.905039 -37.216816 -31.253258 9
2.601388 -37.196920 -31.289794 9
0.291283 -37.164710 -31.335183 9
-2.030657 -37.084142 -31.392988 9
-4.352774 -37.052006 -31.453799 9
-6.682283 -37.013016 -31.523054 9
-9.022333 -36.950877 -31.602408 9
-11.369443 -36.892848 -31.689236 9
-13.730927 -36.798964 -31.787553 9
-16.093609 -36.748177 -31.889597 9
-18.472668 -36.658309 -32.003593 9
-20.843482 -36.657711 -32.116769 9
-23.257795 -36.493911 -32.254544 9
-25.675631 -36.369202 -32.396718 9
-28.108326 -36.231943 -32.548581 9
-30.555557 -36.086871 -32.709755 9
-33.029156 -35.889730 -32.884912 9
-35.495744 -35.775916 -33.060196 9
-37.999533 -35.575123 -33.253340 9
-40.515031 -35.389007 -33.453937 9
-43.042233 -35.217876 -33.662040 9
-45.574832 -35.082996 -33.875463 9
-48.274266 -34.462380 -34.150398 9
-51.058104 -33.660449 -34.455210 9
-54.251680 -31.710746 -34.896246 9
-57.926652 -28.506843 -35.488665 9
-62.207687 -23.804699 -36.263618 9
-67.157728 -17.560417 -37.231069 9
104.448547 -12.369333 -35.906659 5
101.454005 -13.593445 -35.475169 5
98.551493 -14.592929 -35.079195 5
95.721638 -15.418649 -34.712599 5
92.927537 -16.206324 -34.360923 5
90.191010 -16.849558 -34.034521 5
87.478905 -17.482971 -33.719452 5
84.799243 -18.062739 -33.419836 5
82.152203 -18.577269 -33.136512 5
79.530858 -19.051503 -32.866760 5
76.926206 -19.527867 -32.606286 5
74.350267 -19.930574 -32.362175 5
71.798450 -20.272856 -32.132898 5
68.694390 -24.496914 -31.549090 9
65.897174 -27.092443 -31.130735 9
63.170254 -29.558919 -30.735810 9
60.526441 -31.752456 -30.376976 9
57.953751 -33.708823 -30.050218 9
55.431166 -35.568350 -29.742183 9
52.987604 -36.975762 -29.484495 9
50.603231 -38.016492 -29.268627 9
48.273915 -38.601891 -29.101808 9
45.982451 -38.800399 -28.977256 9
43.698706 -38.968538 -28.862946 9
41.425146 -39.023798 -28.766052 9
39.154651 -39.069417 -28.677379 9
36.885349 -39.152461 -28.592782 9
34.619191 -39.197422 -28.518838 9
32.354341 -39.257330 -28.450896 9
30.090784 -39.279107 -28.393539 9
27.827270 -39.278308 -28.345388 9
25.564173 -39.325600 -28.300334 9
23.301782 -39.397695 -28.260397 9
21.036319 -39.385456 -28.234954 9
18.770565 -39.406002 -28.213930 9
16.502186 -39.407958 -28.201742 9
14.232778 -39.429515 -28.195120 9
11.958943 -39.422490 -28.198207 9
9.683430 -39.433867 -28.206987 9
7.404436 -39.442738 -28.223270 9
5.116573 -39.400409 -28.251261 9
2.824881 -39.368615 -28.285688 9
0.532223 -39.371988 -28.324452 9
-1.775663 -39.295627 -28.377497 9
-4.082750 -39.274076 -28.433249 9
-6.396824 -39.247002 -28.496952 9
-8.725162 -39.171628 -28.572384 9
-11.060433 -39.102540 -28.654857 9
-13.398824 -39.062771 -28.742396 9
-15.753981 -38.976439 -28.841716 9
-18.110647 -38.930840 -28.945196 9
-20.488775 -38.824680 -29.061866 9
-22.868348 -38.761748 -29.182587 9
-25.256194 -38.707908 -29.310440 9
-27.661445 -38.624725 -29.448964 9
-30.094694 -38.473854 -29.601777 9
-32.515032 -38.427236 -29.753321 9
-34.957966 -38.339460 -29.916916 9
-37.427799 -38.200865 -30.093629 9
-39.942546 -37.954468 -30.288998 9
-42.445572 -37.807465 -30.483812 9
-44.967952 -37.648611 -30.688549 9
-47.549751 -37.351915 -30.915438 9
-52.089783 -31.016799 -31.735759 9
-53.182548 -35.522961 -31.517799 9
-56.599604 -32.994602 -31.993905 9
-60.256986 -29.973479 -32.532963 9
-64.303000 -26.094315 -33.173498 9
-68.778033 -21.323129 -33.922035 9
-73.885247 -15.204946 -34.828590 8
-77.118931 -14.230650 -35.226055 8
-80.444365 -13.129657 -35.649687 8
-83.906155 -11.806147 -36.110357 8
-87.567334 -10.130755 -36.623031 8
-91.757146 -7.375812 -37.268189 8
109.467298 -14.755257 -33.130361 5
105.399606 -19.681004 -32.349250 5
102.549245 -20.507065 -31.973368 5
99.790357 -21.091917 -31.630958 5
97.092127 -21.527963 -31.312590 5
93.591778 -25.374645 -30.694830 5
91.005397 -25.638775 -30.414918 5
88.429905 -25.923164 -30.142402 5
85.867153 -26.219460 -29.877950 5
83.317813 -26.523574 -29.621829 5
80.787221 -26.806525 -29.376441 5
78.280654 -27.033739 -29.144573 5
75.788154 -27.250584 -28.922152 5
73.303411 -27.490746 -28.706238 5
70.840901 -27.662547 -28.504405 5
68.337961 -28.178051 -28.282477 9
65.628267 -30.317777 -27.936410 9
62.973691 -32.382547 -27.606954 9
60.381156 -34.291746 -27.300212 9
57.839761 -36.100863 -27.011250 9
55.352622 -37.746026 -26.744757 9
52.932119 -39.035735 -26.515382 9
50.574149 -39.894456 -26.328348 9
48.254852 -40.481700 -26.170489 9
45.971309 -40.719057 -26.047427 9
43.698691 -40.880490 -25.937541 9
41.437326 -40.903852 -25.845467 9
39.176124 -40.982687 -25.756238 9
36.919739 -40.985569 -25.679883 9
34.663265 -41.052673 -25.605684 9
32.409036 -41.071382 -25.542184 9
30.155403 -41.098182 -25.485076 9
27.901892 -41.099872 -25.436849 9
25.648396 -41.126308 -25.393741 9
23.395425 -41.184554 -25.355229 9
21.141171 -41.212566 -25.325959 9
18.885648 -41.236474 -25.303968 9
16.626985 -41.231267 -25.291124 9
14.364254 -41.200689 -25.287150 9
12.100420 -41.199322 -25.287988 9
9.834561 -41.210881 -25.294865 9
7.561631 -41.180962 -25.311858 9
5.288766 -41.194809 -25.332624 9
3.006803 -41.162250 -25.363923 9
0.722177 -41.150797 -25.400735 9
-1.568362 -41.133795 -25.445085 9
-3.865822 -41.107894 -25.497262 9
-6.169018 -41.085460 -25.556372 9
-8.474151 -41.092561 -25.620474 9
-10.804283 -40.988299 -25.700321 9
-13.126741 -40.978335 -25.780328 9
-15.467132 -40.912538 -25.871992 9
-17.811336 -40.873594 -25.969041 9
-20.164470 -40.834835 -26.073576 9
-22.545169 -40.711175 -26.192300 9
-24.934791 -40.598854 -26.317839 9
-27.329064 -40.516735 -26.448760 9
-29.731743 -40.447654 -26.586461 9
-32.151730 -40.356696 -26.733799 9
-34.584828 -40.264103 -26.889262 9
-37.033816 -40.161602 -27.053615 9
-39.495132 -40.064616 -27.225707 9
-41.965712 -39.984807 -27.404659 9
-44.469433 -39.843032 -27.597145 9
-47.018212 -39.608678 -27.805991 9
-49.708153 -38.993383 -28.056061 9
-52.554082 -37.988953 -28.349139 9
-55.690818 -36.237745 -28.717438 9
