ply
format ascii 1.0
element vertex 1363
property float x
property float y
property float z
property int scalar_Label
end_header
-110.079426 136.702514 79.598168 0
-88.737953 143.786184 102.499598 0
-88.595984 139.836622 102.443389 0
-88.784076 135.964973 102.144966 0
-113.795491 136.699080 82.905905 0
-92.167755 143.772157 105.628375 0
-92.061089 139.831996 105.535610 0
-92.250834 135.961423 105.231929 0
-117.551403 136.700040 86.209791 0
-95.648401 143.765962 108.743938 0
-95.547489 139.828533 108.637493 0
-95.680924 135.947750 108.370877 0
-121.317319 136.699651 89.534470 0
-99.103678 143.750775 111.903783 0
-99.008813 139.816586 111.783826 0
-99.199133 135.947952 111.471960 0
-125.124052 136.703299 92.859317 0
-102.649712 143.751344 115.026872 0
-102.512543 139.809775 114.927258 0
-102.695677 135.940632 114.616596 0
-128.910298 136.699775 96.229744 0
-106.162315 143.740851 118.202479 0
-106.019919 139.800036 118.096871 0
-106.242288 135.939267 117.755781 0
-132.748753 136.701892 99.596154 0
-109.687468 143.728993 121.399271 0
-109.564561 139.793871 121.271316 0
-109.768612 135.930444 120.939198 0
-136.558808 136.695257 103.015198 0
-113.270844 143.725001 124.589105 0
-113.124441 139.786677 124.467272 0
-113.330487 135.924441 124.130477 0
-140.462350 136.700930 106.407446 0
-116.838744 143.713394 127.821736 0
-116.714314 139.781122 127.676828 0
-116.914819 135.918600 127.340211 0
-144.343074 136.698517 109.851344 0
-120.476102 143.711315 131.044998 0
-120.312232 139.772760 130.915491 0
-120.529356 135.914111 130.565325 0
-148.248192 136.696026 113.317440 0
-124.089693 143.699638 134.318445 0
-123.956249 139.768647 134.161478 0
-124.136022 135.903963 133.830634 0
-152.216056 136.699660 116.784516 0
-127.749323 143.692220 137.600922 0
-127.557909 139.751918 137.469085 0
-127.775845 135.895346 137.112426 0
-156.155288 136.693928 120.309466 0
-131.447129 143.687163 140.899561 0
-131.243368 139.746061 140.765303 0
-131.444833 135.887315 140.415066 0
-160.148232 136.692373 123.844714 0
-135.132324 143.674332 144.244713 0
-134.976349 139.743888 144.074531 0
-135.221613 135.893200 143.696852 0
-164.204068 136.696143 127.388166 0
-138.872391 143.666653 147.600062 0
-138.693709 139.733625 147.433449 0
-138.909154 135.878740 147.069404 0
-168.250956 136.693349 130.981981 0
-151.327457 22.656175 -22.727667 7
-149.995592 3.062824 -27.422347 7
-148.173377 7.891550 -25.807518 7
-152.025300 25.266959 -16.574977 7
-149.059123 26.892542 -16.827143 7
-144.717340 25.592945 -18.885697 7
-140.066850 23.808221 -21.279656 7
-134.877817 21.118544 -24.278242 7
-149.803849 -5.610295 -26.432291 7
-146.552155 -3.895427 -26.708713 7
-143.349116 -2.077789 -26.933999 7
-151.995976 26.222210 -11.530039 7
-149.896713 29.686623 -10.683086 7
-145.819505 28.861060 -12.398381 7
-141.809647 28.299740 -13.984109 7
-137.572472 27.394591 -15.807091 7
-133.200963 26.357242 -17.743208 7
-128.448412 24.731880 -20.076274 7
-123.329286 22.593526 -22.768881 7
-112.501315 10.317292 -31.855388 8
-111.250692 15.637723 -29.986334 8
-108.631137 18.435613 -29.698244 8
-105.597194 20.495348 -29.884945 8
-102.463255 22.386081 -30.190181 8
-149.670973 -14.483690 -25.353417 7
-147.072934 -10.980971 -24.640108 7
-143.584023 -9.692846 -25.178446 7
-140.110307 -8.353383 -25.699802 7
-136.714151 -6.825832 -26.125210 7
-149.946972 30.745640 -5.677503 7
-146.200840 30.578456 -6.964850 7
-142.338426 30.262198 -8.363070 7
-138.378615 29.849244 -9.843721 7
-134.276348 29.262390 -11.454833 7
-130.104627 28.656666 -13.106334 7
-125.771543 27.866770 -14.899402 7
-121.280946 26.916757 -16.822795 7
-116.348717 25.321621 -19.177942 7
-110.801587 22.834078 -22.128444 8
-108.301349 25.666047 -21.808921 8
-104.844093 26.887448 -22.504041 8
-99.234917 24.699790 -25.380061 8
-93.011959 21.745608 -28.799883 8
-88.931923 22.292886 -30.023495 8
-49.501010 20.406461 -45.199632 9
-151.352016 -19.056798 -21.741936 7
-147.617806 -18.266578 -22.541526 7
-143.882775 -17.434665 -23.333447 7
-140.215421 -16.401113 -24.029245 7
-136.528118 -15.380660 -24.746487 7
-152.036618 28.301604 -1.573561 7
-149.760223 31.275959 -1.047898 7
-146.052572 31.162339 -2.273911 7
-142.335642 31.115844 -3.483466 7
-138.480544 30.877177 -4.825870 7
-134.632105 30.745256 -6.130544 7
-130.652493 30.454050 -7.552504 7
-126.569474 30.069692 -9.055560 7
-122.384574 29.604942 -10.634155 7
-118.008862 28.912653 -12.378347 7
-112.041664 25.610521 -15.730280 8
-109.587010 28.433332 -15.413889 8
-106.537781 30.240863 -15.720357 8
-102.365100 30.259872 -17.143021 8
-97.349508 29.053036 -19.358753 8
-85.123837 17.000531 -28.434694 8
-85.991313 25.095350 -24.897841 8
-79.100096 21.623462 -28.701636 8
-74.893945 22.226706 -29.949478 8
-61.339080 9.882731 -39.647790 9
-60.008039 14.830975 -38.176231 9
-57.147362 17.631119 -38.107645 9
-54.488281 20.678247 -37.879863 9
-51.456674 23.225127 -37.992451 9
-48.814740 26.255784 -37.785211 9
-45.684431 28.668136 -38.006398 9
-41.087991 29.333852 -39.451138 9
-36.189927 29.727785 -41.122195 9
-149.665886 -21.978410 -18.415350 7
-145.824644 -21.386996 -19.316911 7
-142.017532 -20.657541 -20.160925 7
-138.212028 -19.875368 -20.992185 7
-134.425658 -19.002442 -21.789915 7
-151.968846 29.120785 3.171095 7
-149.238139 31.071446 3.118425 7
-145.678702 31.260795 2.086732 7
-141.970488 31.216287 0.905924 7
-138.269149 31.268080 -0.242031 7
-134.473022 31.214681 -1.470502 7
-130.617704 31.134001 -2.737030 7
-126.687755 31.002506 -4.056135 7
-122.674801 30.811808 -5.434027 7
-118.617131 30.636334 -6.828822 7
-112.685452 27.347795 -10.079859 8
-110.123866 29.931671 -9.907995 8
-107.246470 31.967701 -10.065302 8
-103.516593 32.639259 -11.051569 8
-98.945731 32.059350 -12.818764 8
-94.228083 31.372328 -14.686070 8
-89.274546 30.456619 -16.731289 8
-83.995002 29.200405 -19.028831 8
-78.430441 27.688855 -21.532013 8
-72.146213 25.339000 -24.615823 8
-60.899684 16.439692 -31.946001 9
-56.900199 17.671230 -32.881264 9
-59.506215 27.553826 -28.210776 9
-56.231989 29.626097 -28.589948 9
-52.979974 31.741192 -28.954487 9
-49.640916 33.764694 -29.394036 9
-45.414674 34.748589 -30.551286 9
-38.153087 32.249793 -34.113714 9
-30.091685 29.049565 -38.236882 9
-25.050617 29.478154 -39.925554 9
-152.035502 -24.929871 -13.886532 7
-148.159711 -24.430790 -14.811641 7
-144.300360 -23.830686 -15.700509 7
-140.402123 -23.268474 -16.624676 7
-136.490298 -22.679187 -17.550973 7
-132.592126 -22.000581 -18.446737 7
-152.025653 30.199907 7.987579 7
-148.576640 30.560008 7.084759 7
-145.007162 30.728080 6.062244 7
-141.390816 30.871353 5.008011 7
-137.728625 30.996370 3.924822 7
-134.013800 31.094037 2.806906 7
-130.244356 31.165346 1.653908 7
-126.437978 31.247456 0.485668 7
-122.536759 31.238560 -0.755637 7
-118.560688 31.182991 -2.046689 7
-112.918897 28.370546 -4.939317 8
-110.333178 30.871679 -4.818056 8
-107.449801 32.859042 -4.997766 8
-103.860189 33.718950 -5.845526 8
-99.623753 33.622276 -7.276990 8
-95.116712 33.207903 -8.926241 8
-90.509193 32.753145 -10.632354 8
-85.740647 32.176369 -12.446463 8
-80.818323 31.499668 -14.358084 8
-75.607323 30.546176 -16.479073 8
-70.172313 29.425933 -18.746791 8
-62.442961 25.402614 -22.883021 9
-62.200314 31.388163 -20.760664 9
-58.938958 33.378034 -21.159376 9
-55.564188 35.243647 -21.651780 9
-52.110268 37.036326 -22.207229 9
-48.609181 38.800667 -22.798350 9
-44.325727 39.681732 -23.993944 9
-38.011225 38.309579 -26.730508 9
-30.438364 35.694012 -30.370611 9
-19.313171 29.404907 -36.604301 9
-13.498402 29.189965 -38.776085 9
-8.164675 29.607176 -40.559668 9
-150.878955 -26.516285 -9.839240 7
-146.932113 -26.169004 -10.828002 7
-142.966819 -25.797881 -11.821165 7
-139.000964 -25.359280 -12.796861 7
-134.994017 -24.950313 -13.804245 7
-131.008622 -24.424080 -14.768797 7
-149.881107 26.422849 10.225553 7
-147.666403 29.510952 10.746206 7
-144.139351 29.781438 9.796006 7
-140.592595 30.077041 8.842209 7
-136.977527 30.302235 7.833862 7
-133.384054 30.638095 6.866594 7
-129.679899 30.830389 5.804056 7
-125.872529 30.905896 4.658504 7
-122.044916 31.024139 3.515291 7
-118.184072 31.162155 2.361662 7
-112.826594 28.827827 -0.189782 8
-110.221934 31.268706 -0.106740 8
-107.350476 33.249523 -0.286344 8
-103.797469 34.144188 -1.092079 8
-99.680225 34.210143 -2.391558 8
-95.317982 33.989935 -3.882782 8
-90.935458 33.839041 -5.362967 8
-86.494426 33.700797 -6.865429 8
-81.760129 33.244856 -8.587405 8
-76.937144 32.779236 -10.350073 8
-71.992191 32.263223 -12.179382 8
-66.807857 31.548121 -14.168171 8
-61.400222 30.671689 -16.297766 9
-60.492682 35.652918 -14.828862 9
-57.059323 37.381325 -15.380086 9
-53.644015 39.159920 -15.915613 9
-50.187655 40.916975 -16.481022 9
-46.409633 42.328261 -17.286766 9
-41.483892 42.473673 -18.940267 9
-35.388145 41.410093 -21.429574 9
-28.697424 39.846986 -24.308185 9
-21.365564 37.771549 -27.597052 9
-12.643227 34.435089 -31.817951 9
-1.591462 28.957768 -37.604776 9
3.968051 29.358147 -39.445533 9
9.629635 29.765530 -41.329600 9
-5.887273 92.321777 -14.945618 3
-4.738880 96.194091 -14.122553 3
-149.879673 -27.692529 -5.594116 7
-145.893316 -27.428381 -6.607678 7
-141.855405 -27.216754 -7.663165 7
-137.821985 -26.916548 -8.692245 7
-133.778146 -26.566821 -9.713776 7
-129.717922 -26.182209 -10.734993 7
-150.071810 27.779490 15.109949 7
-146.626921 28.184431 14.259048 7
-143.109292 28.495496 13.345529 7
-139.623237 28.933384 12.481104 7
-136.063074 29.282498 11.555372 7
-132.446867 29.586622 10.589640 7
-128.817123 29.931230 9.627726 7
-125.087771 30.158505 8.586184 7
-121.333342 30.412435 7.539751 7
-117.548024 30.683622 6.483144 7
-112.493095 28.867262 4.276937 8
-109.915835 31.335038 4.369172 8
-106.977312 33.189028 4.122011 8
-103.440543 34.096523 3.342577 8
-99.339577 34.175986 2.083777 8
-95.150011 34.205652 0.772147 8
-90.888845 34.217032 -0.575903 8
-86.522355 34.165627 -1.986992 8
-81.999337 33.986255 -3.500635 8
-77.508402 33.951838 -4.960487 8
-72.778867 33.689658 -6.584700 8
-67.875647 33.303929 -8.316014 8
-62.462410 32.369925 -10.412110 9
-61.211280 36.859577 -9.271343 9
-57.928310 38.733810 -9.710992 9
-54.522515 40.479882 -10.243102 9
-51.103940 42.238663 -10.782820 9
-47.519818 43.833094 -11.441736 9
-43.115681 44.528149 -12.689752 9
-37.707274 44.176234 -14.639174 9
-31.741358 43.334992 -16.950612 9
-25.511131 42.353777 -19.407111 9
-18.771634 40.989452 -22.174136 9
-11.587528 39.337927 -25.197862 9
9.870114 23.502103 -37.861229 9
6.768027 32.652927 -33.768983 9
16.516968 29.146642 -38.320049 9
22.447072 29.523058 -40.274482 9
-7.356723 68.389415 -17.169045 1
-4.495067 71.043275 -17.329052 1
1.294607 71.162815 -19.351033 1
-9.582089 85.580975 -10.868381 1
-13.321361 93.573261 -6.991763 3
-10.062020 95.642637 -7.511295 3
-12.880217 102.594890 -4.309605 2
-9.048004 104.177909 -5.203796 2
-6.339118 106.672871 -5.413324 2
-4.263712 109.657585 -5.247658 2
-149.174220 -28.108711 -1.003545 7
-145.092410 -28.090587 -2.113876 7
-141.004475 -27.999414 -3.206856 7
-136.920575 -27.814210 -4.272205 7
-132.799513 -27.634966 -5.357479 7
-152.015707 25.027190 18.939589 7
-148.802053 25.928572 18.354452 7
-145.393058 26.444723 17.569753 7
-141.945471 26.932462 16.757503 7
-138.419171 27.315322 15.878889 7
-134.926524 27.824535 15.048419 7
-131.341365 28.211170 14.141161 7
-127.722159 28.595936 13.216785 7
-124.054346 28.954857 12.262471 7
-120.388766 29.382763 11.326503 7
-116.612645 29.681276 10.305693 7
-111.968140 28.576111 8.527722 8
-109.369347 30.997421 8.587935 8
-106.385691 32.770022 8.299508 8
-102.706251 33.447161 7.413043 8
-98.717431 33.702035 6.279319 8
-94.597366 33.834724 5.056390 8
-90.464965 34.031975 3.845023 8
-86.207540 34.129608 2.553861 8
-81.854186 34.178290 1.209145 8
-77.408243 34.188971 -0.184501 8
-72.855841 34.148590 -1.636034 8
-65.938750 31.073123 -4.869742 8
-62.524737 32.765442 -5.389261 9
-61.564696 37.597650 -4.076942 9
-58.245419 39.395763 -4.545025 9
-54.907437 41.195044 -5.025935 9
-51.548603 42.994632 -5.520700 9
-48.024906 44.628494 -6.131232 9
-43.928396 45.643369 -7.140530 9
-38.728176 45.486763 -8.904654 9
-33.313771 45.207604 -10.786927 9
-27.484319 44.602579 -12.920428 9
-21.584961 44.058604 -15.064902 9
-15.143948 43.092214 -17.534641 9
-8.407937 41.982971 -20.157121 9
-1.113268 40.485720 -23.100145 9
6.782741 38.589543 -26.381999 9
-10.035832 60.256937 -13.783955 4
-12.678883 68.031117 -10.425926 1
-10.400165 71.140231 -10.230525 1
-8.813062 74.852087 -9.615726 1
-23.948631 93.064142 1.288723 3
-17.228130 92.034646 -1.362159 3
-15.057904 94.953411 -1.217338 3
-12.254692 97.350031 -1.461039 2
-11.873142 101.697395 -0.266503 2
-9.178288 104.172314 -0.462260 2
-6.613598 106.761892 -0.584339 2
-4.513599 109.710655 -0.440675 2
2.938188 108.736980 -3.380490 2
-152.050344 -29.788648 4.068706 7
-148.725699 -27.869096 3.855158 7
-144.580324 -28.034408 2.685301 7
-140.455793 -28.050864 1.566188 7
-136.284019 -28.089128 0.419758 7
-132.080087 -28.109538 -0.736173 7
-150.745296 23.143916 22.181423 7
-147.342405 23.667818 21.421654 7
-143.964062 24.294187 20.698137 7
-140.544646 24.881776 19.943750 7
-137.088461 25.444418 19.164408 7
-133.568495 25.933265 18.335639 7
-130.033766 26.449826 17.506089 7
-126.432779 26.898353 16.628242 7
-122.835747 27.413898 15.768246 7
-119.203078 27.923732 14.889851 7
-113.803772 25.429186 12.472907 8
-111.233563 27.925870 12.564647 8
-108.663575 30.392599 12.640066 8
-105.563194 31.974643 12.254976 8
-101.804902 32.531671 11.324470 8
-97.830601 32.816676 10.232234 8
-93.872154 33.200329 9.171330 8
-89.735765 33.392843 7.986875 8
-85.554794 33.602064 6.788053 8
-81.296403 33.783504 5.550042 8
-76.954302 33.933293 4.269512 8
-72.574374 34.118593 2.982484 8
-67.998152 34.130700 1.571572 8
-62.471830 33.007968 -0.510951 9
-61.499232 37.800670 0.742400 9
-58.226537 39.637111 0.311018 9
-54.899151 41.429040 -0.158622 9
-51.570288 43.244228 -0.627943 9
-48.126161 44.950514 -1.175464 9
-44.156797 46.089033 -2.078438 9
-39.289766 46.281185 -3.576599 9
-34.034909 46.145825 -5.310029 9
-28.585811 45.914378 -7.143354 9
-22.887122 45.539064 -9.109751 9
-17.009726 45.106166 -11.159347 9
-10.904025 44.574230 -13.321520 9
-14.130222 53.374883 -9.530093 4
-17.342515 61.917483 -5.830261 4
-16.185411 66.094437 -4.926907 4
-15.653046 70.792355 -3.663329 1
-29.742337 88.667121 6.488130 3
-34.605626 97.726778 10.868080 3
-39.208608 106.293977 15.005256 3
-43.542829 114.383751 18.901882 3
-47.639509 122.043914 22.583360 3
-51.533027 129.321826 26.075967 3
-54.940337 136.008171 29.221662 3
-58.649840 142.749929 32.481322 3
-55.004202 143.676862 31.505329 3
-3.126340 108.539092 3.390877 2
1.375938 109.733876 2.187027 2
-152.035994 -28.377026 9.396316 7
-148.617699 -26.765800 9.048164 7
-144.400647 -27.158736 7.806586 7
-140.190492 -27.424595 6.603332 7
-135.934853 -27.694363 5.380275 7
-152.079946 18.926167 25.360631 7
-149.064722 20.349886 25.026328 7
-145.729320 21.080368 24.367829 7
-142.344713 21.746781 23.668931 7
-138.941708 22.419646 22.961515 7
-135.486527 23.032859 22.214262 7
-132.021088 23.675072 21.468121 7
-128.513716 24.285941 20.694255 7
-125.002580 24.940990 19.928213 7
-121.386479 25.455546 19.080663 7
-117.766168 26.020460 18.242716 7
-112.884212 24.458854 16.343730 8
-110.384759 27.080132 16.486433 8
-107.709191 29.374845 16.466270 8
-104.418731 30.658224 15.934093 8
-100.700923 31.295538 15.062719 8
-96.686881 31.534156 13.970285 8
-92.743925 31.956620 12.952047 8
-88.732438 32.347837 11.897686 8
-84.606741 32.646717 10.774021 8
-80.435840 32.959362 9.635344 8
-76.223178 33.292545 8.484726 8
-71.883970 33.533438 7.260810 8
-67.477263 33.768956 6.008768 8
-62.455665 33.294672 4.340663 9
-61.165801 37.661440 5.322400 9
-57.905847 39.501528 4.904858 9
-54.639246 41.355053 4.483272 9
-51.332266 43.182775 4.035009 9
-47.929486 44.923518 3.523932 9
-43.927180 46.010493 2.618502 9
-39.314555 46.474062 1.324663 9
-33.987556 46.241740 -0.412472 9
-28.835107 46.311475 -2.008774 9
-23.402569 46.192409 -3.757285 9
-17.861815 46.076839 -5.545443 9
-17.740818 51.529100 -3.935432 4
-18.014009 57.260080 -2.122424 4
-17.943909 62.538638 -0.561506 4
-16.183030 66.116324 -0.058165 4
-15.685400 70.830211 1.183962 1
-35.593707 93.964574 14.477604 3
-38.375662 101.052878 17.471926 3
-41.112171 107.915048 20.379207 3
-43.736551 114.502675 23.163850 3
-46.230353 120.811928 25.819034 3
-48.623515 126.879292 28.365516 3
-65.268590 144.184991 38.853909 3
-60.617376 144.202965 37.319235 3
-55.791070 144.181723 35.710356 3
-0.372004 106.342923 6.477250 2
1.711343 109.342051 6.630905 2
-152.030301 -26.965605 14.648470 7
-148.985625 -24.461183 14.686123 7
-144.687161 -25.139264 13.357506 7
-140.392927 -25.681636 12.068303 7
-136.047526 -26.226450 10.759101 7
-149.120439 13.159927 26.951908 7
-145.861591 14.180472 26.423606 7
-142.577800 15.171821 25.873975 7
-139.271451 16.143215 25.306604 7
-137.103353 19.481338 25.799690 7
-133.694246 20.247023 25.128040 7
-130.251215 20.988422 24.434144 7
-126.759957 21.682232 23.706621 7
-123.247476 22.384197 22.970573 7
-119.709532 23.088239 22.222846 7
-116.089556 23.696388 21.416693 7
-111.755865 23.126954 20.034509 8
-109.331400 25.887918 20.230468 8
-106.508839 27.951069 20.089740 8
-103.108102 29.074641 19.485766 8
-99.298624 29.589986 18.570262 8
-95.372269 29.988916 17.579743 8
-91.476058 30.502894 16.628201 8
-87.511194 30.981633 15.640526 8
-83.451628 31.392555 14.599039 8
-79.293001 31.736615 13.502682 8
-75.114765 32.130405 12.410352 8
-70.898465 32.548766 11.308832 8
-66.498277 32.800606 10.096775 8
-62.328585 33.434775 9.063549 9
-60.546796 37.158827 9.670425 9
-57.411926 39.149379 9.344221 9
-54.147184 40.997574 8.930533 9
-50.839387 42.816864 8.489497 9
-47.492946 44.615865 8.024994 9
-43.499841 45.705265 7.147329 9
-38.778677 46.039940 5.818366 9
-33.812857 46.197102 4.356477 9
-28.711639 46.308180 2.833773 9
-23.593352 46.503933 1.324913 9
-11.828208 39.977667 -4.208917 9
-17.868611 51.733299 1.098131 4
-17.670589 56.979463 2.568309 4
-17.305202 61.962787 3.904039 4
-16.184989 66.142077 4.765655 4
-14.524483 69.763456 5.291412 1
-19.240012 79.130878 9.463162 1
-33.690655 96.872084 19.090565 3
-36.535016 103.901086 21.992783 3
-39.254812 110.640273 24.767895 3
-70.958485 141.377447 43.535329 3
-69.921785 144.203606 44.000433 3
-65.388073 144.207464 42.551465 3
-60.717603 144.196743 41.050138 3
-55.917792 144.182364 39.501703 3
-50.688841 143.944251 37.748351 3
9.369001 103.577411 7.193477 2
-150.420658 -19.458007 21.340951 7
-145.880368 -20.895437 19.743126 7
-141.313790 -22.229344 18.165807 7
-149.533613 6.550342 29.273798 7
-146.399441 7.967433 28.912959 7
-143.225061 9.298713 28.510033 7
-140.020365 10.574001 28.076863 7
-136.769196 11.765434 27.600574 7
-133.469464 12.876941 27.081825 7
-130.150811 13.975546 26.549135 7
-126.778600 14.996689 25.973388 7
-123.398719 16.035059 25.395924 7
-121.256125 19.396519 25.858017 7
-117.743199 20.203366 25.163852 7
-111.445444 16.141566 22.224079 8
-110.553156 21.667522 23.670510 8
-108.078197 24.359382 23.817999 8
-105.048824 26.101207 23.520254 8
-101.385011 26.829625 22.736150 8
-97.647167 27.494813 21.907494 8
-93.827039 28.090628 21.030088 8
-89.917921 28.613983 20.101071 8
-85.997412 29.186149 19.178427 8
-82.011313 29.728644 18.223392 8
-77.925898 30.198559 17.213583 8
-73.831655 30.727758 16.213747 8
-69.606872 31.151321 15.140294 8
-62.485105 27.831806 12.128165 9
-61.029308 32.059272 12.959092 9
-59.707799 36.376872 13.849740 9
-56.566796 38.361180 13.525893 9
-53.365747 40.288104 13.162578 9
-50.172777 42.243535 12.804610 9
-46.701735 43.894855 12.271832 9
-42.697078 44.971653 11.411070 9
-38.026592 45.363923 10.151660 9
-33.122921 45.588723 8.769911 9
-28.145216 45.830048 7.365569 9
-22.990403 45.982734 5.877820 9
-17.834788 46.237032 4.413260 9
-16.870766 50.805170 5.421231 4
-16.340055 55.726408 6.653500 4
-15.753038 60.505598 7.823217 4
-19.370910 69.176211 11.350365 1
-18.497670 73.448847 12.280547 1
-17.595315 77.632207 13.171643 1
-28.782135 92.492207 20.709083 3
-31.818499 99.764962 23.649091 3
-78.088304 143.674013 49.945798 3
-74.424013 144.217906 48.966647 3
-70.004793 144.210443 47.599740 3
-65.477573 144.206696 46.196381 3
-60.829887 144.200800 44.750957 3
-56.066748 144.201022 43.267104 3
-51.175376 144.201845 41.739187 3
-146.110863 -19.072171 25.006430 7
-147.721755 -5.633161 29.465793 7
-145.339222 -2.181829 29.911513 7
-142.602590 0.358441 29.989457 7
-139.693101 2.461799 29.887877 7
-136.677159 4.306580 29.677130 7
-133.581320 5.969751 29.387041 7
-130.432898 7.522359 29.045836 7
-127.220198 8.950965 28.646504 7
-123.933660 10.247814 28.184267 7
-120.620188 11.513038 27.701015 7
-117.250546 12.696679 27.174308 7
-113.602918 13.406411 26.430056 8
-111.410027 16.728220 26.834311 8
-109.185372 19.925513 27.188837 8
-106.452373 22.206430 27.134721 8
-103.163918 23.556584 26.655268 8
-99.451586 24.251136 25.866144 8
-95.732298 24.989774 25.083379 8
-91.916605 25.634727 24.242706 8
-88.087771 26.319401 23.405332 8
-82.486073 24.462011 21.345319 8
-80.266071 27.628500 21.654401 8
-76.245355 28.221309 20.723974 8
-72.176518 28.814396 19.775627 8
-68.069160 29.423336 18.816396 8
-62.500084 28.175779 16.916748 9
-61.779195 33.325863 18.184010 9
-58.672955 35.346955 17.891204 9
-55.547096 37.356527 17.584776 9
-52.418684 39.377396 17.275957 9
-49.219886 41.329933 16.923151 9
-45.651774 42.872807 16.345801 9
-41.539323 43.833795 15.445910 9
-36.892871 44.262221 14.240146 9
-32.135311 44.654940 12.987716 9
-27.256517 45.006783 11.684163 9
-22.236004 45.302408 10.319225 9
-17.124232 45.600766 8.923606 9
-12.070288 46.055451 7.582599 9
-14.164180 53.641145 10.268093 4
-13.387080 58.263619 11.302096 4
-16.572027 66.554897 14.488400 1
-15.769186 70.931031 15.437901 1
-14.940263 75.217445 16.350558 1
-82.143236 139.862515 53.593192 3
-82.911276 144.177073 54.976830 3
-78.739601 144.190645 53.740470 3
-74.442217 144.183858 52.457647 3
-70.046081 144.183773 51.143461 3
-65.550253 144.193163 49.798229 3
-60.940015 144.203985 48.415274 3
-56.186517 144.198245 46.981048 3
-51.303886 144.191994 45.503861 3
-46.170174 144.100243 43.924536 3
-129.251174 -19.560769 25.330859 7
-130.238556 -8.569232 28.747492 7
-128.598528 -3.549292 29.785732 7
-126.019901 -0.611440 29.986366 7
-123.157632 1.700133 29.931733 7
-120.156344 3.712411 29.752008 7
-117.045502 5.503962 29.477136 7
-113.893974 7.218893 29.165755 8
-112.141607 11.454524 29.925008 8
-110.887146 16.451162 31.023824 8
-108.549130 19.441358 31.270520 8
-105.688725 21.502992 31.115249 8
-101.428919 21.262920 29.942832 8
-97.284191 21.303187 28.875164 8
-93.561643 22.088982 28.123207 8
-89.801743 22.870179 27.355891 8
-86.000671 23.643666 26.571289 8
-82.145364 24.393151 25.761345 8
-78.253944 25.148550 24.939142 8
-74.215917 25.756956 24.032710 8
-70.242010 26.519501 23.181773 8
-66.107892 27.127649 22.240787 8
-61.884647 27.687216 21.258000 9
-60.449946 31.909910 22.031562 9
-57.471314 34.106512 21.826369 9
-54.325705 36.102593 21.516470 9
-51.284903 38.240516 21.269439 9
-48.007891 40.109107 20.880007 9
-44.323966 41.528266 20.252395 9
-40.029101 42.295397 19.275526 9
-35.498943 42.870811 18.177397 9
-30.758598 43.296599 16.976208 9
-26.034454 43.827055 15.803056 9
-21.070058 44.190936 14.513724 9
-16.018122 44.558518 13.196252 9
-10.932852 44.987873 11.881179 9
-5.825913 45.490672 10.574761 9
-10.106411 55.139903 14.330974 4
-8.846634 59.279545 15.062490 4
-12.946480 68.326098 18.599714 1
-88.689823 142.079035 59.468243 3
-87.069602 144.221631 59.562734 3
-82.971831 144.202810 58.382688 3
-78.794260 144.199389 57.180471 3
-74.503670 144.186339 55.939944 3
-70.153385 144.211606 54.688716 3
-65.636302 144.190988 53.374080 3
-61.031193 144.193098 52.036293 3
-56.315122 144.203143 50.664788 3
-51.456202 144.201034 49.245036 3
-46.482788 144.212922 47.791793 3
-113.628138 -8.107514 29.341825 8
-114.102489 0.708507 31.882980 8
-112.627161 5.603781 32.860884 8
-110.941975 9.976154 33.639409 8
-108.843386 13.504417 34.080020 8
-106.219915 16.055565 34.118576 8
-102.968385 17.524029 33.700432 8
-99.479569 18.623214 33.118178 8
-95.942160 19.681280 32.508620 8
-92.339651 20.677147 31.861822 8
-88.711618 21.677459 31.205850 8
-84.244899 21.468194 30.005222 8
-79.743848 21.306775 28.804747 8
-75.884210 22.160588 28.038154 8
-71.927566 22.933521 27.220860 8
-67.980568 23.779345 26.421570 8
-62.530155 22.665361 24.704476 9
-61.855511 27.967621 25.937027 9
-58.880736 30.185906 25.744680 9
-55.921417 32.427625 25.558592 9
-52.921247 34.623089 25.345511 9
-49.853925 36.744601 25.091182 9
-46.536419 38.581379 24.691664 9
-42.740741 39.887968 24.021954 9
-38.345546 40.560718 23.022537 9
-33.802745 41.143437 21.956070 9
-29.145124 41.680450 20.842792 9
-24.355241 42.159196 19.674662 9
-19.527583 42.685503 18.504459 9
-14.603799 43.200259 17.301044 9
-9.556545 43.680340 16.050947 9
-4.646629 44.388263 14.892379 9
-5.641417 50.874902 16.818873 4
-3.952650 54.680058 17.323043 4
-94.835832 144.123881 64.996107 3
-91.016224 144.183077 63.957511 3
-87.066206 144.202629 62.870048 3
-82.991536 144.193244 61.737910 3
-78.831580 144.193690 60.581645 3
-74.578131 144.200115 59.397905 3
-70.214497 144.202221 58.179360 3
-65.722483 144.189557 56.918220 3
-61.143481 144.199504 55.635223 3
-56.435722 144.202762 54.311291 3
-51.594225 144.200317 52.945140 3
-46.630007 144.205138 51.542934 3
-41.470673 144.169312 50.072366 3
-111.504721 -11.390000 32.548804 8
-111.286390 -3.830730 34.492324 8
-110.179345 1.824533 35.715622 8
-108.382335 6.063516 36.395414 8
-106.005390 9.176153 36.634753 8
-102.909243 11.001782 36.357596 8
-99.557918 12.403777 35.903601 8
-96.162457 13.756702 35.422475 8
-92.713786 15.051103 34.909499 8
-89.180549 16.243730 34.345641 8
-85.616762 17.425591 33.767918 8
-81.984621 18.542918 33.152953 8
-78.334564 19.675576 32.533972 8
-74.561292 20.674160 31.845992 8
-70.799269 21.737446 31.173973 8
-66.030249 21.469313 29.902329 8
-60.829782 20.727531 28.396544 9
-59.988582 25.833031 29.489152 9
-57.106768 28.200103 29.359839 9
-54.242227 30.587194 29.236444 9
-51.347568 32.935747 29.091960 9
-48.238632 35.026880 28.823627 9
-44.736702 36.666176 28.336270 9
-40.726230 37.748834 27.573605 9
-36.345327 38.467494 26.619831 9
-31.806795 39.083517 25.595746 9
-27.202744 39.706539 24.552707 9
-22.509359 40.313968 23.478778 9
-17.754805 40.939533 22.389653 9
-12.844481 41.488635 21.236926 9
-7.824605 42.015823 20.046186 9
-2.736014 42.566312 18.839287 9
-98.469048 140.404393 68.262967 3
-98.703971 144.203975 69.258410 3
-94.933995 144.219997 68.259905 3
-91.009798 144.171976 67.202180 3
-87.082369 144.201133 66.159880 3
-83.024175 144.195155 65.071496 3
-78.887635 144.204280 63.963175 3
-74.617995 144.185419 62.809697 3
-70.296908 144.210766 61.650358 3
-65.808753 144.188811 60.431863 3
-61.237563 144.192354 59.194284 3
-56.541033 144.191462 57.918899 3
-51.702361 144.178058 56.599113 3
-46.790920 144.208481 55.267072 3
-41.662002 144.180313 53.858953 3
-106.008532 -12.969440 35.457294 8
-105.960041 -5.184852 37.414130 8
-103.987900 -1.116034 37.975499 8
-101.213696 1.450855 37.965203 8
-98.260362 3.681499 37.824620 8
-95.161580 5.655795 37.581866 8
-91.945914 7.438680 37.260060 8
-88.651918 9.105670 36.887351 8
-85.276043 10.660386 36.463783 8
-81.846009 12.154021 36.008799 8
-78.336064 13.553859 35.508010 8
-74.754355 14.879609 34.968271 8
-71.096112 16.131090 34.388355 8
-67.394121 17.360798 33.789230 8
-61.192110 15.212904 31.740880 9
-60.627195 20.797221 32.978712 9
-57.925101 23.443130 32.964585 9
-55.138814 25.967184 32.896593 9
-52.331333 28.456966 32.811789 9
-49.465051 30.869227 32.690278 9
-46.245232 32.854174 32.373435 9
-42.586005 34.337558 31.821777 9
-38.364318 35.209055 30.977732 9
-33.967682 35.947523 30.054417 9
-29.467176 36.642847 29.091366 9
-24.943916 37.389009 28.131616 9
-20.309866 38.092177 27.130295 9
-15.623204 38.818968 26.118055 9
-106.571756 137.597945 72.848097 0
-108.685594 143.339500 74.756954 0
-108.479384 146.640788 75.490735 0
-102.368696 144.189841 73.346467 3
-98.677249 144.194379 72.401818 3
-94.915425 144.208032 71.439105 3
-91.035335 144.189900 70.436294 3
-87.104682 144.205228 69.426116 3
-83.050777 144.192029 68.375173 3
-78.898076 144.176282 67.295800 3
-74.689841 144.197831 66.208439 3
-70.334186 144.182878 65.071946 3
-65.889681 144.184375 63.913784 3
-61.336077 144.189366 62.725583 3
-56.672339 144.200926 61.507690 3
-51.905378 144.228087 60.263905 3
-46.929018 144.196030 58.949085 3
-41.860550 144.197666 57.615242 3
132.944813 24.462728 -15.770616 6
-87.684125 -6.196673 37.482757 8
-85.582838 -2.351333 37.918465 8
-82.936736 0.548015 37.997417 8
-79.996986 2.954273 37.886852 8
-76.846233 5.026040 37.644087 8
-73.587633 6.939588 37.335452 8
-70.234460 8.725754 36.971420 8
-66.776177 10.379129 36.548212 8
-60.595916 8.258382 34.581431 9
-60.663404 14.855773 36.161652 9
-58.231025 17.930670 36.310664 9
-55.576592 20.682922 36.327729 9
-52.923538 23.419541 36.338675 9
-50.221339 26.078766 36.316870 9
-47.268823 28.418583 36.157154 9
-43.838858 30.185611 35.745446 9
-39.852488 31.322727 35.049323 9
-35.596818 32.202176 34.225133 9
-31.196030 32.982841 33.339967 9
-26.783777 33.821977 32.462820 9
-22.377573 34.738125 31.602210 9
-17.757408 35.495040 30.649681 9
-112.072257 139.722085 77.801960 0
-114.030769 145.295728 79.566987 0
-111.946849 146.659132 79.368609 0
-107.457670 145.671612 78.036735 0
-103.877329 145.669626 77.152966 0
-98.642575 144.177156 75.517871 3
-94.899175 144.198175 74.595343 3
-91.047422 144.195670 73.638703 3
-87.111977 144.196104 72.660025 3
-83.096826 144.206038 71.661725 3
-78.963623 144.195568 70.627413 3
-74.747240 144.198560 69.573373 3
-70.441544 144.212809 68.497501 3
-66.007975 144.210460 67.383803 3
-61.446401 144.196313 66.233246 3
-56.794285 144.203965 65.062682 3
-51.996526 144.194793 63.849537 3
95.472114 39.083275 3.249448 5
103.520731 39.129288 1.220872 5
126.769311 28.595328 -7.001622 6
136.995963 27.681599 -9.801772 6
148.583333 26.063934 -13.106453 6
-67.604839 -8.525906 37.024146 8
-66.176100 -3.616060 37.821257 8
-61.652627 -3.321476 36.855101 9
-63.314450 5.861669 39.329237 9
-61.367711 9.725725 39.762103 9
-59.993169 14.304040 40.486524 9
-57.533337 17.337439 40.607914 9
-54.892974 20.104614 40.624964 9
-52.623674 23.329246 40.829028 9
-50.464311 26.656196 41.079366 9
-46.459808 27.675938 40.378492 9
-43.020981 29.432945 39.972945 9
-37.906847 29.240619 38.736250 9
-32.673328 29.017746 37.462460 9
-28.085463 29.636715 36.526022 9
-23.768480 30.634760 35.735496 9
-19.284019 31.515435 34.877014 9
-117.328161 141.761524 82.522749 0
-118.350049 146.348611 83.783108 0
-114.368186 145.697184 82.696653 0
-110.934274 145.688670 81.880876 0
-107.431066 145.681036 81.047343 0
-103.856889 145.675364 80.195851 0
-100.265655 145.725280 79.350997 0
-94.920840 144.223368 77.745278 3
-91.065476 144.206889 76.819645 3
-87.153125 144.217176 75.884622 3
-83.119101 144.199550 74.912706 3
-79.029169 144.215143 73.932959 3
-74.809932 144.204078 72.914645 3
-70.489372 144.194468 71.870547 3
-66.075830 144.196653 70.804857 3
-61.551629 144.199899 69.710920 3
-56.893422 144.190187 68.579995 3
88.859429 37.955294 10.382025 5
96.293068 38.296947 8.648295 5
104.020707 38.569162 6.825255 5
125.115207 29.539115 -0.244204 6
134.187431 29.379029 -2.493362 6
143.761940 29.061447 -4.901877 6
-61.213875 -10.508508 39.931320 9
-62.613390 -1.477680 42.213449 9
-61.184609 3.247200 42.926987 9
-59.422908 7.406006 43.441277 9
-57.425688 11.165950 43.814424 9
-55.300060 14.694297 44.106690 9
-53.013471 17.962680 44.304674 9
-50.576276 21.000399 44.417065 9
-47.754288 23.528228 44.330959 9
-44.461206 25.471776 44.010913 9
-40.600956 26.751956 43.418251 9
-36.539825 27.842451 42.737550 9
-32.375634 28.870037 42.018136 9
-28.004117 29.723012 41.212416 9
-120.566386 138.185768 85.436177 0
-122.334406 143.698476 87.017330 0
-121.845409 146.652218 87.537358 0
-117.669439 145.703226 86.384067 0
-114.297557 145.680386 85.610235 0
-110.882136 145.681774 84.830406 0
-107.405497 145.691226 84.037070 0
-103.857427 145.701133 83.226235 0
-100.223395 145.700538 82.392213 0
-94.880826 144.191445 80.845685 3
-91.050911 144.188565 79.963605 3
-87.132530 144.183496 79.059382 3
-83.146100 144.197364 78.142125 3
-79.057891 144.203573 77.198414 3
-74.850433 144.191398 76.221916 3
-70.570519 144.203840 75.232414 3
-66.160958 144.197214 74.207475 3
-61.637802 144.189120 73.154442 3
83.754634 35.821596 16.799123 5
90.744866 36.371788 15.284118 5
97.871010 36.952158 13.741309 5
105.431388 37.351515 12.057285 5
125.599505 28.972905 5.611638 6
133.973934 29.283782 3.713980 6
142.780688 29.463342 1.685442 6
-56.363348 -17.218064 42.277073 9
-57.571309 -8.348279 44.385551 9
-56.888527 -2.438480 45.469834 9
-55.601447 2.481119 46.216566 9
-53.951420 6.798884 46.758504 9
-52.064791 10.719439 47.165424 9
-49.818762 14.106353 47.382531 9
-47.156810 16.919830 47.389379 9
-44.011560 19.110718 47.161214 9
-40.279166 20.590213 46.657161 9
-36.350042 21.872264 46.068122 9
-32.366560 23.138641 45.462528 9
-28.274599 24.330137 44.816381 9
-125.471263 140.176902 89.843899 0
-127.080999 145.508954 91.290686 0
-124.985235 146.665459 91.069497 0
-120.876541 145.695128 89.970811 0
-117.589030 145.684434 89.247648 0
-114.283013 145.720615 88.529077 0
-110.846308 145.690935 87.767402 0
-107.318598 145.640895 86.980605 0
-103.813731 145.684113 86.216872 0
-100.189426 145.683526 85.416919 0
-96.507486 145.701753 84.607081 0
-91.059745 144.191496 83.095884 3
-87.141115 144.175850 82.224821 3
-83.164496 144.187866 81.345481 3
-79.110967 144.213040 80.450701 3
-74.908774 144.193965 79.512934 3
-70.657464 144.218384 78.571944 3
-66.238003 144.191787 77.582195 3
79.933836 32.784685 22.641635 5
86.518054 33.548814 21.324888 5
93.278346 34.298812 19.964167 5
100.250746 35.014690 18.547367 5
109.407479 34.277909 16.350011 5
127.708294 27.257080 10.850371 6
135.548468 27.950712 9.228980 6
143.930795 28.421881 7.439722 6
-50.388797 -18.302682 45.675109 9
-51.570290 -9.560992 47.656092 9
-51.053992 -3.441672 48.762621 9
-49.752947 1.455432 49.462392 9
-47.854397 5.453103 49.858397 9
-45.416523 8.681467 49.988551 9
-42.311237 11.023688 49.803016 9
-38.670570 12.699421 49.372799 9
-34.994233 14.363118 48.931661 9
-31.217423 15.939560 48.451183 9
-128.615351 136.673133 92.665552 0
-130.184082 142.107840 94.064646 0
-130.863155 146.382134 95.047912 0
-127.170058 145.702641 94.137503 0
-124.009480 145.689933 93.469474 0
-120.801500 145.689966 92.793309 0
-117.446046 145.599954 92.067741 0
-115.156650 146.668894 91.793472 0
-110.790590 145.679864 90.677205 0
-107.349304 145.705927 89.954206 0
-103.771759 145.668597 89.189308 0
-100.161128 145.671773 88.424612 0
-96.503669 145.703214 87.654797 0
-91.065120 144.191324 86.205878 3
-87.188923 144.203171 85.384385 3
-83.201899 144.195095 84.534734 3
-79.147655 144.208768 83.674265 3
-74.961125 144.191843 82.778950 3
-70.691221 144.189742 81.867982 3
77.303443 28.855908 27.992386 5
83.491218 29.858869 26.864291 5
90.000979 30.720284 25.638791 5
96.583652 31.642060 24.408026 5
103.373837 32.526570 23.124358 5
123.935193 23.563241 16.996190 6
131.146037 24.598403 15.648613 6
138.717879 25.510674 14.198617 6
146.586294 26.358196 12.671126 6
-39.479135 -12.127463 49.523795 9
-39.157801 -5.770150 50.657820 9
-37.021056 -1.936251 50.950159 9
-34.342794 1.151766 50.992257 9
-31.270048 3.723009 50.856887 9
-27.992036 6.041204 50.631840 9
-133.243461 138.664178 96.813546 0
-134.633850 143.885322 98.075574 0
-134.027904 146.656776 98.473665 0
-130.193006 145.728810 97.523996 0
-127.099697 145.718988 96.896254 0
-123.937941 145.696510 96.251901 0
-120.739821 145.698583 95.604400 0
-117.406039 145.622563 94.914387 0
-114.097532 145.640065 94.246613 0
-110.726928 145.660565 93.566403 0
-107.284503 145.676885 92.870430 0
-103.779878 145.701170 92.162904 0
-100.164212 145.689552 91.425697 0
-96.499458 145.704280 90.683009 0
-92.729364 145.695691 89.914120 0
-87.201033 144.198860 88.509496 3
-83.244740 144.207228 87.704995 3
-79.156977 144.181363 86.866893 3
-75.031233 144.204884 86.029789 3
79.421779 21.057445 31.628821 5
82.033616 24.945412 31.817508 5
88.071784 26.126027 30.803144 5
94.369368 27.207182 29.716546 5
100.823103 28.277921 28.595308 5
110.524451 27.057399 26.384638 5
129.294086 19.476975 21.140343 6
136.204781 20.787532 19.967535 6
143.351360 22.051704 18.736990 6
-137.600499 140.480084 100.752759 0
-138.909050 145.600574 101.923131 0
-136.895321 146.669422 101.723216 0
-133.100423 145.701328 100.812792 0
-130.078875 145.703647 100.226063 0
-126.992728 145.694267 99.624562 0
-123.852747 145.687789 99.012989 0
-120.587017 145.609843 98.364064 0
-117.314809 145.591376 97.724380 0
-114.059112 145.654872 97.102420 0
-110.679320 145.657101 96.445243 0
-107.222933 145.650826 95.771510 0
-103.704112 145.652812 95.086966 0
-100.156816 145.697347 94.404339 0
-96.454012 145.667162 93.677962 0
-92.743147 145.703251 92.961702 0
-88.891263 145.686492 92.208407 0
-83.262288 144.197485 90.846208 3
-79.192593 144.176626 90.049461 3
81.096201 13.491618 35.515797 5
86.411454 15.229744 34.789414 5
91.903728 16.901954 34.016514 5
97.623787 18.476187 33.181483 5
103.512050 20.008535 32.305923 5
106.664649 23.700420 32.348205 5
127.858293 14.045261 26.494778 6
134.205598 15.710795 25.552552 6
140.845621 17.269121 24.533846 6
148.556417 18.191538 23.192744 6
-140.643777 137.167964 103.460899 0
-141.843847 142.301275 104.556694 0
-142.306401 146.384279 105.336561 0
-139.347507 146.259817 104.763304 0
-135.945754 145.676514 104.029582 0
-132.999026 145.697772 103.483602 0
-129.984540 145.700310 102.921928 0
-126.906329 145.691833 102.346626 0
-123.716861 145.623648 101.740557 0
-120.531693 145.624423 101.147146 0
-117.288303 145.627326 100.543378 0
-113.999193 145.647403 99.934146 0
-111.591765 146.615128 99.650551 0
-107.198507 145.661060 98.670136 0
-103.657919 145.632802 98.006246 0
-100.113331 145.670993 97.353064 0
-96.441800 145.660767 96.668148 0
-92.732908 145.689052 95.982981 0
-88.912123 145.690270 95.272526 0
-83.297591 144.203362 93.974906 3
87.466291 1.787807 37.936769 5
91.466626 4.730997 37.695220 5
95.995105 7.270781 37.286945 5
100.888904 9.564561 36.769065 5
107.142981 10.846308 35.825960 5
128.863691 0.293476 29.989290 6
133.044605 3.589719 29.775827 6
138.036236 6.318017 29.315077 6
143.573720 8.708030 28.695461 6
149.527419 10.876367 27.960981 6
-144.782321 139.002711 107.193367 0
-145.883206 144.007863 108.194668 0
-145.230299 146.680893 108.507141 0
-141.626958 145.696496 107.703266 0
-138.796478 145.732227 107.202255 0
-135.850010 145.686784 106.667785 0
-132.899394 145.695688 106.141694 0
-129.870306 145.674013 105.597020 0
-126.748931 145.610419 105.029478 0
-123.626080 145.608038 104.471928 0
-120.433901 145.593477 103.900426 0
-117.247154 145.647661 103.341387 0
-113.953586 145.654275 102.756017 0
-110.576476 145.641813 102.153080 0
-108.218577 146.696673 101.904689 0
-103.647261 145.646870 100.922133 0
-100.096594 145.669808 100.295281 0
-96.434576 145.658960 99.643584 0
-92.724548 145.676585 98.988405 0
-88.908839 145.672664 98.311402 0
-85.967232 146.505455 97.925819 0
-148.784500 140.801276 110.789649 0
-149.806194 145.701688 111.707050 0
-147.874033 146.703777 111.526164 0
-144.330296 145.711394 110.766387 0
-141.490134 145.671783 110.272632 0
-138.632561 145.668143 109.781950 0
-135.766772 145.711138 109.297554 0
-132.794926 145.687515 108.785469 0
-129.755165 145.646237 108.259696 0
-126.670193 145.615582 107.728441 0
-123.742532 145.816587 107.260034 0
-121.377403 146.668388 106.987639 0
-117.204739 145.666349 106.124387 0
-113.893137 145.645719 105.558613 0
-110.551250 145.660066 104.993716 0
-107.174547 145.705413 104.428334 0
-103.731485 145.752133 103.852583 0
-101.173956 146.701017 103.566358 0
-96.461896 145.689088 102.614109 0
-92.756406 145.700623 101.990601 0
-89.940128 146.575108 101.651240 0
-151.658452 137.547645 113.380853 0
-152.635944 142.537197 114.249680 0
-152.855493 146.375395 114.830534 0
-150.188840 146.370584 114.389224 0
-146.963408 145.708516 113.763011 0
-144.174988 145.669973 113.298451 0
-141.378007 145.676626 112.839759 0
-138.525050 145.671037 112.370961 0
-135.656637 145.703386 111.905903 0
-132.645583 145.627281 111.402804 0
-129.663732 145.644744 110.918772 0
-127.519693 146.645664 110.713723 0
-124.009141 146.187180 110.076751 0
-120.660884 145.979324 109.503218 0
-118.155888 146.719195 109.204455 0
-113.865547 145.670460 108.358270 0
-110.430558 145.582540 107.790764 0
-106.991489 145.559413 107.232940 0
-103.552642 145.604082 106.685957 0
-100.022841 145.629204 106.122423 0
-96.443485 145.676880 105.555174 0
-93.797649 146.640276 105.272749 0
-155.452023 139.340111 116.796133 0
-156.345174 144.213786 117.582185 0
-155.536880 146.646709 117.775802 0
-152.181342 145.666563 117.113847 0
-149.542839 145.705479 116.701798 0
-146.816469 145.683591 116.268820 0
-144.069863 145.690426 115.837538 0
-141.276019 145.693243 115.399353 0
-138.419675 145.675937 114.949740 0
-135.485833 145.624067 114.484439 0
-132.533305 145.609224 114.022294 0
-130.460998 146.643515 113.839871 0
-126.489494 145.599020 113.082350 0
-123.955441 146.210330 112.773221 0
-121.218842 146.643291 112.409658 0
-117.092094 145.673866 111.641713 0
-113.820047 145.676671 111.139250 0
-110.403865 145.598924 110.604785 0
-106.972774 145.574584 110.076537 0
-103.589522 145.663534 109.572376 0
-100.054421 145.673393 109.035338 0
-97.533731 146.690317 108.793174 0
-159.139207 141.118213 120.098273 0
-159.911437 145.821987 120.792436 0
-157.985765 146.674948 120.603533 0
-154.674643 145.676721 119.977267 0
-152.045609 145.669289 119.577971 0
-149.387998 145.676424 119.177412 0
-146.675523 145.665704 118.767632 0
-143.941666 145.681601 118.359228 0
-141.149139 145.678973 117.941007 0
-138.280147 145.639540 117.508053 0
-135.365046 145.602939 117.069896 0
-133.344649 146.650851 116.902507 0
-130.387097 146.660335 116.466513 0
-127.411223 146.706959 116.033858 0
-123.427260 145.719741 115.322780 0
-120.133222 145.562589 114.820145 0
-116.991203 145.630852 114.369966 0
-113.707846 145.614603 113.889721 0
-110.361189 145.599125 113.401776 0
-107.017471 145.651818 112.924484 0
-103.580184 145.678399 112.431714 0
-101.139953 146.711846 112.215051 0
-161.957284 138.038712 122.635051 0
-162.687475 142.829152 123.280926 0
-162.665626 146.395915 123.679871 0
-160.190289 146.426504 123.321241 0
-157.136171 145.709657 122.794830 0
-154.538543 145.685375 122.415053 0
-151.904716 145.664582 122.031901 0
-149.266135 145.689450 121.654778 0
-146.557192 145.675933 121.264618 0
-143.790738 145.644036 120.865606 0
-140.996815 145.633256 120.466639 0
-138.155791 145.620830 120.062317 0
-135.842883 146.281704 119.812926 0
-133.244282 146.644980 119.489905 0
-129.340657 145.582942 118.817345 0
-126.318278 145.591476 118.396208 0
-123.274433 145.635242 117.977854 0
-120.137331 145.638218 117.543296 0
-116.920594 145.619119 117.096701 0
-113.656935 145.614875 116.647059 0
-110.373669 145.654321 116.201646 0
-107.034074 145.701328 115.751109 0
-104.602305 146.685387 115.539985 0
-165.462053 139.815953 125.783194 0
-166.109841 144.484071 126.353448 0
-165.131684 146.635130 126.437059 0
-162.031434 145.712681 125.906788 0
-159.503948 145.677492 125.550283 0
-156.985454 145.704700 125.203191 0
-154.394498 145.682726 124.842587 0
-151.768996 145.666124 124.479471 0
-149.119462 145.669872 124.116904 0
-146.449165 145.698661 123.755869 0
-143.648731 145.617110 123.367101 0
-141.379989 146.238375 123.127307 0
-138.209914 145.814514 122.655365 0
-136.066173 146.661543 122.460237 0
-133.153890 146.650173 122.071028 0
-129.308468 145.646522 121.451282 0
-126.276385 145.635404 121.049818 0
-123.191889 145.626506 120.643526 0
-120.036105 145.601858 120.227990 0
-116.859663 145.617230 119.816077 0
-113.654066 145.663939 119.405763 0
-110.368218 145.691398 118.984804 0
-107.990452 146.672358 118.790453 0
-168.293211 136.867647 128.318827 0
-168.845403 141.538846 128.824505 0
-169.335938 145.968663 129.301349 0
-167.402073 146.654623 129.103696 0
-164.331039 145.701742 128.601561 0
-161.849723 145.676458 128.267413 0
-159.373522 145.707110 127.941091 0
-156.819790 145.678699 127.600763 0
-154.244154 145.671075 127.261423 0
-151.631969 145.665414 126.919385 0
-148.973973 145.651357 126.572484 0
-146.262724 145.621732 126.219102 0
-144.362605 146.650569 126.075614 0
-141.599886 146.643688 125.721745 0
-138.836554 146.689613 125.374984 0
-135.933628 146.624783 125.001499 0
-132.177744 145.640314 124.430508 0
-129.172189 145.592771 124.049884 0
-126.181909 145.621057 123.680885 0
-123.132293 145.642306 123.305876 0
-119.989221 145.622874 122.917256 0
-116.829062 145.646652 122.533095 0
-113.616472 145.677394 122.145381 0
-111.231565 146.596886 121.952976 0
-171.634777 138.654889 131.328813 0
-172.116848 143.215178 131.766290 0
-171.857410 146.481281 132.002143 0
-169.449594 146.397757 131.682868 0
-166.603632 145.712262 131.258760 0
-164.155038 145.679283 130.942537 0
-161.709938 145.699527 130.633322 0
-159.217766 145.700731 130.318596 0
-156.677565 145.684312 129.998402 0
-154.110267 145.681019 129.678057 0
-151.467979 145.628782 129.346258 0
-148.835867 145.641933 129.023577 0
-146.948641 146.646400 128.881810 0
-144.194150 146.589202 128.542255 0
-141.504694 146.665391 128.224675 0
-138.688758 146.641049 127.885020 0
-135.020362 145.676289 127.360404 0
-132.084633 145.642355 127.010061 0
-129.136082 145.651251 126.664407 0
-126.131096 145.654533 126.313899 0
-123.064401 145.648883 125.957673 0
-119.957473 145.659683 125.600661 0
-117.007556 145.893093 125.285133 0
-114.355016 146.481579 125.039823 0
-174.883878 140.422939 134.245873 0
-175.285446 144.852929 134.615164 0
-174.125567 146.673648 134.601774 0
-171.175189 145.692849 134.163022 0
-168.805703 145.677462 133.869360 0
-166.427855 145.695809 133.579407 0
-164.011758 145.703906 133.286275 0
-161.548168 145.690727 132.988059 0
-159.057647 145.687791 132.689668 0
-156.527420 145.678612 132.388365 0
-153.962456 145.671832 132.085452 0
-151.340273 145.639437 131.776157 0
-148.891421 145.881398 131.510978 0
-146.758457 146.563187 131.319570 0
-144.092478 146.610197 131.018593 0
-141.060156 146.262882 130.646471 0
-137.750852 145.652274 130.224031 0
-134.905647 145.660401 129.906891 0
-131.968699 145.617985 129.577817 0
-129.056988 145.661157 129.261170 0
-126.032880 145.635553 128.928911 0
-123.008921 145.668625 128.604189 0
-120.311499 146.104721 128.351855 0
-177.678685 137.654312 136.753442 0
-178.022293 142.136166 137.069261 0
-178.180279 146.164667 137.337035 0
-176.217567 146.648498 137.130994 0
-173.315800 145.674137 136.723434 0
